ply
format ascii 1.0
element vertex 1292
property float32 x
property float32 y
property float32 z
end_header
6.5235 7.9331 -4.3618
6.5245 8.6573 -4.6940
6.5237 8.1066 -4.4411
6.5248 8.8517 -4.7838
6.5240 8.2850 -4.5228
6.5251 9.0521 -4.8766
6.5242 8.4684 -4.6071
6.5254 9.2588 -4.9725
6.5277 9.4750 -5.0733
6.5301 10.4040 -5.5081
6.5283 9.6957 -5.1762
6.5308 10.6570 -5.6272
6.5289 9.9238 -5.2828
6.5314 10.9194 -5.7509
6.5295 10.1598 -5.3934
6.5321 11.1918 -5.8797
6.5329 11.4747 -6.0137
6.5336 11.7689 -6.1533
-6.3788 18.1447 -9.2168
-6.5559 18.0176 -9.1655
-6.7797 18.0186 -9.1798
-7.3295 17.1722 -8.8059
-7.0057 18.0208 -9.1952
-7.6414 17.3776 -8.9271
-7.2326 18.0209 -9.2100
-7.2790 17.5807 -8.9999
-6.8035 8.5568 -4.6784
-7.3926 8.5318 -4.7345
-7.0658 8.5109 -4.6871
6.5236 8.0814 -3.8598
6.5246 8.8142 -4.1626
6.5238 8.2570 -3.9321
6.5249 9.0111 -4.2443
6.5241 8.4374 -4.0066
6.5252 9.2139 -4.3288
6.5243 8.6231 -4.0834
6.5273 9.4258 -4.4172
6.5278 9.6421 -4.5076
6.5302 10.5829 -4.9025
6.5284 9.8656 -4.6011
6.5309 10.8393 -5.0106
6.5290 10.0966 -4.6980
6.5316 11.1051 -5.1228
6.5296 10.3356 -4.7984
6.5323 11.3810 -5.2395
6.5330 11.6676 -5.3610
6.5159 12.8961 -5.8825
6.5338 11.9657 -5.4875
6.5160 13.2456 -6.0317
6.5157 12.2404 -5.6032
6.5161 13.6109 -6.1879
6.5158 12.5614 -5.7398
-6.1449 18.3909 -8.2315
-6.6112 17.8469 -8.0159
-6.1002 17.6229 -7.8966
-6.0969 17.0184 -7.6346
-6.8927 18.0099 -8.0992
-7.2979 17.3709 -7.8431
-7.1600 18.1227 -8.1604
-7.4517 17.2179 -7.7851
-7.2920 17.8923 -8.0674
-7.5152 16.8665 -7.6375
-8.3881 17.7917 -8.0813
-7.5754 16.5238 -7.4937
-7.0791 8.5038 -4.0793
6.5236 8.2279 -3.3638
6.5239 8.4055 -3.4292
6.5241 8.5881 -3.4966
6.5244 8.7759 -3.5660
6.5247 8.9693 -3.6375
6.5249 9.1685 -3.7113
6.5268 9.3762 -3.7884
6.5274 9.5883 -3.8672
6.5279 9.8073 -3.9486
6.5285 10.0335 -4.0329
6.5291 10.2674 -4.1201
6.5297 10.5093 -4.2105
6.5303 10.7598 -4.3041
6.5310 11.0193 -4.4013
6.5317 11.2885 -4.5022
6.5324 11.5679 -4.6070
6.5331 11.8582 -4.7161
6.5339 12.1601 -4.8296
6.5168 12.4401 -4.9344
6.5169 12.7653 -5.0570
6.5170 13.1045 -5.1849
6.5171 13.4587 -5.3187
6.5173 13.8289 -5.4587
6.5174 14.2165 -5.6053
6.5175 14.6226 -5.7591
6.5177 15.0487 -5.9207
6.5218 15.5061 -6.0943
-5.8114 18.3096 -7.1426
-5.8925 17.9023 -6.9890
-6.4824 17.7667 -6.9531
-6.1123 17.9263 -7.0039
-6.6415 17.6199 -6.9017
-6.1825 17.5205 -6.8509
-7.2575 17.5430 -6.8911
-6.9087 17.7560 -6.9614
-7.3084 17.1501 -6.7435
-7.0875 17.6592 -6.9299
-7.4630 17.0116 -6.6960
-7.8796 16.9770 -6.6970
-7.9572 16.6810 -6.5878
-7.5115 16.6419 -6.5575
-7.1055 8.5111 -3.4983
6.5237 8.3733 -2.8715
6.5239 8.5529 -2.9301
6.5242 8.7376 -2.9904
6.5245 8.9276 -3.0524
6.5247 9.1232 -3.1163
6.5264 9.3268 -3.1829
6.5269 9.5349 -3.2510
6.5275 9.7496 -3.3213
6.5280 9.9712 -3.3939
6.5286 10.2002 -3.4690
6.5292 10.4368 -3.5466
6.5298 10.6817 -3.6270
6.5305 10.9353 -3.7103
6.5311 11.1980 -3.7966
6.5318 11.4705 -3.8862
6.5325 11.7534 -3.9793
6.5333 12.0474 -4.0760
6.5177 12.3222 -4.1663
6.5179 12.6384 -4.2705
6.5180 12.9678 -4.3791
6.5181 13.3114 -4.4924
6.5183 13.6703 -4.6109
6.5184 14.0454 -4.7347
6.5186 14.4380 -4.8644
6.5188 14.8496 -5.0004
6.5189 15.2814 -5.1432
6.5234 15.7456 -5.2968
6.5246 16.2261 -5.4558
6.5259 16.7328 -5.6235
6.5272 17.2679 -5.8007
6.5286 17.8341 -5.9883
6.5339 18.4451 -6.1909
-5.5037 18.2670 -6.1206
-5.7186 18.2828 -6.1280
-5.9350 18.2984 -6.1355
-6.1429 18.2835 -6.1328
-6.3620 18.2975 -6.1399
-6.3906 17.7770 -5.9677
-6.6039 17.7830 -5.9723
-6.8725 17.9289 -6.0239
-7.0184 17.7514 -5.9670
-7.0978 17.4173 -5.8575
-7.1523 17.0394 -5.7332
-7.6679 17.7460 -5.9740
-7.3561 16.5481 -5.5736
-7.8595 17.1950 -5.7946
-7.9375 16.8976 -5.6976
-8.0134 16.6076 -5.6030
6.5237 8.5182 -2.3808
6.5240 8.6998 -2.4326
6.5243 8.8866 -2.4858
6.5245 9.0788 -2.5405
6.5248 9.2767 -2.5969
6.5265 9.4827 -2.6555
6.5270 9.6932 -2.7154
6.5276 9.9104 -2.7772
6.5281 10.1346 -2.8410
6.5287 10.3663 -2.9068
6.5293 10.6058 -2.9749
6.5299 10.8536 -3.0454
6.5306 11.1102 -3.1183
6.5312 11.3761 -3.1939
6.5319 11.6520 -3.2722
6.5326 11.9384 -3.3536
6.5334 12.2359 -3.4381
6.5188 12.5158 -3.5176
6.5189 12.8360 -3.6085
6.5191 13.1697 -3.7032
6.5192 13.5177 -3.8020
6.5194 13.8812 -3.9051
6.5196 14.2612 -4.0128
6.5198 14.6590 -4.1257
6.5200 15.0759 -4.2439
6.5238 15.5220 -4.3703
6.5250 15.9845 -4.5014
6.5262 16.4715 -4.6394
6.5275 16.9849 -4.7849
6.5289 17.5273 -4.9385
6.5303 18.1012 -5.1011
6.5348 18.7179 -5.2757
6.5365 19.3646 -5.4588
6.5384 20.0530 -5.6537
6.5403 20.7873 -5.8616
6.5307 21.5339 -6.0729
-6.7887 34.3353 -9.6934
-7.1593 34.3285 -9.6907
-7.5507 34.4104 -9.7129
-5.2713 17.7487 -5.0058
-5.5082 17.8654 -5.0381
-5.7495 17.9841 -5.0708
-5.5476 16.7523 -4.7228
-5.9402 17.3344 -4.8862
-6.3675 17.9725 -5.0652
-6.5516 17.9019 -5.0445
-6.7355 17.8313 -5.0237
-6.9194 17.7607 -5.0030
-7.1192 17.7301 -4.9935
-7.2873 17.6206 -4.9617
-7.1952 16.9021 -4.7584
-7.1780 16.3909 -4.6136
-7.7615 17.2379 -4.8510
-8.0169 17.3264 -4.8748
-8.1031 17.0502 -4.7960
-7.0304 8.5455 -2.3849
6.5238 8.6633 -1.8896
6.5241 8.8469 -1.9345
6.5243 9.0358 -1.9807
6.5246 9.2301 -2.0281
6.5261 9.4321 -2.0772
6.5266 9.6386 -2.1275
6.5271 9.8516 -2.1792
6.5277 10.0713 -2.2325
6.5283 10.2982 -2.2874
6.5288 10.5326 -2.3441
6.5294 10.7749 -2.4026
6.5301 11.0256 -2.4631
6.5307 11.2853 -2.5257
6.5314 11.5545 -2.5905
6.5321 11.8336 -2.6576
6.5328 12.1235 -2.7271
6.5197 12.3983 -2.7934
6.5198 12.7097 -2.8680
6.5200 13.0340 -2.9456
6.5202 13.3718 -3.0263
6.5204 13.7243 -3.1105
6.5206 14.0924 -3.1983
6.5208 14.4773 -3.2899
6.5210 14.8802 -3.3858
6.5241 15.3095 -3.4878
6.5253 15.7552 -3.5936
6.5265 16.2238 -3.7048
6.5278 16.7172 -3.8217
6.5291 17.2375 -3.9449
6.5306 17.7871 -4.0749
6.5340 18.3741 -4.2136
6.5357 18.9911 -4.3593
6.5374 19.6464 -4.5139
6.5393 20.3440 -4.6784
6.5413 21.0881 -4.8537
6.5323 21.8467 -5.0324
6.5339 22.6958 -5.2321
6.5356 23.6084 -5.4467
6.5386 24.5967 -5.6788
6.5414 25.6636 -5.9293
6.5444 26.8213 -6.2009
-6.0312 34.7102 -8.0538
-6.4247 34.8488 -8.0821
-6.8446 35.1009 -8.1365
-7.1180 34.6077 -8.0180
-7.3636 34.0282 -7.8793
-7.8572 34.5882 -8.0043
-8.3002 34.8785 -8.0665
-5.3983 17.7592 -4.0893
-5.6338 17.8748 -4.1125
-5.8738 17.9926 -4.1360
-5.7452 17.0072 -3.9059
-6.4592 18.4955 -4.2437
-6.3848 17.6997 -4.0571
-6.5822 17.6795 -4.0484
-6.7805 17.6590 -4.0394
-7.0858 17.9062 -4.0915
-7.2057 17.6803 -4.0353
-7.4126 17.6709 -4.0284
-7.1584 16.5893 -3.7773
-7.6509 17.2461 -3.9219
-8.1201 17.8128 -4.0455
-8.2690 17.6615 -4.0058
-8.3633 17.4003 -3.9411
-8.5108 17.2563 -3.9029
-8.6573 17.1132 -3.8649
-7.0368 8.5270 -1.8373
6.5239 8.8091 -1.3957
6.5241 8.9948 -1.4338
6.5244 9.1858 -1.4728
6.5257 9.3839 -1.5131
6.5262 9.5866 -1.5543
6.5267 9.7955 -1.5965
6.5273 10.0109 -1.6400
6.5278 10.2332 -1.6848
6.5284 10.4626 -1.7308
6.5289 10.6997 -1.7783
6.5295 10.9449 -1.8272
6.5302 11.1986 -1.8777
6.5308 11.4614 -1.9298
6.5315 11.7338 -1.9837
6.5322 12.0163 -2.0395
6.5205 12.2862 -2.0933
6.5207 12.5894 -2.1529
6.5209 12.9048 -2.2147
6.5211 13.2331 -2.2788
6.5213 13.5752 -2.3456
6.5215 13.9321 -2.4150
6.5217 14.3049 -2.4874
6.5219 14.6947 -2.5629
6.5222 15.1028 -2.6417
6.5256 15.5382 -2.7255
6.5268 15.9897 -2.8123
6.5281 16.4644 -2.9034
6.5294 16.9644 -2.9991
6.5308 17.4916 -3.0999
6.5323 18.0485 -3.2061
6.5349 18.6408 -3.3188
6.5365 19.2658 -3.4376
6.5383 19.9298 -3.5635
6.5402 20.6366 -3.6974
6.5324 21.3586 -3.8341
6.5340 22.1615 -3.9857
6.5356 23.0222 -4.1478
6.5373 23.9471 -4.3219
6.5402 24.9481 -4.5099
6.5431 26.0295 -4.7127
6.5461 27.2031 -4.9326
6.5373 28.4285 -5.1621
6.5375 29.8079 -5.4199
6.5599 31.4280 -5.7218
6.5600 33.1016 -6.0338
-5.6955 35.3813 -6.4738
-5.9966 34.9871 -6.3954
-6.3633 34.9926 -6.3897
-6.6734 34.6964 -6.3286
-6.9651 34.3336 -6.2550
-7.2502 33.9695 -6.1810
-7.7327 34.5142 -6.2719
-7.9096 33.7008 -6.1156
-6.8870 26.8858 -4.8644
-7.4680 26.8803 -4.8476
-5.3917 17.9890 -3.2326
-5.6059 18.0391 -3.2355
-5.8226 18.0898 -3.2382
-6.0834 18.2661 -3.2630
-6.0238 17.4963 -3.1189
-6.0410 16.9877 -3.0215
-6.4004 17.4396 -3.0947
-6.7036 17.7119 -3.1356
-6.9828 17.9030 -3.1615
-7.1460 17.7902 -3.1336
-7.4450 18.0084 -3.1636
-7.0344 16.5422 -2.8980
-7.8222 17.8931 -3.1257
-7.9715 17.7466 -3.0910
-8.1135 17.5880 -3.0540
-8.2311 17.3821 -3.0087
-8.3768 17.2404 -2.9745
-8.5214 17.0997 -2.9402
-22.5750 42.0837 -7.1580
-7.0432 8.5097 -1.2994
6.5239 8.9564 -0.8969
6.5242 9.1442 -0.9281
6.5253 9.3386 -0.9600
6.5258 9.5377 -0.9927
6.5263 9.7427 -1.0261
6.5268 9.9539 -1.0604
6.5274 10.1718 -1.0956
6.5279 10.3966 -1.1316
6.5285 10.6287 -1.1687
6.5291 10.8686 -1.2068
6.5297 11.1166 -1.2461
6.5303 11.3734 -1.2865
6.5309 11.6392 -1.3281
6.5316 11.9148 -1.3710
6.5323 12.2007 -1.4154
6.5215 12.4756 -1.4586
6.5217 12.7825 -1.5058
6.5219 13.1018 -1.5547
6.5222 13.4342 -1.6053
6.5224 13.7806 -1.6579
6.5226 14.1420 -1.7124
6.5229 14.5195 -1.7692
6.5231 14.9143 -1.8283
6.5260 15.3337 -1.8907
6.5271 15.7693 -1.9554
6.5284 16.2267 -2.0230
6.5297 16.7076 -2.0938
6.5310 17.2141 -2.1681
6.5325 17.7482 -2.2462
6.5341 18.3128 -2.3284
6.5357 18.9101 -2.4150
6.5374 19.5433 -2.5066
6.5392 20.2160 -2.6036
6.5412 20.9322 -2.7065
6.5340 21.6658 -2.8119
6.5356 22.4795 -2.9281
6.5373 23.3518 -3.0523
6.5391 24.2894 -3.1854
6.5418 25.3031 -3.3289
6.5447 26.3993 -3.4836
6.5387 27.5505 -3.6460
6.5390 28.8306 -3.8259
6.5392 30.2290 -4.0220
6.5581 31.8534 -4.2486
6.5468 33.4905 -4.4774
6.5513 35.3894 -4.7417
6.5575 37.5159 -5.0371
6.5562 39.8553 -5.3617
-5.1706 34.8063 -4.6955
-5.5571 34.9948 -4.7127
-5.8038 34.3275 -4.6141
-6.2681 34.9433 -4.6874
-6.6056 34.8173 -4.6606
-6.9612 34.7885 -4.6462
-7.2631 34.5010 -4.5967
-7.7348 35.0025 -4.6517
-7.9496 34.3422 -4.5518
-8.3819 34.6314 -4.5773
-7.3637 26.8769 -3.5196
-5.3039 18.6274 -2.4311
-5.5085 18.6380 -2.4239
-5.4944 17.9304 -2.3233
-5.7062 17.9799 -2.3207
-5.9204 18.0298 -2.3178
-6.2990 18.5569 -2.3756
-6.5798 18.7681 -2.3922
-6.4103 17.7179 -2.2481
-6.3700 17.0735 -2.1562
-6.8054 17.7008 -2.2245
-6.8683 17.3476 -2.1690
-7.1732 17.6044 -2.1895
-7.3234 17.4743 -2.1614
-7.4726 17.3451 -2.1332
-7.7464 17.5004 -2.1397
-7.8976 17.3742 -2.1112
-8.0127 17.1734 -2.0736
-8.0872 16.8939 -2.0264
-8.1596 16.6203 -1.9799
-7.0565 8.5029 -0.7694
6.5240 9.1059 -0.3910
6.5250 9.2967 -0.4151
6.5254 9.4923 -0.4397
6.5259 9.6936 -0.4648
6.5264 9.9009 -0.4904
6.5269 10.1146 -0.5166
6.5275 10.3350 -0.5433
6.5280 10.5624 -0.5706
6.5286 10.7972 -0.5986
6.5292 11.0399 -0.6272
6.5298 11.2908 -0.6566
6.5304 11.5506 -0.6868
6.5311 11.8196 -0.7177
6.5317 12.0985 -0.7495
6.5224 12.3687 -0.7811
6.5226 12.6677 -0.8147
6.5228 12.9784 -0.8493
6.5230 13.3017 -0.8850
6.5233 13.6382 -0.9219
6.5235 13.9890 -0.9601
6.5238 14.3550 -0.9996
6.5240 14.7373 -1.0405
6.5243 15.1371 -1.0831
6.5275 15.5625 -1.1277
6.5287 16.0038 -1.1739
6.5299 16.4671 -1.2220
6.5313 16.9544 -1.2722
6.5327 17.4675 -1.3247
6.5342 18.0087 -1.3798
6.5349 18.5783 -1.4374
6.5366 19.1833 -1.4981
6.5383 19.8248 -1.5621
6.5402 20.5064 -1.6296
6.5421 21.2321 -1.7011
6.5357 21.9775 -1.7746
6.5373 22.8022 -1.8549
6.5390 23.6864 -1.9405
6.5407 24.6360 -2.0320
6.5434 25.6633 -2.1304
6.5464 26.7745 -2.2363
6.5404 27.9410 -2.3473
6.5407 29.2386 -2.4699
6.5563 30.7276 -2.6093
6.5562 32.2847 -2.7552
6.5496 33.9673 -2.9123
6.5542 35.8931 -3.0910
6.5580 38.0345 -3.2890
6.5363 40.2802 -3.4968
-5.4985 35.1009 -3.0534
-5.6479 33.8644 -2.9348
-6.0346 34.1046 -2.9439
-6.4799 34.6257 -2.9761
-6.8656 34.7848 -2.9763
-7.2517 34.9236 -2.9739
-7.6121 34.9249 -2.9590
-7.9172 34.6775 -2.9223
-8.2093 34.3907 -2.8818
-8.4992 34.1129 -2.8416
-5.5890 18.4976 -1.4885
-5.7914 18.5077 -1.4775
-5.9952 18.5177 -1.4661
-5.9343 17.7324 -1.3917
-6.1356 17.7521 -1.3806
-6.3387 17.7718 -1.3691
-6.2235 16.9216 -1.2907
-6.7500 17.8111 -1.3445
-6.9330 17.7658 -1.3266
-7.0702 17.6051 -1.2998
-7.2062 17.4466 -1.2729
-7.3699 17.3584 -1.2508
-7.7284 17.7178 -1.2603
-7.7964 17.4063 -1.2215
-7.8798 17.1403 -1.1860
-7.9679 16.8941 -1.1518
-8.0445 16.6324 -1.1165
6.5241 9.2581 0.1245
6.5251 9.4511 0.1075
6.5255 9.6489 0.0904
6.5260 9.8525 0.0730
6.5265 10.0622 0.0554
6.5270 10.2783 0.0375
6.5276 10.5012 0.0194
6.5281 10.7313 0.0010
6.5287 10.9688 -0.0177
6.5293 11.2144 -0.0367
6.5299 11.4683 -0.0560
6.5305 11.7311 -0.0757
6.5312 12.0034 -0.0958
6.5232 12.2692 -0.1161
6.5234 12.5608 -0.1370
6.5236 12.8635 -0.1584
6.5239 13.1781 -0.1802
6.5241 13.5054 -0.2025
6.5244 13.8462 -0.2254
6.5247 14.2014 -0.2489
6.5249 14.5721 -0.2730
6.5252 14.9593 -0.2979
6.5278 15.3695 -0.3235
6.5290 15.7958 -0.3500
6.5302 16.2428 -0.3772
6.5315 16.7123 -0.4055
6.5329 17.2059 -0.4347
6.5344 17.7259 -0.4651
6.5342 18.2696 -0.4965
6.5358 18.8488 -0.5293
6.5375 19.4618 -0.5636
6.5392 20.1118 -0.5994
6.5411 20.8024 -0.6370
6.5357 21.5136 -0.6757
6.5373 22.2953 -0.7171
6.5390 23.1312 -0.7609
6.5408 24.0274 -0.8072
6.5423 24.9891 -0.8563
6.5451 26.0305 -0.9087
6.5481 27.1570 -0.9648
6.5420 28.3390 -1.0235
6.5424 29.6546 -1.0877
6.5544 31.1469 -1.1591
6.5543 32.7239 -1.2345
6.5524 34.4534 -1.3164
6.5571 36.4066 -1.4077
6.5584 38.5631 -1.5077
6.5288 40.7889 -1.6114
-5.4961 35.5693 -1.4128
-5.8545 35.5881 -1.3996
-6.0788 34.8299 -1.3552
-6.3369 34.3306 -1.3205
-6.8566 35.2215 -1.3383
-7.0887 34.6137 -1.2980
-7.3896 34.3766 -1.2712
-7.7525 34.4307 -1.2544
-7.9542 33.7887 -1.2116
-5.8003 18.1720 -0.5499
-5.9887 18.1518 -0.5343
-6.1777 18.1311 -0.5181
-6.3548 18.0745 -0.5003
-6.5245 17.9974 -0.4816
-6.6939 17.9202 -0.4625
-6.8629 17.8428 -0.4429
-7.0413 17.7900 -0.4235
-7.1489 17.5627 -0.3996
-7.2441 17.3145 -0.3752
-7.0269 16.3486 -0.3359
-7.6916 17.4282 -0.3380
-22.5901 42.0528 -0.3705
-21.4744 32.1212 0.2658
-21.4766 31.4654 0.3227
-21.4787 30.8280 0.3789
-21.4808 30.2079 0.4345
-21.4828 29.6046 0.4894
-21.4006 28.9034 0.5417
-21.4859 28.4438 0.5976
-21.4878 27.8859 0.6509
-21.4896 27.3419 0.7038
-21.4913 26.8111 0.7561
6.5247 9.4148 0.6521
6.5252 9.6092 0.6425
6.5256 9.8092 0.6330
6.5261 10.0151 0.6235
6.5266 10.2273 0.6141
6.5272 10.4459 0.6047
6.5277 10.6714 0.5954
6.5282 10.9041 0.5861
6.5288 11.1445 0.5769
6.5294 11.3930 0.5678
6.5300 11.6500 0.5587
6.5306 11.9159 0.5497
6.5313 12.1915 0.5407
6.5242 12.4623 0.5312
6.5245 12.7575 0.5224
6.5247 13.0640 0.5136
6.5250 13.3825 0.5049
6.5252 13.7140 0.4963
6.5255 14.0591 0.4877
6.5258 14.4189 0.4792
6.5261 14.7943 0.4708
6.5265 15.1865 0.4626
6.5293 15.6028 0.4545
6.5305 16.0346 0.4464
6.5318 16.4876 0.4385
6.5332 16.9633 0.4306
6.5346 17.4635 0.4229
6.5361 17.9904 0.4153
6.5351 18.5388 0.4076
6.5367 19.1257 0.4003
6.5384 19.7469 0.3931
6.5402 20.4056 0.3861
6.5421 21.1054 0.3793
6.5374 21.8282 0.3722
6.5390 22.6207 0.3657
6.5407 23.4681 0.3594
6.5412 24.3716 0.3534
6.5439 25.3507 0.3477
6.5468 26.4066 0.3423
6.5433 27.5211 0.3369
6.5438 28.7466 0.3322
6.5442 30.0805 0.3278
6.5526 31.5757 0.3243
6.5523 33.1731 0.3210
6.5553 34.9513 0.3185
6.5576 36.9180 0.3166
6.5589 39.1041 0.3156
-6.3293 34.7691 0.3064
-6.6992 34.8952 0.3266
-6.9934 34.6277 0.3441
-7.3404 26.8905 0.3996
-6.4877 17.6230 0.4156
-7.0992 17.6997 0.4805
-7.5002 18.1937 0.5169
-21.3670 39.4811 1.7821
-21.4532 38.7533 1.8189
-21.4561 37.9015 1.8491
-21.4588 37.0780 1.8794
-21.4615 36.2811 1.9099
-21.4641 35.5096 1.9407
-21.4666 34.7620 1.9716
-21.3857 33.9051 1.9949
-21.4692 33.3306 2.0338
-21.4715 32.6480 2.0653
-21.4737 31.9848 2.0970
-21.4759 31.3404 2.1288
-21.4780 30.7135 2.1608
-21.4800 30.1036 2.1931
-21.4820 29.5098 2.2255
-21.3998 28.8179 2.2492
-21.4851 28.3665 2.2907
-21.4869 27.8167 2.3236
-21.4887 27.2803 2.3568
6.5248 9.5751 1.1947
6.5253 9.7717 1.1927
6.5258 9.9741 1.1909
6.5262 10.1824 1.1896
6.5268 10.3970 1.1885
6.5273 10.6182 1.1879
6.5278 10.8464 1.1876
6.5284 11.0819 1.1878
6.5289 11.3252 1.1883
6.5295 11.5767 1.1894
6.5301 11.8367 1.1908
6.5308 12.1060 1.1928
6.5250 12.3727 1.1941
6.5253 12.6608 1.1971
6.5256 12.9598 1.2006
6.5258 13.2702 1.2048
6.5261 13.5928 1.2096
6.5264 13.9285 1.2151
6.5267 14.2781 1.2213
6.5270 14.6426 1.2282
6.5274 15.0229 1.2361
6.5297 15.4249 1.2451
6.5309 15.8427 1.2549
6.5321 16.2804 1.2658
6.5335 16.7394 1.2777
6.5349 17.2215 1.2908
6.5363 17.7285 1.3053
6.5368 18.2595 1.3208
6.5360 18.8158 1.3376
6.5376 19.4105 1.3565
6.5393 20.0401 1.3772
6.5411 20.7077 1.3998
6.5375 21.3989 1.4233
6.5390 22.1520 1.4502
6.5407 22.9555 1.4797
6.5425 23.8147 1.5120
6.5428 24.7300 1.5472
6.5456 25.7228 1.5863
6.5485 26.7934 1.6294
6.5450 27.9232 1.6752
6.5455 29.1660 1.7269
6.5510 30.5416 1.7855
6.5506 32.0165 1.8489
6.5537 33.6522 1.9205
6.5583 35.4638 2.0011
6.5581 37.4440 2.0900
6.5584 39.6546 2.1906
-6.9157 34.7303 1.9924
-10.5721 48.2958 2.8393
-10.9108 47.6763 2.8393
-11.2361 47.0444 2.8393
-11.5481 46.4016 2.8393
-11.8468 45.7491 2.8393
-12.1323 45.0882 2.8393
-12.4046 44.4202 2.8393
-12.6638 43.7460 2.8393
-12.9102 43.0671 2.8393
-13.1437 42.3842 2.8393
-13.3655 41.6985 2.8393
-13.5732 41.0108 2.8393
-14.1273 38.9461 2.8393
-13.7697 40.3223 2.8393
-14.2889 38.2599 2.8393
-13.9543 39.6338 2.8393
-14.4394 37.5761 2.8393
-14.7085 36.2181 2.8393
-6.9915 17.6934 1.3616
-14.8277 35.5453 2.8393
-15.1273 33.5572 2.8393
-14.9370 34.8771 2.8393
-15.2089 32.9062 2.8393
-15.0367 34.2142 2.8393
-15.2820 32.2620 2.8393
-15.4035 30.9944 2.8393
-15.3467 31.6245 2.8393
-15.4526 30.3717 2.8393
-15.5570 28.5510 2.8393
-15.4944 29.7568 2.8393
-15.5784 27.9606 2.8393
-15.5290 29.1498 2.8393
-15.5936 27.3786 2.8393
-15.6064 26.2403 2.8393
-15.6028 26.8051 2.8393
-15.6045 25.6843 2.8393
-15.5688 24.0689 2.8393
-15.5975 25.1370 2.8393
-15.5477 23.5481 2.8393
-15.5855 24.5986 2.8393
-15.5223 23.0361 2.8393
-15.4596 22.0384 2.8393
-15.4929 22.5329 2.8393
-15.4227 21.5527 2.8393
-15.3824 21.0756 2.8393
-15.3388 20.6070 2.8393
-15.2921 20.1469 2.8393
-15.2425 19.6954 2.8393
6.5249 9.7407 1.7553
6.5254 9.9397 1.7611
6.5259 10.1444 1.7675
6.5264 10.3552 1.7745
6.5269 10.5724 1.7821
6.5274 10.7963 1.7905
6.5279 11.0272 1.7996
6.5285 11.2656 1.8094
6.5291 11.5119 1.8201
6.5297 11.7664 1.8316
6.5303 12.0298 1.8440
6.5259 12.2928 1.8559
6.5261 12.5743 1.8701
6.5264 12.8661 1.8853
6.5267 13.1688 1.9017
6.5270 13.4833 1.9192
6.5273 13.8102 1.9379
6.5276 14.1503 1.9580
6.5279 14.5045 1.9795
6.5283 14.8738 2.0024
6.5286 15.2592 2.0270
6.5313 15.6673 2.0540
6.5325 16.0908 2.0824
6.5338 16.5344 2.1127
6.5352 16.9997 2.1453
6.5366 17.4884 2.1801
6.5381 18.0024 2.2173
6.5353 18.5315 2.2558
6.5369 19.1020 2.2987
6.5385 19.7049 2.3447
6.5403 20.3432 2.3942
6.5421 21.0200 2.4474
6.5391 21.7230 2.5029
6.5408 22.4867 2.5647
6.5425 23.3015 2.6314
6.5038 24.0231 2.6869
6.3224 24.2487 2.6869
6.1365 24.4693 2.6869
5.9460 24.6846 2.6869
5.7510 24.8943 2.6869
5.5517 25.0982 2.6869
5.3480 25.2961 2.6869
5.1401 25.4875 2.6869
4.9282 25.6723 2.6869
4.8234 26.4599 2.7502
4.7473 27.4967 2.8393
4.5111 27.6692 2.8393
4.2712 27.8335 2.8393
4.0276 27.9895 2.8393
3.7806 28.1368 2.8393
3.5303 28.2753 2.8393
3.2770 28.4047 2.8393
3.0208 28.5248 2.8393
2.7619 28.6354 2.8393
2.5006 28.7363 2.8393
2.2370 28.8274 2.8393
1.9714 28.9085 2.8393
1.7041 28.9795 2.8393
1.4352 29.0402 2.8393
1.1649 29.0906 2.8393
0.8936 29.1305 2.8393
0.6215 29.1600 2.8393
0.3488 29.1788 2.8393
0.0758 29.1870 2.8393
-0.1972 29.1847 2.8393
-0.4701 29.1717 2.8393
-0.7426 29.1482 2.8393
-1.0144 29.1140 2.8393
-1.2852 29.0695 2.8393
-1.5549 29.0145 2.8393
-1.8232 28.9492 2.8393
-2.0898 28.8737 2.8393
-2.3545 28.7882 2.8393
-2.6171 28.6926 2.8393
-2.8774 28.5874 2.8393
-3.1351 28.4725 2.8393
-3.3900 28.3483 2.8393
-3.6420 28.2148 2.8393
-3.8908 28.0724 2.8393
-4.1363 27.9212 2.8393
-4.3783 27.7614 2.8393
-4.6166 27.5935 2.8393
-4.8510 27.4175 2.8393
-5.0815 27.2337 2.8393
-5.3078 27.0426 2.8393
-5.5299 26.8441 2.8393
-5.6442 26.1596 2.7882
-5.6616 25.1006 2.6968
-5.8383 24.8018 2.6869
-6.0312 24.5895 2.6869
-6.2197 24.3718 2.6869
-6.4036 24.1489 2.6869
-6.5829 23.9212 2.6869
-6.7575 23.6889 2.6869
-6.9273 23.4524 2.6869
-7.0925 23.2117 2.6869
-7.2528 22.9674 2.6869
-7.4083 22.7196 2.6869
-7.5591 22.4686 2.6869
-7.8462 21.9579 2.6869
-7.7050 22.2146 2.6869
-7.9825 21.6989 2.6869
-7.0492 17.6246 2.2647
-8.1141 21.4376 2.6869
-7.2377 17.6182 2.2931
-8.2409 21.1745 2.6869
-8.5933 20.3758 2.6869
-8.8052 19.8380 2.6869
-8.7015 20.1073 2.6869
-8.9044 19.5680 2.6869
-9.6960 19.8205 2.8393
-8.9991 19.2977 2.6869
-9.0895 19.0272 2.6869
-9.7825 19.5348 2.8393
-9.8646 19.2494 2.8393
-10.0159 18.6802 2.8393
-10.0852 18.3968 2.8393
-9.9424 18.9645 2.8393
-10.1505 18.1144 2.8393
-10.2691 17.5530 2.8393
-10.3226 17.2743 2.8393
-10.2118 17.8330 2.8393
-10.3724 16.9970 2.8393
-10.4610 16.4474 2.8393
-10.4185 16.7220 2.8393
-10.5001 16.1752 2.8393
-10.5972 15.3705 2.8393
-10.5358 15.9049 2.8393
-10.6232 15.1063 2.8393
-10.5681 15.6367 2.8393
-10.6461 14.8444 2.8393
-10.6661 14.5847 2.8393
-10.6831 14.3273 2.8393
-10.6974 14.0723 2.8393
6.5250 9.9127 2.3375
6.5255 10.1141 2.3514
6.5260 10.3213 2.3661
6.5265 10.5346 2.3818
6.5270 10.7545 2.3985
6.5275 10.9811 2.4162
6.5281 11.2150 2.4350
6.5286 11.4564 2.4550
6.5292 11.7057 2.4761
6.5298 11.9635 2.4985
6.5304 12.2302 2.5222
6.5270 12.4984 2.5458
6.5273 12.7836 2.5722
6.5276 13.0792 2.6002
6.5279 13.3860 2.6298
6.5282 13.7047 2.6612
6.5100 13.9963 2.6869
6.4263 14.1550 2.6869
6.3400 14.3127 2.6869
6.2509 14.4692 2.6869
6.1592 14.6245 2.6869
6.0647 14.7784 2.6869
5.9676 14.9309 2.6869
5.8677 15.0819 2.6869
5.7652 15.2312 2.6869
5.6599 15.3788 2.6869
5.5520 15.5245 2.6869
5.4413 15.6682 2.6869
5.3280 15.8097 2.6869
5.2121 15.9490 2.6869
5.0935 16.0860 2.6869
4.9724 16.2205 2.6869
4.8487 16.3524 2.6869
4.8061 16.7739 2.7345
4.7944 17.3339 2.8043
4.7155 17.6806 2.8393
4.5742 17.8079 2.8393
4.4304 17.9318 2.8393
4.2842 18.0524 2.8393
4.1356 18.1693 2.8393
3.9846 18.2825 2.8393
3.8313 18.3919 2.8393
3.6758 18.4974 2.8393
3.5181 18.5989 2.8393
3.3584 18.6962 2.8393
3.1967 18.7893 2.8393
3.0331 18.8780 2.8393
2.8676 18.9623 2.8393
2.7004 19.0422 2.8393
2.5315 19.1173 2.8393
2.3611 19.1878 2.8393
2.1892 19.2535 2.8393
2.0159 19.3144 2.8393
1.8414 19.3703 2.8393
1.6657 19.4213 2.8393
1.4889 19.4672 2.8393
1.3112 19.5080 2.8393
1.1327 19.5436 2.8393
0.9535 19.5741 2.8393
0.7736 19.5994 2.8393
0.5932 19.6194 2.8393
0.4125 19.6341 2.8393
0.2315 19.6436 2.8393
0.0503 19.6477 2.8393
-0.1309 19.6465 2.8393
-0.3120 19.6400 2.8393
-0.4929 19.6282 2.8393
-0.6735 19.6111 2.8393
-0.8536 19.5888 2.8393
-1.0332 19.5612 2.8393
-1.2122 19.5284 2.8393
-1.3903 19.4905 2.8393
-1.5676 19.4474 2.8393
-1.7439 19.3993 2.8393
-1.9191 19.3461 2.8393
-2.0931 19.2879 2.8393
-2.2658 19.2249 2.8393
-2.4370 19.1571 2.8393
-2.6068 19.0845 2.8393
-2.7749 19.0072 2.8393
-2.9414 18.9254 2.8393
-3.1060 18.8391 2.8393
-3.5885 18.5542 2.8393
-3.2688 18.7484 2.8393
-3.7452 18.4510 2.8393
-3.4297 18.6534 2.8393
-3.8997 18.3437 2.8393
-4.2019 18.1177 2.8393
-4.3495 17.9992 2.8393
-4.0520 18.2326 2.8393
-4.4947 17.8772 2.8393
-4.7774 17.6230 2.8393
-4.6373 17.7517 2.8393
-5.3117 17.0777 2.8393
-4.9150 17.4911 2.8393
-5.6676 16.1072 2.7734
-5.0499 17.3562 2.8393
-5.4385 16.9344 2.8393
-5.6769 15.6713 2.7236
-5.1821 17.2183 2.8393
-5.5626 16.7885 2.8393
-5.7070 15.3134 2.6869
-5.9125 15.0150 2.6869
-5.6579 16.5642 2.8263
-5.8111 15.1651 2.6869
-6.0111 14.8633 2.6869
-6.2909 14.3997 2.6869
-6.6262 13.7655 2.6869
-6.3787 14.2427 2.6869
-6.1071 14.7101 2.6869
-6.7034 13.6048 2.6869
-6.4639 14.0846 2.6869
-6.2003 14.5555 2.6869
-6.7779 13.4434 2.6869
-6.5464 13.9255 2.6869
-6.9193 13.1189 2.6869
-6.8499 13.2814 2.6869
-7.1713 12.4657 2.6869
-6.9860 12.9560 2.6869
-7.3841 11.8111 2.6869
-7.2281 12.3020 2.6869
-7.0503 12.7928 2.6869
-7.4314 11.6478 2.6869
-7.2825 12.1383 2.6869
-7.4763 11.4848 2.6869
-7.1120 12.6293 2.6869
-7.3345 11.9747 2.6869
-7.5191 11.3221 2.6869
-7.5595 11.1598 2.6869
-7.5979 10.9979 2.6869
-7.6340 10.8366 2.6869
-7.6680 10.6758 2.6869
-7.7000 10.5156 2.6869
-7.7299 10.3561 2.6869
5.9530 9.2073 2.6869
5.9086 9.3226 2.6869
5.8626 9.4377 2.6869
5.8148 9.5526 2.6869
5.7654 9.6673 2.6869
5.7142 9.7816 2.6869
5.6613 9.8957 2.6869
5.6066 10.0093 2.6869
5.5502 10.1224 2.6869
5.4921 10.2351 2.6869
5.4322 10.3472 2.6869
5.3705 10.4587 2.6869
5.3070 10.5695 2.6869
5.2417 10.6796 2.6869
5.1746 10.7890 2.6869
5.1058 10.8975 2.6869
5.0351 11.0051 2.6869
4.9627 11.1117 2.6869
4.8885 11.2174 2.6869
4.8147 11.3275 2.6881
4.7975 11.5770 2.7225
4.7902 11.8624 2.7649
4.7826 12.1597 2.8096
4.7453 12.3935 2.8393
4.6556 12.4974 2.8393
4.5640 12.5997 2.8393
4.4707 12.7004 2.8393
4.3755 12.7995 2.8393
4.2786 12.8969 2.8393
4.1799 12.9925 2.8393
4.0794 13.0862 2.8393
3.9772 13.1779 2.8393
3.8734 13.2677 2.8393
3.7678 13.3555 2.8393
3.6607 13.4411 2.8393
3.5519 13.5245 2.8393
3.4415 13.6057 2.8393
3.3296 13.6846 2.8393
3.2162 13.7611 2.8393
3.1014 13.8352 2.8393
2.9851 13.9068 2.8393
2.8674 13.9758 2.8393
2.7485 14.0422 2.8393
2.6282 14.1060 2.8393
2.5067 14.1671 2.8393
2.3840 14.2254 2.8393
2.2602 14.2809 2.8393
2.1352 14.3336 2.8393
2.0093 14.3834 2.8393
1.8824 14.4302 2.8393
1.7545 14.4740 2.8393
1.6258 14.5148 2.8393
1.4963 14.5526 2.8393
1.3661 14.5873 2.8393
1.2352 14.6188 2.8393
1.1037 14.6472 2.8393
0.9716 14.6725 2.8393
0.8391 14.6945 2.8393
0.7061 14.7133 2.8393
0.5728 14.7289 2.8393
0.4391 14.7412 2.8393
0.3053 14.7503 2.8393
0.1713 14.7561 2.8393
0.0372 14.7587 2.8393
-0.0969 14.7579 2.8393
-0.2309 14.7540 2.8393
-0.3648 14.7467 2.8393
-0.4986 14.7362 2.8393
-0.6321 14.7223 2.8393
-0.7653 14.7053 2.8393
-0.8981 14.6851 2.8393
-1.0304 14.6616 2.8393
-1.1622 14.6350 2.8393
-1.2935 14.6052 2.8393
-1.4241 14.5722 2.8393
-1.5540 14.5362 2.8393
-1.6832 14.4971 2.8393
-2.1909 14.3105 2.8393
-1.8115 14.4549 2.8393
-2.3153 14.2566 2.8393
-1.9389 14.4097 2.8393
-2.4387 14.1998 2.8393
-2.0654 14.3616 2.8393
-2.5608 14.1403 2.8393
-2.6818 14.0780 2.8393
-3.1526 13.8025 2.8393
-2.8015 14.0130 2.8393
-3.2668 13.7274 2.8393
-2.9199 13.9454 2.8393
-3.3795 13.6498 2.8393
-3.0370 13.8752 2.8393
-3.4908 13.5699 2.8393
-3.6004 13.4877 2.8393
-4.0229 13.1374 2.8393
-3.7085 13.4033 2.8393
-4.1243 13.0447 2.8393
-3.8150 13.3167 2.8393
-4.2240 12.9502 2.8393
-3.9198 13.2281 2.8393
-4.3219 12.8538 2.8393
-4.4181 12.7557 2.8393
-4.7845 12.3468 2.8393
-4.5124 12.6559 2.8393
-4.8716 12.2409 2.8393
-4.6050 12.5544 2.8393
-4.9567 12.1336 2.8393
-4.6957 12.4514 2.8393
-5.0400 12.0250 2.8393
-5.1214 11.9151 2.8393
-5.4280 11.4647 2.8393
-5.2009 11.8041 2.8393
-5.2785 11.6920 2.8393
-5.4999 11.3497 2.8393
-5.6703 10.9340 2.8223
-5.6900 10.0629 2.7149
-5.3542 11.5788 2.8393
-5.5699 11.2337 2.8393
-5.6756 10.7060 2.7935
-5.6944 9.8612 2.6913
-5.8363 9.5016 2.6869
-5.6380 11.1171 2.8393
-5.6806 10.4849 2.7660
-5.7371 9.7309 2.6869
-5.8833 9.3865 2.6869
-6.0142 9.0406 2.6869
-5.6854 10.2707 2.7398
-5.7876 9.6163 2.6869
-5.9286 9.2713 2.6869
-6.0546 8.9251 2.6869
-5.9722 9.1560 2.6869
-6.0933 8.8096 2.6869
-6.1304 8.6941 2.6869
-6.1660 8.5787 2.6869
-6.2000 8.4634 2.6869
4.8937 7.7100 2.6869
4.8517 7.7969 2.6869
4.8085 7.8835 2.6869
4.7895 8.1771 2.7274
4.7710 8.8563 2.8346
4.7936 8.0191 2.7035
4.7852 8.3397 2.7524
4.7236 8.9590 2.8393
4.5498 9.2196 2.8393
4.6671 9.0465 2.8393
4.7807 8.5069 2.7786
4.4891 9.3051 2.8393
4.6091 9.1334 2.8393
4.7760 8.6790 2.8060
4.4270 9.3897 2.8393
4.2988 9.5566 2.8393
4.3636 9.4736 2.8393
4.2326 9.6387 2.8393
4.0261 9.8791 2.8393
3.7321 10.1846 2.8393
4.1651 9.7198 2.8393
3.9545 9.9572 2.8393
3.6554 10.2580 2.8393
4.0963 9.8000 2.8393
3.4176 10.4704 2.8393
3.8817 10.0342 2.8393
3.5774 10.3301 2.8393
3.3359 10.5384 2.8393
3.4981 10.4009 2.8393
3.8075 10.1100 2.8393
3.2530 10.6051 2.8393
3.1690 10.6702 2.8393
3.0837 10.7338 2.8393
2.7317 10.9724 2.8393
2.3631 11.1836 2.8393
2.9974 10.7959 2.8393
2.6410 11.0278 2.8393
2.2686 11.2320 2.8393
2.9099 10.8564 2.8393
2.1732 11.2784 2.8393
2.5494 11.0816 2.8393
2.0769 11.3229 2.8393
2.8213 10.9152 2.8393
2.4567 11.1335 2.8393
1.9798 11.3655 2.8393
1.5839 11.5159 2.8393
1.1778 11.6332 2.8393
1.8819 11.4061 2.8393
1.7833 11.4447 2.8393
1.4833 11.5484 2.8393
1.0750 11.6572 2.8393
1.6840 11.4814 2.8393
1.3820 11.5788 2.8393
0.9717 11.6790 2.8393
0.7640 11.7160 2.8393
1.2802 11.6070 2.8393
0.8680 11.6986 2.8393
0.6596 11.7312 2.8393
0.3451 11.7635 2.8393
0.5550 11.7442 2.8393
-0.0761 11.7751 2.8393
0.4501 11.7550 2.8393
0.2399 11.7697 2.8393
-0.1814 11.7723 2.8393
-0.4968 11.7505 2.8393
0.1346 11.7738 2.8393
-0.2867 11.7673 2.8393
-0.6015 11.7388 2.8393
0.0293 11.7755 2.8393
-0.7061 11.7248 2.8393
-0.3918 11.7600 2.8393
-0.8103 11.7086 2.8393
-0.9142 11.6901 2.8393
-1.3255 11.5947 2.8393
-1.7282 11.4653 2.8393
-1.0177 11.6695 2.8393
-1.4271 11.5655 2.8393
-1.8272 11.4278 2.8393
-1.1208 11.6468 2.8393
-1.9255 11.3883 2.8393
-1.5281 11.5342 2.8393
-2.0231 11.3468 2.8393
-1.2234 11.6218 2.8393
-1.6285 11.5008 2.8393
-2.1198 11.3033 2.8393
-2.4980 11.1106 2.8393
-2.2157 11.2580 2.8393
-2.8608 10.8892 2.8393
-2.5902 11.0579 2.8393
-2.3107 11.2107 2.8393
-2.9489 10.8296 2.8393
-2.4048 11.1616 2.8393
-2.6815 11.0034 2.8393
-3.0359 10.7685 2.8393
-3.2065 10.6414 2.8393
-2.7717 10.9472 2.8393
-3.1218 10.7057 2.8393
-3.2900 10.5756 2.8393
-3.5335 10.3696 2.8393
-3.3724 10.5083 2.8393
-3.8407 10.0764 2.8393
-3.4536 10.4397 2.8393
-3.6122 10.2982 2.8393
-3.9142 10.0001 2.8393
-4.1270 9.7645 2.8393
-3.6896 10.2255 2.8393
-4.1953 9.6839 2.8393
-3.9865 9.9227 2.8393
-3.7658 10.1516 2.8393
-4.2622 9.6023 2.8393
-4.0574 9.8441 2.8393
-4.3920 9.4364 2.8393
-4.3278 9.5198 2.8393
-4.6350 9.0949 2.8393
-4.4548 9.3522 2.8393
-4.8561 8.7424 2.8393
-4.6924 9.0077 2.8393
-4.5162 9.2671 2.8393
-4.9080 8.6528 2.8393
-4.5763 9.1814 2.8393
-4.7483 8.9198 2.8393
-4.9585 8.5628 2.8393
-5.0553 8.3813 2.8393
-4.8029 8.8314 2.8393
-5.0076 8.4723 2.8393
-5.1017 8.2900 2.8393
-5.1468 8.1983 2.8393
-5.1905 8.1063 2.8393
-5.2329 8.0141 2.8393
-5.2739 7.9215 2.8393
-5.3136 7.8288 2.8393
-5.3520 7.7359 2.8393
-5.3892 7.6428 2.8393
-5.4250 7.5496 2.8393
