ply
format ascii 1.0
element vertex 1321
property float32 x
property float32 y
property float32 z
end_header
6.5256 7.6059 -4.2131
6.5234 8.2857 -4.5231
6.5258 7.7701 -4.2878
6.5260 7.9386 -4.3646
6.5237 8.4687 -4.6072
6.5263 8.1118 -4.4437
6.5240 8.6571 -4.6939
6.5246 9.0510 -4.8760
6.5243 8.8511 -4.7835
6.5249 9.2571 -4.9717
6.5260 9.9164 -5.2791
6.5253 9.4698 -5.0706
6.5264 10.1511 -5.3891
6.5256 9.6894 -5.1730
6.5267 10.3941 -5.5031
6.5276 10.9067 -5.7446
6.5271 10.6457 -5.6215
6.5280 11.1774 -5.8725
6.5308 11.4628 -6.0078
6.5316 11.7558 -6.1469
17.8429 32.9433 -17.1860
17.4259 33.0168 -17.1860
-6.6722 19.1361 -9.7172
-7.6490 19.2069 -9.8122
-6.9055 19.1325 -9.7293
-4.2776 10.4110 -5.3274
-7.3323 19.6430 -10.0037
-4.4463 10.4963 -5.3802
-4.5232 10.3636 -5.3215
-7.2836 18.8833 -9.6316
-4.6307 10.3042 -5.3006
-4.7747 10.3246 -5.3210
-5.2314 10.4131 -5.3987
-4.9350 10.3754 -5.3575
6.5253 7.7499 -3.7239
6.5235 8.4382 -4.0069
6.5255 7.9160 -3.7920
6.5257 8.0865 -3.8621
6.5238 8.6235 -4.0835
6.5232 8.2581 -3.9326
6.5241 8.8141 -4.1625
6.5247 9.2128 -4.3283
6.5244 9.0104 -4.2441
6.5250 9.4215 -4.4153
6.5261 10.0891 -4.6947
6.5254 9.6368 -4.5052
6.5265 10.3268 -4.7945
6.5257 9.8592 -4.5983
6.5269 10.5729 -4.8981
6.5277 11.0921 -5.1171
6.5273 10.8278 -5.0055
6.5326 12.2615 -5.6132
6.5302 11.3700 -5.2348
6.5335 12.5835 -5.7502
6.5309 11.6556 -5.3558
6.5344 12.9194 -5.8934
6.5317 11.9525 -5.4818
6.5353 13.2701 -6.0432
6.5363 13.6366 -6.2000
-6.7050 19.5299 -8.7488
-6.2111 20.1897 -9.0156
-6.4052 20.0505 -8.9625
-7.1066 19.9976 -8.9686
-6.6027 19.9266 -8.9166
-7.1666 19.5007 -8.7561
-7.3179 19.2713 -8.6638
-7.5718 19.3137 -8.6939
-7.8257 19.3488 -8.7212
-6.6122 10.4292 -4.8435
-6.9232 10.4272 -4.8647
-7.0749 10.4162 -4.8711
-7.2418 10.4245 -4.8869
6.5250 7.8922 -3.2405
6.5252 8.0602 -3.3022
6.5230 8.2295 -3.3644
6.5233 8.4067 -3.4296
6.5236 8.5889 -3.4968
6.5239 8.7763 -3.5661
6.5242 8.9692 -3.6374
6.5245 9.1679 -3.7110
6.5248 9.3727 -3.7870
6.5251 9.5839 -3.8655
6.5255 9.8019 -3.9465
6.5258 10.0270 -4.0304
6.5262 10.2597 -4.1172
6.5266 10.5004 -4.2070
6.5270 10.7495 -4.3002
6.5274 11.0076 -4.3968
6.5296 11.2784 -4.4983
6.5303 11.5568 -4.6028
6.5311 11.8461 -4.7114
6.5319 12.1468 -4.8246
6.5328 12.4598 -4.9424
6.5336 12.7860 -5.0654
6.5346 13.1263 -5.1938
6.5355 13.4816 -5.3280
6.5365 13.8530 -5.4684
6.5186 14.2004 -5.5993
6.5188 14.6048 -5.7524
6.5190 15.0290 -5.9132
6.5193 15.4747 -6.0824
-5.8693 19.3655 -7.5478
-6.7355 19.9165 -7.7800
-6.1685 19.6006 -7.6449
-6.9516 19.8593 -7.7640
-6.4576 19.7834 -7.7220
-7.1317 19.7023 -7.7090
-7.4355 19.2580 -7.5485
-7.3678 19.7004 -7.7150
-7.5063 18.8460 -7.3940
-7.5756 18.4505 -7.2458
-8.3443 19.7273 -7.7549
6.5247 8.0334 -2.7608
6.5228 8.2005 -2.8152
6.5231 8.3749 -2.8720
6.5234 8.5542 -2.9305
6.5237 8.7384 -2.9906
6.5240 8.9280 -3.0525
6.5243 9.1232 -3.1163
6.5246 9.3242 -3.1820
6.5249 9.5314 -3.2498
6.5252 9.7451 -3.3198
6.5256 9.9657 -3.3921
6.5259 10.1935 -3.4668
6.5263 10.4291 -3.5440
6.5267 10.6727 -3.6240
6.5271 10.9249 -3.7068
6.5275 11.1862 -3.7927
6.5297 11.4604 -3.8828
6.5305 11.7423 -3.9756
6.5312 12.0351 -4.0720
6.5321 12.3397 -4.1723
6.5329 12.6567 -4.2767
6.5338 12.9870 -4.3857
6.5347 13.3316 -4.4993
6.5357 13.6915 -4.6181
6.5367 14.0677 -4.7423
6.5198 14.4219 -4.8591
6.5201 14.8316 -4.9945
6.5203 15.2615 -5.1366
6.5206 15.7132 -5.2860
6.5209 16.1885 -5.4433
6.5211 16.6895 -5.6091
6.5250 17.2277 -5.7874
6.5265 17.7904 -5.9738
6.5281 18.3867 -6.1715
-5.8139 20.2356 -6.7774
-5.9284 19.8479 -6.6497
-6.0780 19.5977 -6.5682
-6.4309 19.9932 -6.7032
-6.4822 19.4519 -6.5241
-6.8018 19.7206 -6.6169
-7.1885 20.1555 -6.7655
-7.1468 19.3958 -6.5133
-7.3423 19.3025 -6.4848
-7.3722 18.7887 -6.3150
-7.8057 19.2992 -6.4896
-7.8813 18.9163 -6.3639
-7.9692 18.5796 -6.2538
-7.0392 10.4810 -3.5709
6.5226 8.1718 -2.2821
6.5229 8.3435 -2.3311
6.5232 8.5199 -2.3813
6.5235 8.7011 -2.4330
6.5238 8.8875 -2.4861
6.5241 9.0792 -2.5407
6.5244 9.2766 -2.5969
6.5247 9.4800 -2.6548
6.5250 9.6896 -2.7144
6.5253 9.9058 -2.7759
6.5257 10.1290 -2.8394
6.5260 10.3595 -2.9050
6.5264 10.5978 -2.9727
6.5268 10.8444 -3.0428
6.5272 11.0996 -3.1154
6.5291 11.3669 -3.1912
6.5299 11.6417 -3.2693
6.5306 11.9271 -3.3504
6.5314 12.2236 -3.4346
6.5322 12.5319 -3.5221
6.5331 12.8529 -3.6132
6.5340 13.1874 -3.7081
6.5349 13.5363 -3.8071
6.5359 13.9007 -3.9105
6.5208 14.2466 -4.0087
6.5211 14.6427 -4.1210
6.5213 15.0578 -4.2387
6.5216 15.4934 -4.3622
6.5219 15.9511 -4.4919
6.5222 16.4327 -4.6284
6.5225 16.9404 -4.7723
6.5267 17.4866 -4.9270
6.5283 18.0570 -5.0886
6.5299 18.6614 -5.2597
6.5316 19.3033 -5.4415
6.5335 19.9863 -5.6349
6.5389 20.7255 -5.8441
6.5411 21.5048 -6.0647
-7.1973 36.8106 -10.3925
-7.5445 36.5668 -10.3227
-5.1194 19.6152 -5.5345
-5.3706 19.7389 -5.5687
-5.6263 19.8646 -5.6035
-5.9464 20.1956 -5.6961
-6.1407 20.0867 -5.6646
-6.3627 20.0683 -5.6587
-6.6378 20.2088 -5.6975
-6.6457 19.5497 -5.5108
-6.8734 19.5549 -5.5114
-6.9806 19.2236 -5.4172
-7.3121 19.5072 -5.4961
-7.5231 19.4576 -5.4812
-7.3581 18.4631 -5.2001
-7.7578 18.8980 -5.3216
-8.0693 19.0953 -5.3762
-8.1662 18.7836 -5.2874
-7.0421 10.4264 -2.9206
6.5227 8.3131 -1.8038
6.5230 8.4867 -1.8464
6.5233 8.6650 -1.8901
6.5236 8.8483 -1.9349
6.5238 9.0367 -1.9809
6.5241 9.2306 -2.0282
6.5244 9.4303 -2.0768
6.5248 9.6359 -2.1269
6.5251 9.8479 -2.1784
6.5254 10.0667 -2.2314
6.5258 10.2925 -2.2861
6.5261 10.5257 -2.3425
6.5265 10.7668 -2.4008
6.5269 11.0163 -2.4610
6.5286 11.2769 -2.5237
6.5293 11.5451 -2.5883
6.5300 11.8233 -2.6551
6.5308 12.1121 -2.7245
6.5316 12.4122 -2.7964
6.5324 12.7243 -2.8712
6.5332 13.0493 -2.9489
6.5341 13.3879 -3.0298
6.5351 13.7412 -3.1141
6.5360 14.1102 -3.2021
6.5220 14.4626 -3.2864
6.5223 14.8638 -3.3819
6.5226 15.2843 -3.4818
6.5229 15.7256 -3.5866
6.5232 16.1893 -3.6967
6.5236 16.6773 -3.8123
6.5239 17.1917 -3.9342
6.5285 17.7460 -4.0652
6.5300 18.3241 -4.2018
6.5317 18.9367 -4.3465
6.5335 19.5872 -4.5000
6.5378 20.2869 -4.6649
6.5399 21.0256 -4.8390
6.5422 21.8154 -5.0249
6.5446 22.6618 -5.2240
6.5359 23.5306 -5.4284
6.5378 24.5058 -5.6575
6.5399 25.5598 -5.9049
6.5438 26.7092 -6.1746
-5.8788 36.4846 -8.4699
-6.3726 37.1224 -8.6142
-6.6940 36.7337 -8.5201
-7.1071 36.8561 -8.5443
-7.3792 36.2654 -8.4030
-7.8057 36.4482 -8.4407
-5.2665 19.6307 -4.5315
-5.5164 19.7534 -4.5565
-5.7707 19.8782 -4.5818
-5.5405 18.3822 -4.2336
-6.2131 19.8773 -4.5741
-6.4292 19.8552 -4.5651
-6.5786 19.6312 -4.5095
-6.8650 19.8135 -4.5471
-7.0547 19.7098 -4.5190
-7.0201 19.0009 -4.3520
-7.2882 19.1257 -4.3761
-7.1217 18.1323 -4.1443
-7.9124 19.5587 -4.4653
-7.9864 19.1787 -4.3735
-8.0858 18.8748 -4.2990
-8.5295 19.3653 -4.4053
-7.0700 10.4104 -2.2971
6.5228 8.4552 -1.3228
6.5231 8.6307 -1.3590
6.5234 8.8109 -1.3961
6.5236 8.9962 -1.4341
6.5239 9.1868 -1.4730
6.5242 9.3828 -1.5130
6.5245 9.5847 -1.5540
6.5249 9.7927 -1.5961
6.5252 10.0072 -1.6394
6.5255 10.2284 -1.6840
6.5259 10.4568 -1.7298
6.5262 10.6928 -1.7770
6.5266 10.9368 -1.8257
6.5270 11.1892 -1.8760
6.5287 11.4529 -1.9283
6.5294 11.7243 -1.9820
6.5302 12.0059 -2.0376
6.5309 12.2982 -2.0951
6.5317 12.6019 -2.1548
6.5325 12.9179 -2.2167
6.5334 13.2468 -2.2809
6.5343 13.5896 -2.3478
6.5352 13.9473 -2.4173
6.5229 14.2917 -2.4847
6.5232 14.6799 -2.5599
6.5235 15.0863 -2.6385
6.5239 15.5122 -2.7206
6.5242 15.9592 -2.8066
6.5246 16.4289 -2.8967
6.5249 16.9233 -2.9915
6.5286 17.4533 -3.0927
6.5302 18.0070 -3.1983
6.5318 18.5927 -3.3098
6.5336 19.2135 -3.4278
6.5354 19.8729 -3.5529
6.5388 20.5789 -3.6865
6.5409 21.3275 -3.8280
6.5432 22.1278 -3.9791
6.5457 22.9855 -4.1407
6.5377 23.8685 -4.3071
6.5397 24.8571 -4.4928
6.5419 25.9255 -4.6933
6.5456 27.0898 -4.9114
6.5491 28.3552 -5.1481
6.5422 29.6893 -5.3976
6.5426 31.1871 -5.6772
6.5662 32.9530 -6.0060
-5.8690 36.9248 -6.7575
-6.1753 36.4688 -6.6676
-6.6121 36.7850 -6.7185
-6.9850 36.7242 -6.7000
-7.3145 36.4457 -6.6415
-6.0797 28.7828 -5.2386
-8.1798 36.8789 -6.7035
-5.2654 19.9021 -3.5964
-5.4956 19.9561 -3.6003
-5.7283 20.0107 -3.6039
-5.8116 19.5546 -3.5155
-5.7094 18.5252 -3.3242
-6.1773 19.3490 -3.4652
-6.5911 19.9497 -3.5656
-6.7908 19.8803 -3.5457
-6.9477 19.6900 -3.5040
-7.1072 19.5145 -3.4649
-7.2157 19.2098 -3.4028
-7.0993 18.3382 -3.2405
-7.9224 19.8693 -3.5021
-8.0772 19.6812 -3.4598
-8.1859 19.3900 -3.3994
-8.3477 19.2327 -3.3623
-8.5082 19.0767 -3.3253
-8.6675 18.9219 -3.2884
-7.1131 10.4191 -1.6881
6.5229 8.5986 -0.8371
6.5232 8.7760 -0.8669
6.5235 8.9583 -0.8973
6.5237 9.1456 -0.9283
6.5240 9.3383 -0.9601
6.5243 9.5366 -0.9926
6.5246 9.7407 -1.0260
6.5250 9.9511 -1.0601
6.5253 10.1680 -1.0951
6.5256 10.3918 -1.1311
6.5260 10.6228 -1.1680
6.5263 10.8615 -1.2060
6.5267 11.1083 -1.2450
6.5282 11.3657 -1.2854
6.5289 11.6307 -1.3269
6.5296 11.9053 -1.3697
6.5303 12.1903 -1.4139
6.5311 12.4861 -1.4595
6.5319 12.7935 -1.5068
6.5327 13.1133 -1.5557
6.5336 13.4462 -1.6064
6.5345 13.7933 -1.6590
6.5323 14.1484 -1.7128
6.5241 14.5062 -1.7671
6.5244 14.8994 -1.8260
6.5248 15.3110 -1.8874
6.5251 15.7424 -1.9515
6.5255 16.1952 -2.0185
6.5259 16.6710 -2.0886
6.5263 17.1718 -2.1622
6.5304 17.7096 -2.2406
6.5320 18.2706 -2.3223
6.5337 18.8641 -2.4085
6.5355 19.4933 -2.4995
6.5374 20.1615 -2.5958
6.5398 20.8738 -2.6981
6.5419 21.6324 -2.8068
6.5443 22.4433 -2.9226
6.5376 23.2798 -3.0420
6.5395 24.2099 -3.1741
6.5416 25.2120 -3.3160
6.5441 26.2960 -3.4691
6.5474 27.4743 -3.6350
6.5510 28.7572 -3.8152
6.5440 30.1091 -4.0050
6.5445 31.6276 -4.2174
6.5643 33.3982 -4.4640
6.5525 35.1889 -4.7138
6.5575 37.2787 -5.0042
6.5646 39.6323 -5.3306
6.5468 42.1285 -5.6767
-5.4010 36.8457 -4.9723
-5.6493 36.0297 -4.8538
-6.1757 36.9722 -4.9715
-6.5042 36.6825 -4.9228
-6.9113 36.8372 -4.9331
-7.1256 35.9945 -4.8095
-7.6535 36.7348 -4.8969
-7.9383 36.2863 -4.8250
-5.3704 20.5829 -2.7060
-5.3882 19.8406 -2.6001
-5.6158 19.8938 -2.5984
-5.8459 19.9475 -2.5963
-6.0151 19.7935 -2.5669
-6.2282 19.7853 -2.5561
-6.1437 18.8603 -2.4269
-6.6389 19.7131 -2.5262
-6.7031 19.2689 -2.4587
-6.9919 19.4738 -2.4737
-7.2828 19.6681 -2.4868
-7.4505 19.5240 -2.4567
-7.6169 19.3808 -2.4264
-7.7821 19.2387 -2.3961
-8.0206 19.2767 -2.3878
-8.0908 18.9149 -2.3298
-8.1746 18.5993 -2.2776
-22.5532 44.0267 -5.1801
-7.0238 10.4558 -1.0995
6.5230 8.7442 -0.3445
6.5233 8.9235 -0.3677
6.5235 9.1078 -0.3913
6.5238 9.2971 -0.4153
6.5241 9.4920 -0.4399
6.5244 9.6925 -0.4649
6.5247 9.8989 -0.4904
6.5251 10.1117 -0.5164
6.5254 10.3311 -0.5430
6.5257 10.5575 -0.5703
6.5261 10.7912 -0.5981
6.5264 11.0327 -0.6267
6.5277 11.2839 -0.6560
6.5283 11.5428 -0.6861
6.5290 11.8110 -0.7169
6.5297 12.0889 -0.7486
6.5305 12.3773 -0.7813
6.5312 12.6767 -0.8149
6.5320 12.9878 -0.8495
6.5329 13.3115 -0.8852
6.5337 13.6485 -0.9221
6.5346 13.9998 -0.9603
6.5250 14.3431 -0.9982
6.5253 14.7239 -1.0390
6.5257 15.1221 -1.0813
6.5261 15.5390 -1.1253
6.5264 15.9759 -1.1711
6.5268 16.4346 -1.2188
6.5273 16.9166 -1.2686
6.5305 17.4315 -1.3212
6.5321 17.9697 -1.3760
6.5337 18.5381 -1.4334
6.5355 19.1396 -1.4938
6.5373 19.7772 -1.5574
6.5387 20.4525 -1.6244
6.5408 21.1731 -1.6954
6.5430 21.9417 -1.7707
6.5453 22.7635 -1.8507
6.5393 23.6136 -1.9335
6.5413 24.5563 -2.0243
6.5435 25.5722 -2.1217
6.5458 26.6700 -2.2264
6.5492 27.8646 -2.3397
6.5529 29.1651 -2.4625
6.5458 30.5350 -2.5917
6.5465 32.0746 -2.7360
6.5625 33.8496 -2.9009
6.5553 35.6890 -3.0721
6.5607 37.8098 -3.2682
6.5652 40.1802 -3.4866
6.5335 42.6195 -3.7118
-5.3493 36.9926 -3.2313
-5.4900 35.4941 -3.0897
-5.9372 36.0326 -3.1251
-6.4070 36.6318 -3.1646
-6.8328 36.9209 -3.1762
-7.0152 35.9265 -3.0770
-7.6183 37.0716 -3.1601
-7.9253 36.7293 -3.1153
-8.2116 36.3197 -3.0643
-8.5185 36.0260 -3.0226
-7.4058 28.7811 -2.3859
-5.4716 20.4302 -1.6826
-5.6903 20.4413 -1.6721
-5.9105 20.4523 -1.6611
-5.9063 19.7104 -1.5889
-6.1246 19.7322 -1.5783
-5.9757 18.6055 -1.4760
-6.4129 19.3141 -1.5191
-6.7692 19.7377 -1.5385
-7.0467 19.9087 -1.5374
-7.1377 19.5543 -1.4952
-7.3043 19.4180 -1.4697
-7.4697 19.2824 -1.4439
-7.6339 19.1477 -1.4178
-7.8823 19.2215 -1.4067
-7.9689 18.9038 -1.3667
-8.0533 18.5939 -1.3272
-22.7252 43.9641 -2.8191
-7.0364 10.4233 -0.4976
6.5231 8.8924 0.1575
6.5234 9.0737 0.1410
6.5236 9.2600 0.1242
6.5239 9.4516 0.1073
6.5242 9.6486 0.0902
6.5245 9.8513 0.0729
6.5248 10.0602 0.0553
6.5252 10.2754 0.0375
6.5255 10.4973 0.0195
6.5258 10.7263 0.0011
6.5262 10.9627 -0.0175
6.5272 11.2082 -0.0365
6.5278 11.4613 -0.0558
6.5285 11.7233 -0.0754
6.5292 11.9947 -0.0954
6.5299 12.2760 -0.1158
6.5306 12.5678 -0.1367
6.5314 12.8709 -0.1580
6.5322 13.1858 -0.1798
6.5330 13.5135 -0.2021
6.5339 13.8547 -0.2250
6.5259 14.1908 -0.2481
6.5262 14.5601 -0.2721
6.5266 14.9458 -0.2969
6.5269 15.3491 -0.3223
6.5273 15.7713 -0.3486
6.5278 16.2140 -0.3757
6.5282 16.6786 -0.4038
6.5286 17.1670 -0.4328
6.5322 17.6895 -0.4631
6.5339 18.2348 -0.4945
6.5356 18.8109 -0.5272
6.5374 19.4205 -0.5613
6.5393 20.0667 -0.5970
6.5397 20.7479 -0.6342
6.5418 21.4781 -0.6734
6.5440 22.2570 -0.7146
6.5464 23.0898 -0.7582
6.5411 23.9539 -0.8034
6.5432 24.9095 -0.8522
6.5455 25.9394 -0.9041
6.5476 27.0514 -0.9596
6.5511 28.2624 -1.0192
6.5471 29.5460 -1.0822
6.5477 30.9693 -1.1509
6.5604 32.5898 -1.2278
6.5605 34.3092 -1.3092
6.5583 36.2002 -1.3980
6.5639 38.3514 -1.4977
6.5657 40.7384 -1.6076
-5.3468 37.4844 -1.5052
-5.7220 37.5042 -1.4924
-5.9748 36.7615 -1.4487
-6.2409 36.1752 -1.4107
-6.7070 36.7431 -1.4167
-7.0478 36.5943 -1.3941
-7.3663 36.3439 -1.3668
-7.7729 36.5248 -1.3548
-7.9600 35.6983 -1.3048
-5.7395 20.1421 -0.6594
-5.9449 20.1209 -0.6440
-6.1508 20.0991 -0.6280
-6.3524 20.0614 -0.6110
-6.5395 19.9777 -0.5920
-6.7260 19.8939 -0.5726
-6.9147 19.8178 -0.5530
-7.0463 19.5836 -0.5286
-7.2195 19.4714 -0.5072
-7.3277 19.1920 -0.4812
-7.4337 18.9187 -0.4553
-7.8005 19.3018 -0.4445
-7.0580 10.4087 0.1001
-21.3948 30.9094 0.3596
-21.4804 30.4061 0.4166
-21.4825 29.7992 0.4716
-21.4845 29.2083 0.5261
-21.4865 28.6327 0.5799
-21.4885 28.0717 0.6333
-21.4904 27.5246 0.6861
-21.4923 26.9909 0.7385
-21.4941 26.4700 0.7905
6.5232 9.0442 0.6712
6.5235 9.2275 0.6615
6.5237 9.4159 0.6519
6.5240 9.6096 0.6423
6.5243 9.8088 0.6328
6.5246 10.0139 0.6233
6.5249 10.2252 0.6139
6.5253 10.4429 0.6045
6.5256 10.6674 0.5952
6.5259 10.8991 0.5859
6.5263 11.1383 0.5768
6.5273 11.3868 0.5677
6.5280 11.6430 0.5586
6.5286 11.9081 0.5497
6.5293 12.1828 0.5407
6.5300 12.4675 0.5319
6.5308 12.7629 0.5231
6.5316 13.0696 0.5144
6.5324 13.3885 0.5057
6.5332 13.7202 0.4971
6.5341 14.0657 0.4887
6.5271 14.4082 0.4796
6.5274 14.7823 0.4713
6.5278 15.1730 0.4630
6.5282 15.5815 0.4548
6.5287 16.0093 0.4467
6.5291 16.4577 0.4387
6.5296 16.9285 0.4308
6.5324 17.4296 0.4232
6.5340 17.9537 0.4156
6.5357 18.5064 0.4081
6.5374 19.0902 0.4008
6.5393 19.7080 0.3936
6.5387 20.3551 0.3865
6.5407 21.0504 0.3796
6.5428 21.7904 0.3730
6.5451 22.5798 0.3665
6.5410 23.4007 0.3599
6.5430 24.3023 0.3539
6.5451 25.2713 0.3482
6.5461 26.3101 0.3427
6.5494 27.4418 0.3377
6.5529 28.6698 0.3330
6.5489 29.9708 0.3284
6.5497 31.4140 0.3245
6.5585 33.0377 0.3216
6.5586 34.7793 0.3189
6.5615 36.7239 0.3170
6.5645 38.8901 0.3160
6.5683 41.3224 0.3160
-6.2419 36.6866 0.3006
-6.5985 36.6541 0.3190
-6.9684 36.6892 0.3391
-6.3130 19.5649 0.3741
-6.5125 19.5422 0.3930
-7.2798 19.9222 0.4642
-22.5679 43.9626 1.8117
-21.4456 40.8157 1.7507
-21.4488 39.8957 1.7803
-21.4520 39.0076 1.8101
-21.4550 38.1498 1.8401
-21.4579 37.3205 1.8703
-21.4607 36.5181 1.9007
-21.4487 35.7169 1.9300
-21.4639 34.9852 1.9619
-21.4665 34.2557 1.9929
-21.4690 33.5481 2.0241
-21.4714 32.8611 2.0554
-21.4737 32.1939 2.0870
-7.0795 10.3990 0.6984
-21.3941 30.7937 2.1422
-21.4796 30.3002 2.1826
-21.4817 29.7029 2.2149
-21.4838 29.1211 2.2473
-21.4857 28.5541 2.2799
-21.4877 28.0013 2.3127
-21.4896 27.4620 2.3457
-21.4914 26.9356 2.3789
6.5233 9.2002 1.1995
6.5236 9.3857 1.1969
6.5238 9.5762 1.1945
6.5241 9.7721 1.1924
6.5244 9.9737 1.1907
6.5247 10.1812 1.1893
6.5250 10.3949 1.1882
6.5254 10.6151 1.1875
6.5257 10.8423 1.1872
6.5260 11.0767 1.1874
6.5268 11.3197 1.1879
6.5275 11.5704 1.1890
6.5281 11.8297 1.1904
6.5288 12.0981 1.1924
6.5295 12.3761 1.1949
6.5302 12.6644 1.1979
6.5310 12.9634 1.2015
6.5317 13.2740 1.2058
6.5325 13.5969 1.2106
6.5334 13.9328 1.2162
6.5279 14.2687 1.2213
6.5283 14.6319 1.2282
6.5287 15.0108 1.2360
6.5291 15.4067 1.2446
6.5296 15.8206 1.2542
6.5300 16.2541 1.2648
6.5305 16.7085 1.2765
6.5310 17.1856 1.2894
6.5342 17.6943 1.3040
6.5358 18.2255 1.3197
6.5375 18.7857 1.3368
6.5393 19.3776 1.3556
6.5413 20.0040 1.3762
6.5397 20.6567 1.3979
6.5417 21.3615 1.4224
6.5439 22.1116 1.4493
6.5462 22.9119 1.4786
6.5429 23.7466 1.5095
6.5449 24.6608 1.5447
6.5471 25.6434 1.5833
6.5479 26.6958 1.6254
6.5513 27.8436 1.6724
6.5549 29.0890 1.7244
6.5508 30.4078 1.7798
6.5517 31.8716 1.8426
6.5566 33.4980 1.9139
6.5593 35.2774 1.9928
6.5647 37.2629 2.0822
6.5651 39.4440 2.1813
6.5607 41.8581 2.2921
-6.8606 36.6348 2.0727
-10.4987 48.4298 2.8394
-10.8393 47.8145 2.8394
-11.1667 47.1869 2.8394
-11.4809 46.5480 2.8394
-7.3831 28.7628 1.7793
-12.0695 45.2419 2.8394
-12.3441 44.5770 2.8394
-12.6053 43.9060 2.8394
-12.8543 43.2298 2.8394
-13.0903 42.5494 2.8394
-13.3136 41.8661 2.8394
-13.5247 41.1806 2.8394
-13.7235 40.4940 2.8394
-13.9105 39.8072 2.8394
-7.0562 19.5972 1.4224
-14.2499 38.4361 2.8394
-14.4029 37.7534 2.8394
-14.5450 37.0735 2.8394
-14.6767 36.3971 2.8394
-14.7982 35.7247 2.8394
-14.9098 35.0570 2.8394
-15.0118 34.3943 2.8394
-15.1045 33.7374 2.8394
-15.2636 32.4419 2.8394
-15.1884 33.0864 2.8394
-15.4841 29.9348 2.8394
-15.3304 31.8042 2.8394
-15.5207 29.3271 2.8394
-15.3893 31.1736 2.8394
-15.5505 28.7275 2.8394
-15.4404 30.5504 2.8394
-15.5737 28.1361 2.8394
-15.5907 27.5531 2.8394
-15.6012 25.3067 2.8394
-15.6017 26.9785 2.8394
-15.5908 24.7669 2.8394
-15.6069 26.4126 2.8394
-15.5756 24.2360 2.8394
-15.6067 25.8553 2.8394
-15.5559 23.7137 2.8394
-15.5319 23.2002 2.8394
-15.3971 21.2335 2.8394
-7.1116 10.4104 1.3024
-15.3546 20.7632 2.8394
-15.4718 22.1995 2.8394
-15.3091 20.3016 2.8394
-15.4362 21.7122 2.8394
-15.2606 19.8483 2.8394
-15.2093 19.4033 2.8394
6.5234 9.3615 1.7454
6.5237 9.5491 1.7500
6.5239 9.7418 1.7551
6.5242 9.9400 1.7608
6.5245 10.1440 1.7672
6.5248 10.3539 1.7741
6.5252 10.5702 1.7817
6.5255 10.7931 1.7900
6.5258 11.0230 1.7990
6.5264 11.2608 1.8088
6.5270 11.5063 1.8194
6.5276 11.7601 1.8309
6.5283 12.0227 1.8433
6.5289 12.2944 1.8566
6.5296 12.5759 1.8708
6.5304 12.8678 1.8861
6.5311 13.1707 1.9026
6.5319 13.4852 1.9202
6.5327 13.8123 1.9390
6.5333 14.1517 1.9590
6.5292 14.4951 1.9791
6.5296 14.8630 2.0020
6.5300 15.2471 2.0264
6.5305 15.6482 2.0526
6.5309 16.0678 2.0806
6.5314 16.5071 2.1105
6.5319 16.9677 2.1425
6.5344 17.4566 2.1775
6.5360 17.9679 2.2146
6.5377 18.5064 2.2543
6.5395 19.0745 2.2970
6.5413 19.6747 2.3428
6.5388 20.2959 2.3903
6.5407 20.9685 2.4432
6.5428 21.6830 2.5002
6.5450 22.4436 2.5617
6.5428 23.2389 2.6263
6.5183 24.0067 2.6870
6.3378 24.2321 2.6870
6.1527 24.4525 2.6870
5.9631 24.6678 2.6870
5.7690 24.8775 2.6870
5.5706 25.0814 2.6870
5.3679 25.2793 2.6870
5.1609 25.4709 2.6870
4.9499 25.6559 2.6870
4.8261 26.3316 2.7388
4.7723 27.4798 2.8394
4.5371 27.6528 2.8394
4.2982 27.8175 2.8394
4.0556 27.9741 2.8394
3.8096 28.1220 2.8394
3.5604 28.2611 2.8394
3.3081 28.3913 2.8394
3.0529 28.5123 2.8394
2.7950 28.6238 2.8394
2.5346 28.7257 2.8394
2.2720 28.8179 2.8394
2.0074 28.9001 2.8394
1.7409 28.9722 2.8394
1.4729 29.0343 2.8394
1.2035 29.0860 2.8394
0.9331 29.1273 2.8394
0.6618 29.1582 2.8394
0.3899 29.1785 2.8394
0.1176 29.1884 2.8394
-0.1548 29.1876 2.8394
-0.4270 29.1764 2.8394
-0.6989 29.1545 2.8394
-0.9701 29.1223 2.8394
-1.2404 29.0796 2.8394
-1.5096 29.0264 2.8394
-1.7774 28.9630 2.8394
-2.0436 28.8894 2.8394
-2.3080 28.8059 2.8394
-2.5703 28.7123 2.8394
-2.8304 28.6091 2.8394
-3.0879 28.4963 2.8394
-3.3427 28.3741 2.8394
-3.5946 28.2427 2.8394
-3.8434 28.1023 2.8394
-4.0890 27.9532 2.8394
-4.3310 27.7956 2.8394
-4.8041 27.4557 2.8394
-4.5694 27.6296 2.8394
-5.0347 27.2739 2.8394
-5.6395 26.3934 2.8084
-5.2614 27.0846 2.8394
-5.6574 25.3201 2.7156
-5.4838 26.8883 2.8394
-5.7958 24.8493 2.6870
-6.1783 24.4228 2.6870
-5.9893 24.6387 2.6870
-6.3627 24.2016 2.6870
-6.8884 23.5099 2.6870
-6.5426 23.9756 2.6870
-7.0542 23.2708 2.6870
-6.7178 23.7449 2.6870
-7.2152 23.0279 2.6870
-7.5231 22.5320 2.6870
-7.3715 22.7816 2.6870
-7.6698 22.2794 2.6870
-8.0814 21.5062 2.6870
-6.9265 19.5281 2.3825
-8.2091 21.2441 2.6870
-7.1290 19.5209 2.4099
-8.3322 20.9804 2.6870
-8.5643 20.4487 2.6870
-8.4505 20.7152 2.6870
-8.6734 20.1810 2.6870
-8.9739 19.3739 2.6870
-8.7780 19.9126 2.6870
-9.0653 19.1044 2.6870
-8.8782 19.6435 2.6870
-9.6714 19.9025 2.8394
-9.8421 19.3327 2.8394
-9.7590 19.6175 2.8394
-9.9209 19.0484 2.8394
-10.1321 18.1997 2.8394
-9.9954 18.7646 2.8394
-10.1944 17.9187 2.8394
-10.0658 18.4817 2.8394
-10.2528 17.6390 2.8394
-10.3581 17.0836 2.8394
-10.5254 15.9921 2.8394
-10.3073 17.3605 2.8394
-10.4052 16.8081 2.8394
-7.0187 10.4521 1.8875
-10.6396 14.9315 2.8394
-10.4488 16.5343 2.8394
-10.5888 15.4577 2.8394
-10.6605 14.6718 2.8394
-10.4888 16.2623 2.8394
-10.6157 15.1935 2.8394
-10.6784 14.4143 2.8394
-10.6936 14.1592 2.8394
-10.7060 13.9064 2.8394
6.5235 9.5289 2.3122
6.5238 9.7187 2.3244
6.5240 9.9138 2.3373
6.5243 10.1144 2.3511
6.5246 10.3208 2.3658
6.5249 10.5333 2.3814
6.5253 10.7522 2.3979
6.5256 10.9779 2.4155
6.5259 11.2108 2.4342
6.5265 11.4515 2.4541
6.5271 11.7001 2.4752
6.5278 11.9572 2.4975
6.5284 12.2230 2.5212
6.5291 12.4983 2.5462
6.5298 12.7834 2.5727
6.5305 13.0791 2.6008
6.5313 13.3859 2.6305
6.5321 13.7046 2.6620
6.5128 13.9927 2.6870
6.4294 14.1510 2.6870
6.3434 14.3083 2.6870
6.2547 14.4644 2.6870
6.1633 14.6193 2.6870
6.0692 14.7730 2.6870
5.9724 14.9252 2.6870
5.8729 15.0758 2.6870
5.7707 15.2249 2.6870
5.6659 15.3721 2.6870
5.5584 15.5175 2.6870
5.4482 15.6609 2.6870
5.3353 15.8022 2.6870
5.2198 15.9414 2.6870
5.1018 16.0781 2.6870
4.9811 16.2125 2.6870
4.8579 16.3443 2.6870
4.8063 16.7318 2.7292
4.7947 17.2881 2.7985
4.7268 17.6716 2.8394
4.5861 17.7988 2.8394
4.4429 17.9227 2.8394
4.2973 18.0432 2.8394
4.1492 18.1601 2.8394
3.9988 18.2734 2.8394
3.8462 18.3828 2.8394
3.6913 18.4885 2.8394
3.5342 18.5901 2.8394
3.3751 18.6876 2.8394
3.2140 18.7808 2.8394
3.0510 18.8699 2.8394
2.8862 18.9544 2.8394
2.7196 19.0346 2.8394
2.5513 19.1101 2.8394
2.3815 19.1809 2.8394
2.2102 19.2470 2.8394
2.0375 19.3084 2.8394
1.8636 19.3647 2.8394
1.6885 19.4162 2.8394
1.5124 19.4626 2.8394
1.3352 19.5041 2.8394
1.1573 19.5403 2.8394
0.9786 19.5715 2.8394
0.7993 19.5974 2.8394
0.6194 19.6181 2.8394
0.4392 19.6336 2.8394
0.2587 19.6438 2.8394
0.0780 19.6487 2.8394
-0.1027 19.6483 2.8394
-0.2834 19.6427 2.8394
-0.4638 19.6317 2.8394
-0.6440 19.6156 2.8394
-0.8238 19.5941 2.8394
-1.0030 19.5675 2.8394
-1.1816 19.5357 2.8394
-1.3595 19.4987 2.8394
-1.5365 19.4566 2.8394
-1.7125 19.4095 2.8394
-1.8874 19.3573 2.8394
-2.0612 19.3003 2.8394
-2.2337 19.2383 2.8394
-2.4048 19.1716 2.8394
-2.5744 19.1000 2.8394
-2.7424 19.0239 2.8394
-2.9088 18.9432 2.8394
-3.0734 18.8580 2.8394
-3.2361 18.7684 2.8394
-3.3970 18.6745 2.8394
-3.5558 18.5764 2.8394
-3.7125 18.4743 2.8394
-3.8671 18.3682 2.8394
-4.0195 18.2581 2.8394
-4.1696 18.1443 2.8394
-4.3173 18.0269 2.8394
-5.0188 17.3892 2.8394
-4.4626 17.9060 2.8394
-5.1513 17.2524 2.8394
-4.6055 17.7817 2.8394
-5.2812 17.1127 2.8394
-4.7458 17.6540 2.8394
-5.4083 16.9704 2.8394
-4.8836 17.5231 2.8394
-5.5327 16.8256 2.8394
-5.6544 16.6782 2.8394
-5.6843 15.3627 2.6889
-5.6660 16.2217 2.7867
-5.7848 15.2047 2.6870
-5.6754 15.7820 2.7363
-5.8866 15.0554 2.6870
-6.0822 14.7521 2.6870
-6.1759 14.5983 2.6870
-5.9858 14.9045 2.6870
-6.2669 14.4431 2.6870
-6.4410 14.1294 2.6870
-6.3553 14.2868 2.6870
-6.7572 13.4908 2.6870
-6.5240 13.9710 2.6870
-6.8297 13.3294 2.6870
-6.6044 13.8117 2.6870
-6.8997 13.1675 2.6870
-6.6821 13.6516 2.6870
-6.9670 13.0051 2.6870
-7.2665 12.1897 2.6870
-7.0319 12.8424 2.6870
-7.3190 12.0264 2.6870
-7.0942 12.6794 2.6870
-7.3692 11.8633 2.6870
-7.1541 12.5163 2.6870
-7.4171 11.7003 2.6870
-7.2115 12.3530 2.6870
-7.4627 11.5376 2.6870
-7.5061 11.3752 2.6870
-7.0242 10.4362 2.5009
-7.5861 11.0516 2.6870
-7.6228 10.8905 2.6870
-7.6575 10.7299 2.6870
-7.6900 10.5699 2.6870
-7.7205 10.4106 2.6870
-7.7490 10.2519 2.6870
6.0365 8.9792 2.6870
5.9955 9.0944 2.6870
5.9528 9.2095 2.6870
5.9085 9.3245 2.6870
5.8626 9.4393 2.6870
5.8149 9.5539 2.6870
5.7656 9.6683 2.6870
5.7146 9.7824 2.6870
5.6618 9.8961 2.6870
5.6073 10.0094 2.6870
5.5511 10.1223 2.6870
5.4931 10.2346 2.6870
5.4333 10.3465 2.6870
5.3718 10.4577 2.6870
5.3085 10.5682 2.6870
5.2434 10.6780 2.6870
5.1766 10.7871 2.6870
5.1080 10.8954 2.6870
5.0375 11.0027 2.6870
4.9653 11.1091 2.6870
4.8914 11.2145 2.6870
4.8156 11.3189 2.6870
4.7964 11.5627 2.7201
4.7892 11.8469 2.7623
4.7816 12.1429 2.8068
4.7498 12.3894 2.8394
4.6604 12.4930 2.8394
4.5692 12.5952 2.8394
4.4762 12.6957 2.8394
4.3814 12.7947 2.8394
4.2848 12.8919 2.8394
4.1864 12.9873 2.8394
4.0863 13.0809 2.8394
3.9845 13.1726 2.8394
3.8811 13.2623 2.8394
3.7759 13.3499 2.8394
3.6691 13.4355 2.8394
3.5607 13.5189 2.8394
3.4508 13.6000 2.8394
3.3393 13.6789 2.8394
3.2263 13.7555 2.8394
3.1119 13.8295 2.8394
2.7603 14.0368 2.8394
2.9960 13.9012 2.8394
2.6404 14.1007 2.8394
2.8788 13.9702 2.8394
2.5194 14.1619 2.8394
2.2737 14.2760 2.8394
2.3971 14.2203 2.8394
2.1492 14.3288 2.8394
1.7699 14.4699 2.8394
2.0237 14.3788 2.8394
1.6416 14.5110 2.8394
1.8973 14.4258 2.8394
1.5125 14.5490 2.8394
1.2522 14.6159 2.8394
1.3827 14.5840 2.8394
1.1211 14.6446 2.8394
0.7247 14.7118 2.8394
0.9895 14.6702 2.8394
0.5918 14.7278 2.8394
0.8573 14.6926 2.8394
0.4586 14.7406 2.8394
-0.3433 14.7490 2.8394
0.1915 14.7564 2.8394
0.3251 14.7501 2.8394
-0.8754 14.6897 2.8394
-0.4768 14.7390 2.8394
0.0577 14.7594 2.8394
-1.4005 14.5794 2.8394
-1.0075 14.6669 2.8394
-0.6100 14.7258 2.8394
-0.0760 14.7592 2.8394
-1.5302 14.5440 2.8394
-0.7429 14.7094 2.8394
-1.1391 14.6409 2.8394
-1.9146 14.4196 2.8394
-0.2097 14.7557 2.8394
-1.6591 14.5055 2.8394
-1.2701 14.6117 2.8394
-2.0409 14.3721 2.8394
-2.8949 13.9610 2.8394
-2.4139 14.2125 2.8394
-2.1663 14.3218 2.8394
-1.7873 14.4640 2.8394
-2.2906 14.2686 2.8394
-3.0119 13.8915 2.8394
-3.3546 13.6683 2.8394
-2.5360 14.1537 2.8394
-3.7903 13.3381 2.8394
-3.1276 13.8195 2.8394
-3.4659 13.5891 2.8394
-2.6569 14.0921 2.8394
-3.8953 13.2501 2.8394
-3.2418 13.7451 2.8394
-3.5756 13.5076 2.8394
-3.9985 13.1602 2.8394
-2.7765 14.0279 2.8394
-4.2000 12.9744 2.8394
-3.6838 13.4239 2.8394
-4.5817 12.5813 2.8394
-4.9345 12.1631 2.8394
-4.6727 12.4789 2.8394
-4.1001 13.0683 2.8394
-5.0181 12.0551 2.8394
-4.2981 12.8787 2.8394
-4.7618 12.3751 2.8394
-5.2575 11.7238 2.8394
-5.0997 11.9459 2.8394
-4.3944 12.7813 2.8394
-5.3335 11.6113 2.8394
-4.8491 12.2698 2.8394
-5.1796 11.8354 2.8394
-4.4890 12.6821 2.8394
-5.4077 11.4978 2.8394
-5.4799 11.3832 2.8394
-5.6808 10.5531 2.7748
-5.5503 11.2679 2.8394
-5.7216 9.7668 2.6870
-5.9147 9.3088 2.6870
-5.6857 10.3375 2.7483
-5.7724 9.6527 2.6870
-5.9588 9.1938 2.6870
-5.6188 11.1517 2.8394
-5.6903 10.1283 2.7232
-6.0012 9.0787 2.6870
-5.8215 9.5383 2.6870
-5.6702 11.0052 2.8318
-6.0420 8.9635 2.6870
-5.6948 9.9253 2.6992
-5.8690 9.4237 2.6870
-5.6756 10.7756 2.8026
-6.0811 8.8483 2.6870
-6.1187 8.7331 2.6870
-6.1547 8.6179 2.6870
-6.1891 8.5029 2.6870
-6.2220 8.3880 2.6870
4.9733 7.5375 2.6870
4.9340 7.6247 2.6870
4.8934 7.7117 2.6870
4.8516 7.7983 2.6870
4.8085 7.8847 2.6870
4.7916 8.0168 2.7026
4.7876 8.1744 2.7264
4.7833 8.3365 2.7513
4.7789 8.5032 2.7774
4.7742 8.6748 2.8048
4.7693 8.8516 2.8334
4.7245 8.9586 2.8394
4.6681 9.0459 2.8394
4.6103 9.1327 2.8394
4.5512 9.2187 2.8394
4.4288 9.3884 2.8394
4.4907 9.3039 2.8394
4.3655 9.4720 2.8394
4.1677 9.7177 2.8394
3.8852 10.0314 2.8394
3.5819 10.3268 2.8394
4.3009 9.5548 2.8394
3.8113 10.1071 2.8394
4.0991 9.7977 2.8394
4.2350 9.6367 2.8394
3.5030 10.3975 2.8394
3.7361 10.1816 2.8394
3.2587 10.6014 2.8394
4.0291 9.8766 2.8394
3.4228 10.4668 2.8394
3.1750 10.6664 2.8394
3.6597 10.2548 2.8394
3.9578 9.9546 2.8394
3.3413 10.5349 2.8394
3.0900 10.7300 2.8394
2.9168 10.8525 2.8394
3.0040 10.7920 2.8394
2.5575 11.0777 2.8394
2.1826 11.2747 2.8394
2.8285 10.9113 2.8394
1.7941 11.4414 2.8394
2.4652 11.1296 2.8394
2.0867 11.3193 2.8394
1.3941 11.5760 2.8394
2.7392 10.9684 2.8394
1.6951 11.4781 2.8394
2.3719 11.1798 2.8394
1.9899 11.3619 2.8394
1.5954 11.5128 2.8394
2.6489 11.0239 2.8394
1.2926 11.6045 2.8394
2.2777 11.2282 2.8394
1.8924 11.4027 2.8394
1.4951 11.5455 2.8394
0.9851 11.6770 2.8394
1.1906 11.6308 2.8394
0.5697 11.7433 2.8394
0.1504 11.7741 2.8394
-0.2698 11.7690 2.8394
0.8818 11.6969 2.8394
1.0881 11.6550 2.8394
0.4651 11.7543 2.8394
0.0454 11.7762 2.8394
-0.3747 11.7621 2.8394
0.7780 11.7145 2.8394
-0.6882 11.7281 2.8394
-0.4794 11.7530 2.8394
-0.0597 11.7760 2.8394
0.3604 11.7632 2.8394
0.6740 11.7300 2.8394
-0.5839 11.7416 2.8394
-0.7922 11.7123 2.8394
-0.1648 11.7736 2.8394
0.2554 11.7697 2.8394
-1.1021 11.6518 2.8394
-1.5088 11.5411 2.8394
-0.8959 11.6943 2.8394
-1.9058 11.3972 2.8394
-2.2906 11.2217 2.8394
-1.2046 11.6273 2.8394
-1.6090 11.5082 2.8394
-2.0032 11.3562 2.8394
-0.9992 11.6742 2.8394
-2.3847 11.1731 2.8394
-1.3065 11.6007 2.8394
-1.7086 11.4732 2.8394
-2.0998 11.3133 2.8394
-1.8076 11.4362 2.8394
-2.6613 11.0165 2.8394
-2.4778 11.1227 2.8394
-1.4079 11.5720 2.8394
-2.1957 11.2684 2.8394
-3.0158 10.7837 2.8394
-2.7515 10.9608 2.8394
-2.5700 11.0704 2.8394
-3.3525 10.5256 2.8394
-3.1017 10.7214 2.8394
-3.6702 10.2449 2.8394
-2.8406 10.9033 2.8394
-3.1865 10.6576 2.8394
-3.9676 9.9440 2.8394
-3.4338 10.4575 2.8394
-3.7465 10.1715 2.8394
-3.2701 10.5924 2.8394
-4.0387 9.8660 2.8394
-2.9288 10.8443 2.8394
-3.8215 10.0968 2.8394
-4.2441 9.6256 2.8394
-3.5138 10.3880 2.8394
-4.1085 9.7868 2.8394
-4.3098 9.5436 2.8394
-3.8952 10.0210 2.8394
-4.4990 9.2923 2.8394
-3.5926 10.3171 2.8394
-4.1770 9.7067 2.8394
-4.3742 9.4607 2.8394
-4.7321 8.9467 2.8394
-4.5593 9.2069 2.8394
-4.9434 8.5911 2.8394
-4.4373 9.3769 2.8394
-5.1329 8.2281 2.8394
-4.7870 8.8586 2.8394
-4.9928 8.5010 2.8394
-4.6183 9.1208 2.8394
-4.8405 8.7700 2.8394
-5.1769 8.1365 2.8394
-5.0408 8.4104 2.8394
-4.6759 9.0341 2.8394
-4.8926 8.6808 2.8394
-5.2196 8.0445 2.8394
-5.0875 8.3195 2.8394
-5.3010 7.8599 2.8394
-5.2610 7.9524 2.8394
-5.3398 7.7673 2.8394
-5.3772 7.6745 2.8394
-5.4134 7.5816 2.8394
-5.4483 7.4885 2.8394
