ply
format ascii 1.0
element vertex 2140
property float32 x
property float32 y
property float32 z
end_header
5.6533 -13.6113 2.0372
5.8151 -13.6141 2.0296
5.9783 -13.6169 2.0217
6.2253 -12.1440 1.7532
6.1391 -13.6113 2.0122
5.3858 -10.2530 1.4724
6.4881 -14.0095 2.0619
5.5312 -10.2794 1.4682
5.6654 -10.2817 1.4603
6.4885 -13.6505 1.9999
5.8011 -10.2841 1.4521
6.4888 -13.3065 1.9403
5.9417 -10.2924 1.4445
6.2202 -12.4386 1.8049
6.0886 -10.3084 1.4378
6.2078 -10.2754 1.4239
6.4962 -9.6369 1.2881
6.4975 -10.5172 1.4476
6.4965 -9.4342 1.2510
6.4981 -10.2880 1.4063
6.4968 -9.2372 1.2147
6.4987 -10.0661 1.3661
6.4993 -9.8509 1.3270
6.4971 -9.0459 1.1794
6.4979 -8.5025 1.0781
6.4974 -8.8598 1.1448
6.4982 -8.3309 1.0459
6.4985 -8.1636 1.0143
6.4977 -8.6788 1.1111
6.4987 -8.0006 0.9834
6.4994 -7.5346 0.8942
6.4990 -7.8415 0.9531
6.4996 -7.3865 0.8656
6.4992 -7.6862 0.9234
6.5007 -6.6936 0.7300
6.4999 -7.2417 0.8375
6.5014 -6.5641 0.7043
6.5001 -7.1002 0.8100
6.5017 -6.4369 0.6789
6.5020 -6.3121 0.6539
6.5003 -6.9618 0.7829
6.5023 -6.1898 0.6292
6.5005 -6.8262 0.7562
6.5026 -6.0698 0.6049
6.5028 -5.9520 0.5810
6.5043 -5.2876 0.4435
6.5031 -5.8364 0.5573
6.5046 -5.1833 0.4215
6.5048 -5.0807 0.3998
6.5034 -5.7228 0.5340
6.5050 -4.9796 0.3783
6.5036 -5.6112 0.5109
6.5053 -4.8800 0.3570
6.5039 -5.5015 0.4882
6.5055 -4.7820 0.3359
6.5057 -4.6854 0.3151
6.5041 -5.3937 0.4657
6.5059 -4.5901 0.2944
6.5070 -4.1331 0.1936
6.5062 -4.4963 0.2739
6.5072 -4.0452 0.1740
6.5064 -4.4036 0.2536
6.5066 -4.3123 0.2334
6.5074 -3.9585 0.1544
6.5068 -4.2221 0.2135
6.5076 -3.8727 0.1350
6.5082 -3.6214 0.0776
6.5078 -3.7880 0.1158
6.5088 -3.5397 0.0587
6.5080 -3.7042 0.0966
6.5088 -3.4586 0.0399
6.5089 -3.1425 -0.0344
6.5088 -3.3784 0.0212
6.5089 -3.0654 -0.0528
6.5088 -3.2990 0.0025
6.5089 -3.2204 -0.0160
6.5089 -2.9890 -0.0710
6.5090 -2.6903 -0.1435
6.5089 -2.9134 -0.0893
6.5090 -2.6171 -0.1615
6.5090 -2.5446 -0.1794
6.5090 -2.8384 -0.1074
6.5091 -2.4726 -0.1972
6.5090 -2.7640 -0.1255
6.5091 -2.4011 -0.2151
6.5091 -2.2598 -0.2506
6.5091 -2.3302 -0.2329
6.5091 -2.1898 -0.2684
6.5092 -2.1203 -0.2861
6.5092 -2.0513 -0.3037
6.5092 -1.9826 -0.3214
6.5092 -1.9144 -0.3391
6.5092 -1.8466 -0.3567
6.5093 -1.7791 -0.3743
6.5093 -1.7120 -0.3920
6.5093 -1.6453 -0.4096
6.5093 -1.5789 -0.4272
-8.6904 -13.8704 2.6868
-8.4709 -13.8272 2.6868
-8.2557 -13.7855 2.6868
-8.0446 -13.7452 2.6868
-7.8374 -13.7062 2.6868
-7.6341 -13.6686 2.6868
-7.4343 -13.6322 2.6868
-7.2381 -13.5971 2.6868
-7.0451 -13.5632 2.6868
-6.8554 -13.5304 2.6868
-6.6687 -13.4988 2.6868
-6.4849 -13.4682 2.6868
-6.3039 -13.4387 2.6868
-6.1256 -13.4102 2.6868
-5.9499 -13.3827 2.6868
-5.7766 -13.3561 2.6868
-5.7398 -13.6496 2.7511
-5.7275 -14.0166 2.8303
-5.5695 -14.0354 2.8392
-5.3958 -14.0112 2.8392
-5.2242 -13.9878 2.8392
-5.0546 -13.9654 2.8392
-4.8869 -13.9437 2.8392
-4.7211 -13.9229 2.8392
-4.5570 -13.9029 2.8392
-4.3946 -13.8837 2.8392
-4.2338 -13.8653 2.8392
-4.0745 -13.8476 2.8392
-3.9167 -13.8307 2.8392
-3.7603 -13.8145 2.8392
-3.6053 -13.7990 2.8392
-3.4515 -13.7842 2.8392
-3.2988 -13.7701 2.8392
-3.1474 -13.7567 2.8392
-2.9970 -13.7440 2.8392
-2.8476 -13.7319 2.8392
-2.6992 -13.7205 2.8392
-2.5518 -13.7097 2.8392
-2.4051 -13.6995 2.8392
-2.2593 -13.6900 2.8392
-0.9128 -5.9068 1.2258
-0.8505 -5.9032 1.2258
-0.7884 -5.8998 1.2258
-0.7266 -5.8967 1.2258
-0.6650 -5.8938 1.2258
-0.6037 -5.8912 1.2258
-0.5425 -5.8889 1.2258
-0.4816 -5.8868 1.2258
-0.4207 -5.8849 1.2258
-0.3601 -5.8834 1.2258
-0.2995 -5.8820 1.2258
-0.2390 -5.8809 1.2258
-0.1786 -5.8800 1.2258
-0.1183 -5.8794 1.2257
-0.0580 -5.8791 1.2257
0.0023 -5.8790 1.2257
0.0626 -5.8791 1.2257
0.1229 -5.8794 1.2257
0.1832 -5.8800 1.2257
0.2436 -5.8809 1.2257
0.3041 -5.8820 1.2257
0.3647 -5.8833 1.2257
0.4254 -5.8849 1.2257
0.4862 -5.8868 1.2257
0.5472 -5.8889 1.2257
0.6083 -5.8912 1.2257
0.6697 -5.8938 1.2257
0.7313 -5.8966 1.2257
0.7931 -5.8997 1.2257
0.8552 -5.9031 1.2257
0.9175 -5.9067 1.2257
2.2704 -13.6907 2.8392
2.4163 -13.7003 2.8392
2.5630 -13.7105 2.8392
2.7106 -13.7213 2.8392
2.8590 -13.7328 2.8392
3.0085 -13.7450 2.8392
3.1589 -13.7577 2.8392
3.3105 -13.7712 2.8392
3.4632 -13.7853 2.8392
3.6171 -13.8002 2.8392
3.7722 -13.8157 2.8392
3.9287 -13.8320 2.8392
4.0866 -13.8490 2.8392
4.2460 -13.8667 2.8392
4.4069 -13.8852 2.8392
4.5695 -13.9044 2.8392
4.7180 -13.8785 2.8298
4.7349 -13.4765 2.7437
4.7955 -13.2174 2.6868
4.9561 -13.2387 2.6868
5.1187 -13.2609 2.6868
5.2832 -13.2839 2.6868
5.4499 -13.3077 2.6868
5.6187 -13.3325 2.6868
5.7898 -13.3581 2.6868
5.9632 -13.3848 2.6868
6.1392 -13.4124 2.6868
6.3176 -13.4409 2.6868
6.4892 -13.4506 2.6828
5.7020 -11.5196 2.2924
5.7117 -11.2516 2.2339
5.3779 -10.3340 2.0467
6.2212 -10.3702 2.0207
5.4688 -10.2544 2.0259
6.3018 -10.2688 1.9949
5.6283 -10.3017 2.0300
6.4975 -10.3528 2.0049
5.7654 -10.3040 2.0250
6.4981 -10.1262 1.9547
6.4987 -9.9068 1.9060
5.9039 -10.3064 2.0199
6.4993 -9.6940 1.8587
6.0441 -10.3088 2.0146
6.4962 -9.4824 1.8116
6.4979 -8.3604 1.5596
6.4965 -9.2819 1.7668
6.4982 -8.1906 1.5212
6.4968 -9.0871 1.7232
6.4984 -8.0251 1.4836
6.4971 -8.8978 1.6808
6.4987 -7.8637 1.4469
6.4974 -8.7138 1.6394
6.4989 -7.7063 1.4110
6.4977 -8.5347 1.5990
6.4992 -7.5526 1.3759
6.4994 -7.4026 1.3415
6.5011 -6.5703 1.1491
6.4996 -7.2560 1.3078
6.5014 -6.4417 1.1191
6.4998 -7.1127 1.2748
6.5017 -6.3156 1.0896
6.5001 -6.9725 1.2425
6.5020 -6.1921 1.0606
6.5003 -6.8354 1.2107
6.5023 -6.0709 1.0321
6.5005 -6.7012 1.1796
6.5025 -5.9520 1.0041
6.5028 -5.8352 0.9765
6.5043 -5.1767 0.8193
6.5031 -5.7206 0.9493
6.5046 -5.0733 0.7944
6.5033 -5.6081 0.9226
6.5048 -4.9714 0.7697
6.5036 -5.4975 0.8962
6.5050 -4.8712 0.7454
6.5038 -5.3887 0.8702
6.5053 -4.7725 0.7214
6.5041 -5.2819 0.8446
6.5055 -4.6752 0.6977
6.5057 -4.5793 0.6743
6.5070 -4.0312 0.5389
6.5059 -4.4848 0.6511
6.5072 -3.9440 0.5171
6.5061 -4.3917 0.6282
6.5074 -3.8578 0.4955
6.5063 -4.2998 0.6055
6.5076 -3.7726 0.4741
6.5066 -4.2091 0.5831
6.5078 -3.6885 0.4529
6.5068 -4.1196 0.5609
6.5080 -3.6053 0.4319
6.5083 -3.0467 0.2892
6.5082 -3.5230 0.4111
6.5083 -2.9701 0.2693
6.5082 -3.4415 0.3904
6.5084 -2.8942 0.2496
6.5082 -3.3609 0.3698
6.5084 -2.8189 0.2300
6.5082 -3.2812 0.3495
6.5084 -2.7443 0.2105
6.5083 -3.2023 0.3292
6.5084 -2.6703 0.1912
6.5083 -3.1241 0.3091
6.5084 -2.5969 0.1719
6.5086 -2.1685 0.0581
6.5085 -2.5242 0.1527
6.5086 -2.0988 0.0393
6.5085 -2.4520 0.1336
6.5086 -2.0296 0.0207
6.5085 -2.3803 0.1146
6.5086 -1.9608 0.0021
6.5085 -2.3092 0.0957
6.5087 -1.8925 -0.0164
6.5086 -2.2386 0.0768
6.5087 -1.8245 -0.0349
6.5087 -1.7569 -0.0534
6.5087 -1.6897 -0.0717
6.5088 -1.6228 -0.0901
6.5088 -1.5563 -0.1084
6.5088 -1.4901 -0.1267
-6.8126 -10.7019 2.6868
-6.6535 -10.6905 2.6868
-6.4968 -10.6795 2.6868
-6.3423 -10.6688 2.6868
-6.1900 -10.6584 2.6868
-6.0397 -10.6483 2.6868
-5.8915 -10.6386 2.6868
-5.7438 -10.6266 2.6861
-5.7336 -10.8719 2.7505
-5.7231 -11.1262 2.8172
-5.6188 -11.2039 2.8392
-5.4717 -11.1951 2.8392
-5.3263 -11.1866 2.8392
-5.1824 -11.1784 2.8392
-5.0402 -11.1703 2.8392
-4.8994 -11.1626 2.8392
-4.7601 -11.1552 2.8392
-4.6222 -11.1480 2.8392
-4.4857 -11.1410 2.8392
-4.3504 -11.1343 2.8392
-4.2164 -11.1277 2.8392
-4.0835 -11.1215 2.8392
-3.9519 -11.1155 2.8392
-3.8213 -11.1096 2.8392
-3.6917 -11.1040 2.8392
-3.5632 -11.0986 2.8392
-3.4356 -11.0934 2.8392
-3.3090 -11.0884 2.8392
-3.1832 -11.0837 2.8392
-3.0583 -11.0791 2.8392
-2.9342 -11.0747 2.8392
-2.8109 -11.0705 2.8392
-2.6883 -11.0665 2.8392
-2.5664 -11.0627 2.8392
-2.4452 -11.0590 2.8392
-2.3246 -11.0556 2.8392
-2.2046 -11.0523 2.8392
-0.8990 -4.7641 1.2242
-0.8477 -4.7628 1.2242
-0.7967 -4.7616 1.2242
-0.7458 -4.7605 1.2242
-0.6951 -4.7594 1.2241
-0.6446 -4.7585 1.2241
-0.5943 -4.7576 1.2241
-0.5441 -4.7568 1.2241
-0.4940 -4.7560 1.2241
-0.4441 -4.7553 1.2241
-0.3943 -4.7547 1.2241
-0.3445 -4.7542 1.2241
-0.2949 -4.7538 1.2241
-0.2453 -4.7534 1.2241
-0.1958 -4.7530 1.2241
-0.1463 -4.7528 1.2241
-0.0969 -4.7526 1.2241
-0.0475 -4.7525 1.2241
0.0019 -4.7525 1.2241
0.0513 -4.7525 1.2241
0.1007 -4.7526 1.2241
0.1501 -4.7528 1.2241
0.1996 -4.7530 1.2241
0.2491 -4.7533 1.2241
0.2987 -4.7537 1.2241
0.3483 -4.7541 1.2241
0.3981 -4.7547 1.2241
0.4479 -4.7553 1.2241
0.4978 -4.7559 1.2241
0.5479 -4.7567 1.2241
0.5981 -4.7575 1.2241
0.6485 -4.7584 1.2241
0.6990 -4.7593 1.2241
0.7497 -4.7603 1.2241
0.8005 -4.7615 1.2241
0.8516 -4.7626 1.2241
0.9029 -4.7639 1.2241
2.2137 -11.0526 2.8392
2.3338 -11.0559 2.8392
2.4544 -11.0593 2.8392
2.5757 -11.0630 2.8392
2.6977 -11.0668 2.8392
2.8203 -11.0708 2.8392
2.9437 -11.0750 2.8392
3.0678 -11.0794 2.8392
3.1928 -11.0840 2.8392
3.3186 -11.0888 2.8392
3.4453 -11.0938 2.8392
3.5730 -11.0990 2.8392
3.7016 -11.1044 2.8392
3.8312 -11.1101 2.8392
3.9619 -11.1159 2.8392
4.0937 -11.1220 2.8392
4.2266 -11.1282 2.8392
4.3607 -11.1348 2.8392
4.4961 -11.1415 2.8392
4.6327 -11.1485 2.8392
4.7275 -11.0546 2.8135
4.7414 -10.7796 2.7416
4.7799 -10.5713 2.6868
4.9146 -10.5789 2.6868
5.0508 -10.5867 2.6868
5.1886 -10.5948 2.6868
5.3280 -10.6032 2.6868
5.4690 -10.6118 2.6868
5.4178 -10.2536 2.5939
5.7563 -10.6298 2.6868
5.9028 -10.6393 2.6868
6.0512 -10.6491 2.6868
6.2015 -10.6592 2.6868
6.3540 -10.6696 2.6868
6.2574 -10.2680 2.5831
6.4969 -10.4209 2.6188
6.4976 -10.1895 2.5580
6.4982 -9.9656 2.4990
6.4988 -9.7487 2.4418
6.4958 -9.5333 2.3851
6.4962 -9.3290 2.3312
6.4965 -9.1307 2.2788
6.4968 -8.9381 2.2279
6.4971 -8.7509 2.1784
6.4974 -8.5689 2.1302
6.4976 -8.3918 2.0832
6.4979 -8.2193 2.0375
6.4982 -8.0513 1.9929
6.4984 -7.8876 1.9494
6.4987 -7.7279 1.9070
6.4989 -7.5721 1.8655
6.4991 -7.4200 1.8250
6.4994 -7.2715 1.7854
6.4996 -7.1264 1.7467
6.4998 -6.9846 1.7088
6.5000 -6.8458 1.6717
6.5003 -6.7101 1.6353
6.5008 -6.5775 1.5998
6.5011 -6.4475 1.5650
6.5014 -6.3201 1.5308
6.5017 -6.1953 1.4972
6.5020 -6.0729 1.4643
6.5022 -5.9528 1.4320
6.5025 -5.8350 1.4002
6.5028 -5.7193 1.3690
6.5030 -5.6058 1.3383
6.5033 -5.4942 1.3082
6.5036 -5.3846 1.2785
6.5038 -5.2768 1.2493
6.5041 -5.1709 1.2206
6.5043 -5.0666 1.1923
6.5045 -4.9640 1.1644
6.5048 -4.8631 1.1369
6.5050 -4.7636 1.1098
6.5052 -4.6657 1.0831
6.5055 -4.5692 1.0568
6.5057 -4.4741 1.0308
6.5059 -4.3804 1.0051
6.5061 -4.2879 0.9798
6.5063 -4.1967 0.9548
6.5065 -4.1067 0.9300
6.5067 -4.0178 0.9056
6.5069 -3.9301 0.8815
6.5071 -3.8434 0.8576
6.5073 -3.7579 0.8340
6.5075 -3.6733 0.8106
6.5075 -3.5895 0.7875
6.5076 -3.5068 0.7646
6.5076 -3.4250 0.7419
6.5076 -3.3441 0.7195
6.5076 -3.2640 0.6972
6.5077 -3.1848 0.6752
6.5077 -3.1063 0.6534
6.5077 -3.0286 0.6317
6.5077 -2.9517 0.6102
6.5078 -2.8755 0.5889
6.5078 -2.8000 0.5678
6.5078 -2.7251 0.5468
6.5078 -2.6509 0.5260
6.5079 -2.5774 0.5053
6.5079 -2.5044 0.4848
6.5079 -2.4320 0.4644
6.5079 -2.3601 0.4442
6.5080 -2.2888 0.4240
6.5080 -2.2180 0.4040
6.5080 -2.1477 0.3841
6.5080 -2.0779 0.3643
6.5081 -2.0085 0.3447
6.5081 -1.9396 0.3251
6.5081 -1.8711 0.3056
6.5081 -1.8030 0.2862
6.5082 -1.7353 0.2669
6.5082 -1.6679 0.2476
6.5082 -1.6009 0.2285
6.5082 -1.5343 0.2094
6.5083 -1.4680 0.1904
6.5083 -1.4019 0.1714
-5.7297 -8.8572 2.7464
-5.7206 -9.0457 2.8041
-5.6627 -9.1617 2.8392
-5.5347 -9.1642 2.8392
-5.4080 -9.1667 2.8392
-5.2826 -9.1691 2.8392
-5.1586 -9.1715 2.8392
-5.0358 -9.1738 2.8392
-4.9143 -9.1760 2.8392
-4.7939 -9.1782 2.8392
-4.6746 -9.1803 2.8392
-4.5564 -9.1823 2.8392
-4.4393 -9.1843 2.8392
-4.3232 -9.1862 2.8392
-4.2081 -9.1880 2.8392
-4.0940 -9.1898 2.8392
-3.9808 -9.1916 2.8392
-3.8684 -9.1932 2.8392
-3.7569 -9.1949 2.8392
-3.6463 -9.1965 2.8392
-3.5364 -9.1980 2.8392
-3.4273 -9.1994 2.8392
-3.3189 -9.2009 2.8392
-3.2112 -9.2022 2.8392
-3.1042 -9.2036 2.8392
-2.9979 -9.2048 2.8392
-2.8922 -9.2060 2.8392
-2.7870 -9.2072 2.8392
-2.6825 -9.2084 2.8392
-2.5785 -9.2095 2.8392
-2.4751 -9.2105 2.8392
-2.3721 -9.2115 2.8392
-2.2696 -9.2124 2.8392
-2.1676 -9.2133 2.8392
-0.8900 -3.9691 1.2230
-0.8464 -3.9695 1.2230
-0.8030 -3.9698 1.2230
-0.7597 -3.9701 1.2230
-0.7166 -3.9704 1.2230
-0.6736 -3.9707 1.2230
-0.6308 -3.9709 1.2230
-0.5881 -3.9712 1.2230
-0.5455 -3.9714 1.2230
-0.5030 -3.9716 1.2230
-0.4606 -3.9718 1.2230
-0.4183 -3.9720 1.2230
-0.3761 -3.9721 1.2230
-0.3339 -3.9722 1.2230
-0.2919 -3.9724 1.2230
-0.2498 -3.9725 1.2230
-0.2079 -3.9726 1.2230
-0.1659 -3.9726 1.2230
-0.1240 -3.9727 1.2230
-0.0821 -3.9727 1.2230
-0.0403 -3.9727 1.2230
0.0016 -3.9727 1.2230
0.0435 -3.9727 1.2230
0.0853 -3.9727 1.2230
0.1272 -3.9726 1.2230
0.1691 -3.9726 1.2230
0.2111 -3.9725 1.2230
0.2530 -3.9724 1.2230
0.2951 -3.9723 1.2230
0.3372 -3.9722 1.2230
0.3793 -3.9720 1.2230
0.4215 -3.9718 1.2230
0.4638 -3.9717 1.2230
0.5062 -3.9715 1.2230
0.5487 -3.9712 1.2230
0.5913 -3.9710 1.2230
0.6340 -3.9708 1.2230
0.6769 -3.9705 1.2229
0.7198 -3.9702 1.2229
0.7630 -3.9699 1.2229
0.8062 -3.9696 1.2229
0.8496 -3.9692 1.2229
0.8932 -3.9688 1.2229
2.1754 -9.2133 2.8392
2.2774 -9.2124 2.8392
2.3799 -9.2114 2.8392
2.4829 -9.2104 2.8392
2.5864 -9.2094 2.8392
2.6905 -9.2083 2.8392
2.7951 -9.2071 2.8392
2.9002 -9.2060 2.8392
3.0060 -9.2047 2.8392
3.1124 -9.2034 2.8392
3.2194 -9.2021 2.8392
3.3271 -9.2008 2.8392
3.4356 -9.1993 2.8392
3.5448 -9.1979 2.8392
3.6547 -9.1963 2.8392
3.7654 -9.1947 2.8392
3.8770 -9.1931 2.8392
3.9894 -9.1914 2.8392
4.1027 -9.1897 2.8392
4.2169 -9.1879 2.8392
4.3321 -9.1860 2.8392
4.4483 -9.1841 2.8392
4.5654 -9.1822 2.8392
4.6837 -9.1801 2.8392
4.7347 -9.0475 2.7988
4.7466 -8.8462 2.7372
4.7744 -8.6812 2.6868
4.8906 -8.6790 2.6868
5.0081 -8.6768 2.6868
5.1268 -8.6745 2.6868
5.2468 -8.6721 2.6868
5.3681 -8.6697 2.6868
5.4908 -8.6672 2.6868
5.6148 -8.6646 2.6868
5.7404 -8.6620 2.6868
5.8674 -8.6592 2.6868
5.9960 -8.6565 2.6868
6.1263 -8.6536 2.6868
6.2582 -8.6506 2.6868
6.3918 -8.6476 2.6868
6.4970 -8.6045 2.6744
6.4973 -8.4245 2.6194
6.4976 -8.2493 2.5659
6.4979 -8.0787 2.5138
6.4981 -7.9125 2.4631
6.4984 -7.7505 2.4137
6.4986 -7.5925 2.3655
6.4989 -7.4384 2.3185
6.4991 -7.2879 2.2726
6.4994 -7.1409 2.2278
6.4996 -6.9973 2.1841
6.4998 -6.8569 2.1413
6.5000 -6.7195 2.0995
6.5005 -6.5854 2.0586
6.5008 -6.4539 2.0186
6.5011 -6.3251 1.9795
6.5014 -6.1990 1.9411
6.5016 -6.0754 1.9035
6.5019 -5.9541 1.8667
6.5022 -5.8352 1.8305
6.5025 -5.7184 1.7951
6.5028 -5.6038 1.7603
6.5030 -5.4913 1.7261
6.5033 -5.3808 1.6925
6.5035 -5.2721 1.6596
6.5038 -5.1653 1.6272
6.5040 -5.0602 1.5953
6.5043 -4.9569 1.5640
6.5045 -4.8552 1.5332
6.5047 -4.7550 1.5029
6.5050 -4.6564 1.4730
6.5052 -4.5593 1.4436
6.5054 -4.4636 1.4146
6.5057 -4.3692 1.3861
6.5059 -4.2762 1.3580
6.5061 -4.1844 1.3302
6.5063 -4.0939 1.3029
6.5065 -4.0046 1.2759
6.5067 -3.9164 1.2493
6.5069 -3.8293 1.2230
6.5071 -3.7432 1.1970
6.5073 -3.6583 1.1714
6.5069 -3.5739 1.1460
6.5070 -3.4908 1.1209
6.5070 -3.4086 1.0962
6.5070 -3.3273 1.0717
6.5070 -3.2470 1.0475
6.5071 -3.1674 1.0235
6.5071 -3.0886 0.9998
6.5071 -3.0107 0.9764
6.5072 -2.9335 0.9532
6.5072 -2.8570 0.9302
6.5072 -2.7812 0.9074
6.5072 -2.7061 0.8849
6.5073 -2.6317 0.8625
6.5073 -2.5579 0.8404
6.5073 -2.4847 0.8184
6.5074 -2.4121 0.7967
6.5074 -2.3401 0.7751
6.5074 -2.2686 0.7537
6.5074 -2.1976 0.7324
6.5075 -2.1271 0.7113
6.5075 -2.0571 0.6904
6.5075 -1.9876 0.6696
6.5075 -1.9186 0.6489
6.5076 -1.8499 0.6284
6.5076 -1.7817 0.6080
6.5076 -1.7138 0.5878
6.5076 -1.6464 0.5676
6.5077 -1.5793 0.5476
6.5077 -1.5125 0.5277
6.5077 -1.4461 0.5079
6.5077 -1.3799 0.4882
6.5078 -1.3141 0.4686
-5.0308 -7.6504 2.8392
-4.9238 -7.6602 2.8392
-4.8179 -7.6698 2.8392
-4.7129 -7.6791 2.8392
-4.6087 -7.6882 2.8392
-4.5055 -7.6970 2.8392
-4.4031 -7.7056 2.8392
-4.3015 -7.7139 2.8392
-4.2007 -7.7220 2.8392
-4.1007 -7.7299 2.8392
-4.0014 -7.7376 2.8392
-3.9029 -7.7450 2.8392
-3.8050 -7.7523 2.8392
-3.7079 -7.7593 2.8392
-3.6113 -7.7661 2.8392
-3.5155 -7.7728 2.8392
-3.4202 -7.7791 2.8392
-3.3255 -7.7854 2.8392
-3.2314 -7.7914 2.8392
-3.1378 -7.7973 2.8392
-3.0448 -7.8029 2.8392
-2.9523 -7.8084 2.8392
-2.8603 -7.8136 2.8392
-2.7687 -7.8188 2.8392
-2.6776 -7.8237 2.8392
-2.5870 -7.8284 2.8392
-2.4968 -7.8329 2.8392
-2.4070 -7.8374 2.8392
-2.3176 -7.8416 2.8392
-2.2285 -7.8456 2.8392
-2.1398 -7.8495 2.8392
-0.9170 -3.5103 1.2691
-0.8772 -3.5103 1.2685
-0.8377 -3.5103 1.2680
-0.7983 -3.5103 1.2674
-0.7592 -3.5103 1.2669
-0.7201 -3.5103 1.2665
-0.6813 -3.5103 1.2660
-0.6426 -3.5103 1.2656
-0.6040 -3.5103 1.2652
-0.5655 -3.5103 1.2648
-0.5272 -3.5103 1.2645
-0.4890 -3.5103 1.2642
-0.4508 -3.5103 1.2639
-0.4128 -3.5103 1.2636
-0.3749 -3.5103 1.2634
-0.3370 -3.5103 1.2632
-0.2993 -3.5103 1.2630
-0.2615 -3.5103 1.2628
-0.2239 -3.5103 1.2626
-0.1862 -3.5103 1.2625
-0.1487 -3.5103 1.2624
-0.1111 -3.5103 1.2623
-0.0736 -3.5103 1.2623
-0.0361 -3.5103 1.2622
0.0014 -3.5103 1.2622
0.0389 -3.5103 1.2622
0.0765 -3.5103 1.2623
0.1140 -3.5103 1.2623
0.1515 -3.5103 1.2624
0.1891 -3.5103 1.2625
0.2267 -3.5103 1.2626
0.2644 -3.5103 1.2628
0.3021 -3.5103 1.2630
0.3399 -3.5103 1.2632
0.3778 -3.5103 1.2634
0.4157 -3.5103 1.2636
0.4538 -3.5103 1.2639
0.4919 -3.5103 1.2642
0.5301 -3.5103 1.2645
0.5685 -3.5103 1.2649
0.6069 -3.5103 1.2653
0.6455 -3.5103 1.2656
0.6842 -3.5103 1.2661
0.7231 -3.5103 1.2665
0.7622 -3.5103 1.2670
0.8014 -3.5103 1.2675
0.8407 -3.5103 1.2680
0.8803 -3.5103 1.2686
0.9200 -3.5103 1.2691
2.1466 -7.8492 2.8392
2.2353 -7.8453 2.8392
2.3244 -7.8413 2.8392
2.4138 -7.8370 2.8392
2.5037 -7.8326 2.8392
2.5939 -7.8280 2.8392
2.6846 -7.8233 2.8392
2.7757 -7.8184 2.8392
2.8673 -7.8132 2.8392
2.9593 -7.8079 2.8392
3.0519 -7.8025 2.8392
3.1450 -7.7968 2.8392
3.2386 -7.7910 2.8392
3.3327 -7.7849 2.8392
3.4274 -7.7787 2.8392
3.5228 -7.7723 2.8392
3.6187 -7.7656 2.8392
3.7153 -7.7588 2.8392
3.8125 -7.7517 2.8392
3.9104 -7.7445 2.8392
4.0090 -7.7370 2.8392
4.1083 -7.7293 2.8392
4.2084 -7.7214 2.8392
4.3093 -7.7133 2.8392
4.4109 -7.7049 2.8392
4.5134 -7.6963 2.8392
4.6167 -7.6875 2.8392
4.7209 -7.6784 2.8392
4.7401 -7.5326 2.7887
4.7504 -7.3775 2.7347
4.7707 -7.2427 2.6881
4.8707 -7.2295 2.6868
4.9738 -7.2197 2.6868
5.0780 -7.2096 2.6868
5.1831 -7.1993 2.6868
5.2894 -7.1887 2.6868
5.3967 -7.1778 2.6868
5.5052 -7.1666 2.6868
5.6148 -7.1552 2.6868
5.7256 -7.1434 2.6868
5.8377 -7.1314 2.6868
5.9510 -7.1190 2.6868
6.0657 -7.1063 2.6868
6.1817 -7.0932 2.6868
6.2991 -7.0799 2.6868
6.4180 -7.0662 2.6868
6.4993 -7.0102 2.6707
6.4996 -6.8680 2.6220
6.4998 -6.7291 2.5743
6.5000 -6.5931 2.5278
6.5004 -6.4603 2.4823
6.5007 -6.3301 2.4379
6.5010 -6.2026 2.3944
6.5013 -6.0777 2.3519
6.5016 -5.9553 2.3102
6.5019 -5.8352 2.2695
6.5022 -5.7174 2.2295
6.5025 -5.6017 2.1903
6.5027 -5.4882 2.1519
6.5030 -5.3767 2.1143
6.5033 -5.2672 2.0773
6.5035 -5.1595 2.0411
6.5038 -5.0536 2.0055
6.5040 -4.9495 1.9705
6.5043 -4.8470 1.9362
6.5045 -4.7462 1.9024
6.5047 -4.6469 1.8692
6.5050 -4.5491 1.8366
6.5052 -4.4528 1.8045
6.5054 -4.3578 1.7729
6.5056 -4.2642 1.7418
6.5059 -4.1719 1.7112
6.5061 -4.0809 1.6811
6.5063 -3.9910 1.6514
6.5065 -3.9024 1.6221
6.5067 -3.8148 1.5933
6.5069 -3.7284 1.5648
6.5071 -3.6430 1.5368
6.5063 -3.5580 1.5089
6.5063 -3.4745 1.4816
6.5064 -3.3920 1.4546
6.5064 -3.3103 1.4280
6.5064 -3.2296 1.4017
6.5065 -3.1498 1.3757
6.5065 -3.0707 1.3501
6.5065 -2.9924 1.3248
6.5066 -2.9150 1.2997
6.5066 -2.8382 1.2749
6.5066 -2.7622 1.2504
6.5067 -2.6869 1.2262
6.5067 -2.6122 1.2023
6.5067 -2.5382 1.1785
6.5068 -2.4648 1.1551
6.5068 -2.3920 1.1318
6.5068 -2.3198 1.1088
6.5068 -2.2481 1.0860
6.5069 -2.1769 1.0635
6.5069 -2.1063 1.0411
6.5069 -2.0362 1.0189
6.5070 -1.9665 0.9969
6.5070 -1.8973 0.9751
6.5070 -1.8285 0.9535
6.5070 -1.7601 0.9320
6.5071 -1.6922 0.9108
6.5071 -1.6246 0.8896
6.5071 -1.5574 0.8687
6.5071 -1.4905 0.8479
6.5072 -1.4240 0.8272
6.5072 -1.3578 0.8067
6.5072 -1.2918 0.7863
6.5072 -1.2262 0.7660
-4.3689 -6.5337 2.8392
-4.2789 -6.5470 2.8392
-4.1895 -6.5600 2.8392
-4.1007 -6.5727 2.8392
-4.0125 -6.5851 2.8392
-3.9249 -6.5972 2.8392
-3.8380 -6.6090 2.8392
-3.7515 -6.6204 2.8392
-3.6656 -6.6315 2.8392
-3.5802 -6.6424 2.8392
-3.4954 -6.6530 2.8392
-3.4110 -6.6632 2.8392
-3.3271 -6.6732 2.8392
-3.2436 -6.6829 2.8392
-3.1607 -6.6923 2.8392
-3.0781 -6.7015 2.8392
-2.9960 -6.7104 2.8392
-2.9143 -6.7190 2.8392
-2.8329 -6.7274 2.8392
-2.7520 -6.7354 2.8392
-2.6714 -6.7433 2.8392
-2.5912 -6.7509 2.8392
-2.5113 -6.7582 2.8392
-2.4318 -6.7653 2.8392
-2.3526 -6.7722 2.8392
-2.2737 -6.7788 2.8392
-2.1951 -6.7852 2.8392
-2.1167 -6.7913 2.8392
-2.0387 -6.7972 2.8392
-1.9609 -6.8028 2.8392
-1.8834 -6.8083 2.8392
-1.8061 -6.8135 2.8392
-0.8901 -3.5100 1.4616
-0.8499 -3.5100 1.4605
-0.8099 -3.5100 1.4596
-0.7702 -3.5100 1.4587
-0.7306 -3.5100 1.4578
-0.6911 -3.5100 1.4570
-0.6518 -3.5100 1.4562
-0.6127 -3.5100 1.4555
-0.5736 -3.5100 1.4548
-0.5347 -3.5100 1.4541
-0.4960 -3.5100 1.4535
-0.4573 -3.5100 1.4530
-0.4187 -3.5100 1.4525
-0.3802 -3.5100 1.4520
-0.3418 -3.5100 1.4516
-0.3035 -3.5100 1.4513
-0.2653 -3.5100 1.4509
-0.2270 -3.5100 1.4507
-0.1889 -3.5100 1.4504
-0.1508 -3.5100 1.4502
-0.1127 -3.5100 1.4501
-0.0746 -3.5100 1.4500
-0.0366 -3.5100 1.4499
0.0015 -3.5100 1.4499
0.0395 -3.5100 1.4499
0.0775 -3.5100 1.4500
0.1156 -3.5100 1.4501
0.1537 -3.5100 1.4502
0.1918 -3.5101 1.4504
0.2300 -3.5100 1.4507
0.2682 -3.5100 1.4510
0.3064 -3.5100 1.4513
0.3448 -3.5100 1.4517
0.3832 -3.5100 1.4521
0.4217 -3.5100 1.4525
0.4603 -3.5100 1.4530
0.4989 -3.5100 1.4536
0.5377 -3.5100 1.4542
0.5766 -3.5100 1.4548
0.6157 -3.5100 1.4555
0.6548 -3.5100 1.4563
0.6941 -3.5100 1.4570
0.7336 -3.5100 1.4579
0.7732 -3.5100 1.4587
0.8130 -3.5100 1.4597
0.8530 -3.5100 1.4606
0.8931 -3.5100 1.4617
1.8120 -6.8131 2.8392
1.8893 -6.8078 2.8392
1.9668 -6.8024 2.8392
2.0446 -6.7967 2.8392
2.1227 -6.7908 2.8392
2.2011 -6.7847 2.8392
2.2797 -6.7783 2.8392
2.3586 -6.7717 2.8392
2.4379 -6.7648 2.8392
2.5174 -6.7577 2.8392
2.5973 -6.7503 2.8392
2.6776 -6.7427 2.8392
2.7582 -6.7349 2.8392
2.8391 -6.7267 2.8392
2.9205 -6.7184 2.8392
3.0022 -6.7097 2.8392
3.0844 -6.7008 2.8392
3.1670 -6.6916 2.8392
3.2500 -6.6822 2.8392
3.3335 -6.6725 2.8392
3.4174 -6.6625 2.8392
3.5018 -6.6522 2.8392
3.5867 -6.6416 2.8392
3.6722 -6.6307 2.8392
3.7581 -6.6195 2.8392
3.8446 -6.6081 2.8392
3.9316 -6.5963 2.8392
4.0192 -6.5842 2.8392
4.1075 -6.5718 2.8392
4.1963 -6.5591 2.8392
4.2857 -6.5460 2.8392
4.3758 -6.5326 2.8392
4.4666 -6.5189 2.8392
4.5580 -6.5048 2.8392
4.6501 -6.4904 2.8392
4.7341 -6.4635 2.8339
4.7435 -6.3361 2.7846
4.7527 -6.2119 2.7366
4.7680 -6.0989 2.6934
4.8471 -6.0685 2.6868
4.9387 -6.0527 2.6868
5.0311 -6.0365 2.6868
5.1244 -6.0199 2.6868
5.2185 -6.0030 2.6868
5.3135 -5.9856 2.6868
5.4094 -5.9678 2.6868
5.5062 -5.9496 2.6868
5.6039 -5.9309 2.6868
5.7027 -5.9119 2.6868
5.8025 -5.8923 2.6868
5.9033 -5.8723 2.6868
6.0052 -5.8519 2.6868
6.1082 -5.8309 2.6868
6.2123 -5.8095 2.6868
6.3177 -5.7875 2.6868
6.4242 -5.7650 2.6868
6.5019 -5.7156 2.6744
6.5022 -5.5989 2.6306
6.5024 -5.4844 2.5877
6.5027 -5.3720 2.5457
6.5030 -5.2615 2.5046
6.5032 -5.1530 2.4642
6.5035 -5.0463 2.4246
6.5037 -4.9413 2.3858
6.5040 -4.8381 2.3477
6.5042 -4.7366 2.3103
6.5045 -4.6366 2.2736
6.5047 -4.5381 2.2376
6.5049 -4.4412 2.2021
6.5052 -4.3456 2.1673
6.5054 -4.2515 2.1331
6.5056 -4.1586 2.0995
6.5058 -4.0671 2.0664
6.5060 -3.9767 2.0338
6.5063 -3.8876 2.0018
6.5065 -3.7996 1.9702
6.5067 -3.7127 1.9392
6.5056 -3.6262 1.9082
6.5057 -3.5413 1.8780
6.5057 -3.4574 1.8483
6.5057 -3.3746 1.8190
6.5058 -3.2926 1.7901
6.5058 -3.2115 1.7616
6.5059 -3.1314 1.7335
6.5059 -3.0520 1.7058
6.5059 -2.9735 1.6784
6.5060 -2.8957 1.6514
6.5060 -2.8188 1.6247
6.5060 -2.7425 1.5984
6.5061 -2.6669 1.5724
6.5061 -2.5920 1.5467
6.5061 -2.5178 1.5213
6.5062 -2.4442 1.4962
6.5062 -2.3712 1.4714
6.5062 -2.2988 1.4469
6.5063 -2.2269 1.4226
6.5063 -2.1556 1.3986
6.5063 -2.0848 1.3749
6.5064 -2.0145 1.3514
6.5064 -1.9447 1.3281
6.5064 -1.8753 1.3051
6.5064 -1.8064 1.2823
6.5065 -1.7379 1.2597
6.5065 -1.6699 1.2373
6.5065 -1.6022 1.2151
6.5066 -1.5349 1.1931
6.5066 -1.4679 1.1713
6.5066 -1.4013 1.1497
6.5066 -1.3350 1.1283
6.5067 -1.2690 1.1070
6.5067 -1.2033 1.0860
6.5067 -1.1378 1.0650
-3.8565 -5.6691 2.8392
-3.7790 -5.6842 2.8392
-3.7018 -5.6990 2.8392
-3.6252 -5.7134 2.8392
-3.5489 -5.7274 2.8392
-3.4730 -5.7411 2.8392
-3.3976 -5.7545 2.8392
-3.3225 -5.7675 2.8392
-3.2478 -5.7802 2.8392
-3.1735 -5.7925 2.8392
-3.0995 -5.8046 2.8392
-3.0259 -5.8163 2.8392
-2.9526 -5.8277 2.8392
-2.8796 -5.8388 2.8392
-2.8069 -5.8495 2.8392
-2.7346 -5.8600 2.8392
-2.6625 -5.8702 2.8392
-2.5907 -5.8801 2.8392
-2.5192 -5.8896 2.8392
-2.4480 -5.8989 2.8392
-2.3771 -5.9079 2.8392
-2.3064 -5.9166 2.8392
-2.2359 -5.9251 2.8392
-2.1657 -5.9332 2.8392
-2.0957 -5.9411 2.8392
-2.0259 -5.9487 2.8392
-1.9563 -5.9561 2.8392
-1.8870 -5.9631 2.8392
-1.8178 -5.9699 2.8392
-1.7488 -5.9765 2.8392
-1.6800 -5.9827 2.8392
-1.6114 -5.9887 2.8392
-0.9034 -3.5097 1.6623
-0.8626 -3.5097 1.6608
-0.8220 -3.5097 1.6594
-0.7816 -3.5097 1.6580
-0.7414 -3.5097 1.6567
-0.7013 -3.5097 1.6555
-0.6614 -3.5097 1.6543
-0.6217 -3.5097 1.6532
-0.5821 -3.5097 1.6522
-0.5426 -3.5097 1.6512
-0.5032 -3.5097 1.6503
-0.4640 -3.5097 1.6495
-0.4249 -3.5097 1.6488
-0.3858 -3.5097 1.6481
-0.3468 -3.5097 1.6475
-0.3079 -3.5098 1.6469
-0.2691 -3.5098 1.6464
-0.2304 -3.5097 1.6460
-0.1916 -3.5097 1.6457
-0.1530 -3.5097 1.6454
-0.1143 -3.5097 1.6452
-0.0757 -3.5097 1.6450
-0.0371 -3.5098 1.6449
0.0015 -3.5098 1.6449
0.0401 -3.5098 1.6449
0.0787 -3.5098 1.6450
0.1173 -3.5098 1.6452
0.1559 -3.5098 1.6454
0.1946 -3.5098 1.6457
0.2333 -3.5098 1.6461
0.2721 -3.5098 1.6465
0.3109 -3.5098 1.6470
0.3498 -3.5098 1.6475
0.3888 -3.5098 1.6482
0.4278 -3.5098 1.6488
0.4670 -3.5098 1.6496
0.5063 -3.5098 1.6504
0.5456 -3.5098 1.6513
0.5851 -3.5098 1.6523
0.6247 -3.5098 1.6533
0.6645 -3.5098 1.6544
0.7044 -3.5097 1.6556
0.7445 -3.5098 1.6568
0.7847 -3.5098 1.6581
0.8251 -3.5098 1.6595
0.8657 -3.5097 1.6609
0.9065 -3.5097 1.6625
1.6166 -5.9883 2.8392
1.6853 -5.9823 2.8392
1.7541 -5.9759 2.8392
1.8231 -5.9694 2.8392
1.8923 -5.9626 2.8392
1.9616 -5.9555 2.8392
2.0312 -5.9482 2.8392
2.1010 -5.9405 2.8392
2.1710 -5.9326 2.8392
2.2413 -5.9244 2.8392
2.3118 -5.9160 2.8392
2.3825 -5.9073 2.8392
2.4535 -5.8982 2.8392
2.5247 -5.8889 2.8392
2.5962 -5.8793 2.8392
2.6680 -5.8694 2.8392
2.7401 -5.8592 2.8392
2.8125 -5.8487 2.8392
2.8851 -5.8379 2.8392
2.9581 -5.8268 2.8392
3.0315 -5.8154 2.8392
3.1051 -5.8037 2.8392
3.1791 -5.7916 2.8392
3.2535 -5.7792 2.8392
3.3282 -5.7665 2.8392
3.4033 -5.7535 2.8392
3.4788 -5.7401 2.8392
3.5547 -5.7264 2.8392
3.6310 -5.7123 2.8392
3.7077 -5.6979 2.8392
3.7849 -5.6831 2.8392
3.8625 -5.6680 2.8392
3.9405 -5.6525 2.8392
4.0190 -5.6366 2.8392
4.0980 -5.6203 2.8392
4.1775 -5.6036 2.8392
4.2575 -5.5866 2.8392
4.3380 -5.5691 2.8392
4.4191 -5.5513 2.8392
4.5007 -5.5330 2.8392
4.5828 -5.5144 2.8392
4.6656 -5.4953 2.8392
4.7367 -5.4617 2.8319
4.7452 -5.3568 2.7877
4.7534 -5.2541 2.7445
4.7614 -5.1534 2.7023
4.8153 -5.1036 2.6868
4.8972 -5.0829 2.6868
4.9797 -5.0618 2.6868
5.0629 -5.0402 2.6868
5.1468 -5.0181 2.6868
5.2314 -4.9956 2.6868
5.3167 -4.9726 2.6868
5.4027 -4.9490 2.6868
5.4896 -4.9249 2.6868
5.5772 -4.9003 2.6868
5.6656 -4.8752 2.6868
5.7548 -4.8495 2.6868
5.8448 -4.8232 2.6868
5.9358 -4.7964 2.6868
6.0276 -4.7690 2.6868
6.1203 -4.7409 2.6868
6.2140 -4.7123 2.6868
6.3086 -4.6831 2.6868
6.4042 -4.6531 2.6868
6.5009 -4.6226 2.6868
6.5044 -4.5259 2.6485
6.5047 -4.4283 2.6095
6.5049 -4.3322 2.5713
6.5051 -4.2375 2.5337
6.5054 -4.1441 2.4969
6.5056 -4.0520 2.4606
6.5058 -3.9612 2.4250
6.5060 -3.8716 2.3900
6.5062 -3.7831 2.3556
6.5064 -3.6958 2.3217
6.5050 -3.6086 2.2878
6.5050 -3.5234 2.2550
6.5051 -3.4392 2.2227
6.5051 -3.3559 2.1909
6.5051 -3.2737 2.1596
6.5052 -3.1923 2.1288
6.5052 -3.1118 2.0984
6.5053 -3.0322 2.0685
6.5053 -2.9534 2.0390
6.5053 -2.8754 2.0099
6.5054 -2.7981 1.9812
6.5054 -2.7216 1.9529
6.5055 -2.6458 1.9250
6.5055 -2.5707 1.8975
6.5055 -2.4963 1.8703
6.5056 -2.4225 1.8435
6.5056 -2.3493 1.8170
6.5056 -2.2767 1.7908
6.5057 -2.2047 1.7650
6.5057 -2.1332 1.7394
6.5057 -2.0622 1.7142
6.5058 -1.9918 1.6893
6.5058 -1.9218 1.6647
6.5058 -1.8524 1.6403
6.5059 -1.7833 1.6162
6.5059 -1.7147 1.5924
6.5059 -1.6465 1.5688
6.5060 -1.5787 1.5455
6.5060 -1.5113 1.5224
6.5060 -1.4443 1.4995
6.5060 -1.3776 1.4769
6.5061 -1.3112 1.4545
6.5061 -1.2451 1.4323
6.5061 -1.1793 1.4103
6.5062 -1.1139 1.3885
6.5062 -1.0486 1.3669
-3.4465 -4.9774 2.8392
-3.3786 -4.9932 2.8392
-3.3110 -5.0088 2.8392
-3.2436 -5.0239 2.8392
-3.1766 -5.0387 2.8392
-3.1098 -5.0531 2.8392
-3.0434 -5.0672 2.8392
-2.9772 -5.0809 2.8392
-2.9112 -5.0943 2.8392
-2.8456 -5.1074 2.8392
-2.7801 -5.1201 2.8392
-2.7149 -5.1325 2.8392
-2.6500 -5.1446 2.8392
-2.5853 -5.1563 2.8392
-2.5208 -5.1677 2.8392
-2.4565 -5.1789 2.8392
-2.3924 -5.1897 2.8392
-2.3285 -5.2001 2.8392
-2.2649 -5.2103 2.8392
-2.2014 -5.2202 2.8392
-2.1381 -5.2298 2.8392
-2.0750 -5.2391 2.8392
-2.0121 -5.2480 2.8392
-1.9493 -5.2567 2.8392
-1.8867 -5.2651 2.8392
-1.8243 -5.2732 2.8392
-1.7620 -5.2811 2.8392
-1.6998 -5.2886 2.8392
-1.6378 -5.2958 2.8392
-1.5759 -5.3028 2.8392
-1.5142 -5.3095 2.8392
-1.4526 -5.3159 2.8392
-0.9173 -3.5094 1.8722
-0.8758 -3.5094 1.8701
-0.8346 -3.5094 1.8682
-0.7936 -3.5094 1.8663
-0.7527 -3.5094 1.8645
-0.7120 -3.5094 1.8629
-0.6715 -3.5094 1.8613
-0.6311 -3.5094 1.8598
-0.5909 -3.5094 1.8584
-0.5508 -3.5094 1.8572
-0.5108 -3.5094 1.8560
-0.4710 -3.5094 1.8548
-0.4313 -3.5094 1.8538
-0.3916 -3.5094 1.8529
-0.3521 -3.5094 1.8521
-0.3126 -3.5095 1.8513
-0.2732 -3.5095 1.8507
-0.2338 -3.5094 1.8501
-0.1945 -3.5095 1.8496
-0.1553 -3.5094 1.8492
-0.1160 -3.5095 1.8489
-0.0769 -3.5095 1.8487
-0.0377 -3.5095 1.8486
0.0015 -3.5095 1.8485
0.0407 -3.5095 1.8486
0.0798 -3.5095 1.8487
0.1190 -3.5095 1.8490
0.1583 -3.5095 1.8493
0.1975 -3.5095 1.8497
0.2368 -3.5095 1.8501
0.2762 -3.5095 1.8507
0.3156 -3.5095 1.8514
0.3551 -3.5095 1.8521
0.3946 -3.5095 1.8530
0.4343 -3.5095 1.8539
0.4740 -3.5095 1.8549
0.5139 -3.5095 1.8561
0.5539 -3.5095 1.8573
0.5940 -3.5094 1.8586
0.6342 -3.5095 1.8599
0.6746 -3.5094 1.8614
0.7151 -3.5095 1.8630
0.7558 -3.5095 1.8647
0.7967 -3.5095 1.8665
0.8378 -3.5094 1.8683
0.8790 -3.5095 1.8703
0.9205 -3.5094 1.8724
1.4573 -5.3154 2.8392
1.5189 -5.3090 2.8392
1.5807 -5.3023 2.8392
1.6425 -5.2953 2.8392
1.7046 -5.2880 2.8392
1.7667 -5.2805 2.8392
1.8290 -5.2726 2.8392
1.8915 -5.2645 2.8392
1.9541 -5.2561 2.8392
2.0169 -5.2474 2.8392
2.0798 -5.2384 2.8392
2.1429 -5.2291 2.8392
2.2062 -5.2195 2.8392
2.2697 -5.2096 2.8392
2.3334 -5.1994 2.8392
2.3973 -5.1888 2.8392
2.4614 -5.1781 2.8392
2.5257 -5.1669 2.8392
2.5902 -5.1555 2.8392
2.6549 -5.1437 2.8392
2.7199 -5.1316 2.8392
2.7851 -5.1192 2.8392
2.8506 -5.1064 2.8392
2.9163 -5.0933 2.8392
2.9822 -5.0799 2.8392
3.0484 -5.0662 2.8392
3.1149 -5.0520 2.8392
3.1817 -5.0376 2.8392
3.2488 -5.0228 2.8392
3.3161 -5.0076 2.8392
3.3838 -4.9920 2.8392
3.4517 -4.9761 2.8392
3.5200 -4.9598 2.8392
3.5886 -4.9432 2.8392
3.6576 -4.9262 2.8392
3.7268 -4.9087 2.8392
3.7965 -4.8909 2.8392
3.8665 -4.8727 2.8392
3.9368 -4.8540 2.8392
4.0075 -4.8350 2.8392
4.0787 -4.8156 2.8392
4.1502 -4.7957 2.8392
4.2221 -4.7753 2.8392
4.2944 -4.7546 2.8392
4.3672 -4.7334 2.8392
4.4403 -4.7117 2.8392
4.5140 -4.6896 2.8392
4.5880 -4.6670 2.8392
4.6626 -4.6440 2.8392
4.7373 -4.6202 2.8390
4.7450 -4.5313 2.7990
4.7524 -4.4441 2.7598
4.7597 -4.3583 2.7215
4.7763 -4.2828 2.6892
4.8454 -4.2539 2.6868
4.9270 -4.2354 2.6910
4.9937 -4.2030 2.6868
5.0687 -4.1768 2.6868
5.1443 -4.1500 2.6868
5.2204 -4.1227 2.6868
5.2971 -4.0949 2.6868
5.3743 -4.0664 2.6868
5.4522 -4.0374 2.6868
5.5307 -4.0078 2.6868
5.6099 -3.9776 2.6868
5.6897 -3.9468 2.6868
5.7701 -3.9154 2.6868
5.8513 -3.8833 2.6868
5.9331 -3.8506 2.6868
6.0157 -3.8171 2.6868
6.0990 -3.7830 2.6868
6.1830 -3.7483 2.6868
6.2679 -3.7128 2.6868
6.3535 -3.6766 2.6868
6.4399 -3.6396 2.6868
6.5043 -3.5894 2.6774
6.5044 -3.5038 2.6418
6.5044 -3.4192 2.6068
6.5045 -3.3356 2.5723
6.5045 -3.2530 2.5384
6.5045 -3.1713 2.5051
6.5046 -3.0905 2.4723
6.5046 -3.0107 2.4400
6.5047 -2.9316 2.4082
6.5047 -2.8533 2.3769
6.5048 -2.7758 2.3460
6.5048 -2.6991 2.3156
6.5048 -2.6231 2.2857
6.5049 -2.5478 2.2562
6.5049 -2.4731 2.2271
6.5050 -2.3991 2.1984
6.5050 -2.3258 2.1701
6.5050 -2.2530 2.1422
6.5051 -2.1808 2.1147
6.5051 -2.1092 2.0876
6.5051 -2.0381 2.0607
6.5052 -1.9675 2.0343
6.5052 -1.8975 2.0082
6.5052 -1.8279 1.9824
6.5053 -1.7587 1.9569
6.5053 -1.6900 1.9317
6.5054 -1.6217 1.9068
6.5054 -1.5538 1.8823
6.5054 -1.4863 1.8580
6.5054 -1.4192 1.8340
6.5055 -1.3524 1.8102
6.5055 -1.2860 1.7868
6.5055 -1.2198 1.7635
6.5056 -1.1540 1.7406
6.5056 -1.0884 1.7178
6.5056 -1.0232 1.6953
6.5057 -0.9581 1.6731
-3.1097 -4.4090 2.8392
-3.0494 -4.4251 2.8392
-2.9894 -4.4408 2.8392
-2.9295 -4.4562 2.8392
-2.8699 -4.4712 2.8392
-2.8104 -4.4859 2.8392
-2.7512 -4.5002 2.8392
-2.6921 -4.5142 2.8392
-2.6332 -4.5278 2.8392
-2.5745 -4.5411 2.8392
-2.5160 -4.5540 2.8392
-2.4576 -4.5667 2.8392
-2.3995 -4.5790 2.8392
-2.3414 -4.5910 2.8392
-2.2836 -4.6027 2.8392
-2.2259 -4.6140 2.8392
-2.1683 -4.6250 2.8392
-2.1109 -4.6358 2.8392
-2.0536 -4.6461 2.8392
-1.9965 -4.6563 2.8392
-1.9395 -4.6661 2.8392
-1.8826 -4.6755 2.8392
-1.8258 -4.6847 2.8392
-1.7692 -4.6936 2.8392
-1.7127 -4.7023 2.8392
-1.6563 -4.7105 2.8392
-1.6000 -4.7186 2.8392
-1.5438 -4.7263 2.8392
-1.4877 -4.7337 2.8392
-1.4317 -4.7409 2.8392
-1.3759 -4.7477 2.8392
-1.3200 -4.7543 2.8392
-1.2643 -4.7607 2.8392
-0.8898 -3.5091 2.0901
-0.8479 -3.5091 2.0876
-0.8061 -3.5091 2.0852
-0.7646 -3.5091 2.0829
-0.7232 -3.5091 2.0808
-0.6821 -3.5091 2.0788
-0.6410 -3.5091 2.0769
-0.6002 -3.5091 2.0751
-0.5594 -3.5091 2.0735
-0.5188 -3.5091 2.0719
-0.4784 -3.5091 2.0705
-0.4380 -3.5091 2.0692
-0.3977 -3.5091 2.0680
-0.3575 -3.5091 2.0669
-0.3174 -3.5091 2.0660
-0.2774 -3.5091 2.0651
-0.2374 -3.5091 2.0644
-0.1975 -3.5092 2.0638
-0.1577 -3.5092 2.0633
-0.1178 -3.5092 2.0629
-0.0780 -3.5092 2.0626
-0.0383 -3.5092 2.0625
0.0015 -3.5092 2.0624
0.0413 -3.5092 2.0625
0.0811 -3.5092 2.0627
0.1209 -3.5092 2.0629
0.1607 -3.5091 2.0633
0.2006 -3.5091 2.0639
0.2405 -3.5091 2.0645
0.2805 -3.5092 2.0652
0.3205 -3.5092 2.0661
0.3606 -3.5091 2.0670
0.4008 -3.5092 2.0681
0.4411 -3.5091 2.0693
0.4814 -3.5092 2.0706
0.5219 -3.5091 2.0721
0.5626 -3.5091 2.0736
0.6033 -3.5091 2.0753
0.6442 -3.5091 2.0770
0.6852 -3.5091 2.0790
0.7264 -3.5091 2.0810
0.7678 -3.5091 2.0831
0.8093 -3.5091 2.0854
0.8511 -3.5091 2.0878
0.8930 -3.5091 2.0903
1.2686 -4.7602 2.8392
1.3243 -4.7539 2.8392
1.3801 -4.7472 2.8392
1.4360 -4.7404 2.8392
1.4920 -4.7332 2.8392
1.5481 -4.7257 2.8392
1.6043 -4.7179 2.8392
1.6606 -4.7099 2.8392
1.7170 -4.7016 2.8392
1.7735 -4.6929 2.8392
1.8302 -4.6841 2.8392
1.8869 -4.6748 2.8392
1.9438 -4.6653 2.8392
2.0008 -4.6555 2.8392
2.0580 -4.6454 2.8392
2.1153 -4.6349 2.8392
2.1727 -4.6242 2.8392
2.2303 -4.6131 2.8392
2.2880 -4.6018 2.8392
2.3459 -4.5901 2.8392
2.4039 -4.5781 2.8392
2.4621 -4.5657 2.8392
2.5205 -4.5531 2.8392
2.5790 -4.5401 2.8392
2.6377 -4.5268 2.8392
2.6966 -4.5131 2.8392
2.7557 -4.4991 2.8392
2.8150 -4.4848 2.8392
2.8744 -4.4701 2.8392
2.9341 -4.4550 2.8392
2.9940 -4.4396 2.8392
3.0540 -4.4239 2.8392
3.1143 -4.4078 2.8392
3.1749 -4.3913 2.8392
3.2356 -4.3745 2.8392
3.2966 -4.3572 2.8392
3.3578 -4.3396 2.8392
3.4192 -4.3217 2.8392
3.4809 -4.3033 2.8392
3.5429 -4.2845 2.8392
3.6051 -4.2653 2.8392
3.6676 -4.2457 2.8392
3.7303 -4.2257 2.8392
3.7933 -4.2053 2.8392
3.8566 -4.1845 2.8392
3.9202 -4.1632 2.8392
3.9841 -4.1415 2.8392
4.0483 -4.1194 2.8392
4.1128 -4.0968 2.8392
4.1776 -4.0737 2.8392
4.2427 -4.0503 2.8392
4.3082 -4.0263 2.8392
4.3740 -4.0019 2.8392
4.4401 -3.9770 2.8392
4.5066 -3.9516 2.8392
4.5734 -3.9257 2.8392
4.6406 -3.8992 2.8392
4.7082 -3.8724 2.8392
4.7428 -3.8181 2.8194
4.7496 -3.7422 2.7836
4.7563 -3.6675 2.7485
4.7628 -3.5938 2.7141
4.7807 -3.5296 2.6868
4.8469 -3.5011 2.6868
4.9135 -3.4720 2.6868
4.9805 -3.4424 2.6868
5.0479 -3.4122 2.6868
5.1158 -3.3814 2.6868
5.1841 -3.3501 2.6868
5.2529 -3.3181 2.6868
5.3221 -3.2856 2.6868
5.3918 -3.2524 2.6868
5.4619 -3.2186 2.6868
5.5326 -3.1842 2.6868
5.6037 -3.1491 2.6868
5.6754 -3.1134 2.6868
5.7475 -3.0770 2.6868
5.8202 -3.0399 2.6868
5.8935 -3.0021 2.6868
5.9672 -2.9636 2.6868
6.0416 -2.9244 2.6868
6.1165 -2.8844 2.6868
6.1920 -2.8436 2.6868
6.2681 -2.8021 2.6868
6.3449 -2.7598 2.6868
6.4222 -2.7167 2.6868
6.5002 -2.6728 2.6868
6.5042 -2.5982 2.6563
6.5043 -2.5227 2.6247
6.5043 -2.4479 2.5936
6.5043 -2.3737 2.5629
6.5044 -2.3002 2.5327
6.5044 -2.2273 2.5029
6.5045 -2.1550 2.4736
6.5045 -2.0832 2.4447
6.5045 -2.0120 2.4162
6.5046 -1.9413 2.3880
6.5046 -1.8711 2.3603
6.5046 -1.8014 2.3330
6.5047 -1.7321 2.3060
6.5047 -1.6633 2.2794
6.5048 -1.5949 2.2531
6.5048 -1.5270 2.2272
6.5048 -1.4594 2.2016
6.5049 -1.3922 2.1764
6.5049 -1.3253 2.1514
6.5049 -1.2588 2.1268
6.5050 -1.1926 2.1024
6.5050 -1.1267 2.0784
6.5050 -1.0612 2.0546
6.5050 -0.9958 2.0311
6.5051 -0.9308 2.0079
6.5051 -0.8660 1.9850
-2.8270 -3.9319 2.8392
-2.7729 -3.9479 2.8392
-2.7191 -3.9635 2.8392
-2.6653 -3.9788 2.8392
-2.6118 -3.9937 2.8392
-2.5583 -4.0083 2.8392
-2.5050 -4.0226 2.8392
-2.4518 -4.0364 2.8392
-2.3988 -4.0500 2.8392
-2.3458 -4.0633 2.8392
-2.2930 -4.0762 2.8392
-2.2403 -4.0888 2.8392
-2.1878 -4.1011 2.8392
-2.1353 -4.1131 2.8392
-2.0830 -4.1247 2.8392
-2.0307 -4.1360 2.8392
-1.9786 -4.1471 2.8392
-1.9266 -4.1578 2.8392
-1.8746 -4.1682 2.8392
-1.8228 -4.1783 2.8392
-1.7711 -4.1881 2.8392
-1.7194 -4.1976 2.8392
-1.6678 -4.2068 2.8392
-1.6164 -4.2158 2.8392
-1.5650 -4.2244 2.8392
-1.5137 -4.2327 2.8392
-1.4624 -4.2408 2.8392
-1.4112 -4.2485 2.8392
-1.3602 -4.2560 2.8392
-1.3091 -4.2632 2.8392
-1.2582 -4.2701 2.8392
-1.2073 -4.2767 2.8392
-1.0117 -3.7471 2.4839
-0.9045 -3.5087 2.3226
-0.8619 -3.5088 2.3195
-0.8194 -3.5088 2.3166
-0.7772 -3.5088 2.3137
-0.7351 -3.5088 2.3111
-0.6932 -3.5088 2.3086
-0.6515 -3.5088 2.3062
-0.6100 -3.5088 2.3040
-0.5685 -3.5088 2.3020
-0.5273 -3.5088 2.3001
-0.4861 -3.5088 2.2983
-0.4451 -3.5088 2.2967
-0.4041 -3.5088 2.2952
-0.3633 -3.5088 2.2939
-0.3226 -3.5088 2.2927
-0.2819 -3.5088 2.2917
-0.2413 -3.5088 2.2908
-0.2007 -3.5088 2.2900
-0.1602 -3.5088 2.2894
-0.1197 -3.5088 2.2889
-0.0793 -3.5088 2.2886
-0.0389 -3.5088 2.2884
0.0015 -3.5088 2.2883
0.0420 -3.5088 2.2884
0.0824 -3.5088 2.2886
0.1228 -3.5088 2.2889
0.1633 -3.5088 2.2894
0.2038 -3.5088 2.2901
0.2444 -3.5088 2.2908
0.2850 -3.5088 2.2918
0.3257 -3.5088 2.2928
0.3664 -3.5088 2.2940
0.4073 -3.5088 2.2954
0.4482 -3.5088 2.2968
0.4893 -3.5088 2.2985
0.5304 -3.5088 2.3002
0.5717 -3.5088 2.3022
0.6131 -3.5088 2.3042
0.6547 -3.5088 2.3064
0.6964 -3.5088 2.3088
0.7383 -3.5088 2.3113
0.7804 -3.5088 2.3140
0.8227 -3.5088 2.3168
0.8651 -3.5088 2.3198
0.9078 -3.5088 2.3229
1.0146 -3.7445 2.4825
1.2112 -4.2762 2.8392
1.2621 -4.2696 2.8392
1.3130 -4.2626 2.8392
1.3641 -4.2554 2.8392
1.4152 -4.2479 2.8392
1.4663 -4.2402 2.8392
1.5176 -4.2321 2.8392
1.5689 -4.2238 2.8392
1.6203 -4.2151 2.8392
1.6718 -4.2061 2.8392
1.7234 -4.1969 2.8392
1.7750 -4.1874 2.8392
1.8268 -4.1776 2.8392
1.8786 -4.1674 2.8392
1.9305 -4.1570 2.8392
1.9826 -4.1462 2.8392
2.0347 -4.1352 2.8392
2.0870 -4.1238 2.8392
2.1393 -4.1121 2.8392
2.1918 -4.1002 2.8392
2.2444 -4.0879 2.8392
2.2971 -4.0752 2.8392
2.3499 -4.0623 2.8392
2.4028 -4.0490 2.8392
2.4559 -4.0354 2.8392
2.5091 -4.0215 2.8392
2.5624 -4.0072 2.8392
2.6158 -3.9926 2.8392
2.6694 -3.9776 2.8392
2.7232 -3.9623 2.8392
2.7771 -3.9467 2.8392
2.8311 -3.9307 2.8392
2.8853 -3.9144 2.8392
2.9396 -3.8977 2.8392
2.9941 -3.8806 2.8392
3.0488 -3.8632 2.8392
3.1036 -3.8454 2.8392
3.1586 -3.8272 2.8392
3.2138 -3.8086 2.8392
3.2691 -3.7897 2.8392
3.3246 -3.7703 2.8392
3.3803 -3.7506 2.8392
3.4362 -3.7305 2.8392
3.4923 -3.7099 2.8392
3.5485 -3.6890 2.8392
3.6050 -3.6677 2.8392
3.6617 -3.6459 2.8392
3.7186 -3.6238 2.8392
3.7756 -3.6012 2.8392
3.8329 -3.5781 2.8392
3.8905 -3.5547 2.8392
3.9482 -3.5308 2.8392
4.0062 -3.5064 2.8392
4.0643 -3.4816 2.8392
4.1228 -3.4563 2.8392
4.1814 -3.4306 2.8392
4.2403 -3.4043 2.8392
4.2995 -3.3776 2.8392
4.3589 -3.3504 2.8392
4.4186 -3.3228 2.8392
4.4785 -3.2945 2.8392
4.5387 -3.2658 2.8392
4.5991 -3.2367 2.8392
4.6599 -3.2069 2.8392
4.7209 -3.1766 2.8392
4.7448 -3.1212 2.8170
4.7509 -3.0548 2.7848
4.7569 -2.9891 2.7531
4.7628 -2.9242 2.7220
4.7741 -2.8639 2.6946
4.8197 -2.8232 2.6868
4.8795 -2.7908 2.6868
4.9395 -2.7579 2.6868
4.9998 -2.7243 2.6868
5.0605 -2.6902 2.6868
5.1215 -2.6554 2.6868
5.1828 -2.6201 2.6868
5.2444 -2.5841 2.6868
5.3064 -2.5475 2.6868
5.3687 -2.5103 2.6868
5.4313 -2.4724 2.6868
5.4944 -2.4339 2.6868
5.5577 -2.3947 2.6868
5.6215 -2.3548 2.6868
5.6856 -2.3141 2.6868
5.7501 -2.2728 2.6868
5.8150 -2.2308 2.6868
5.8803 -2.1880 2.6868
5.9460 -2.1445 2.6868
6.0121 -2.1002 2.6868
6.0786 -2.0552 2.6868
6.1455 -2.0093 2.6868
6.2128 -1.9627 2.6868
6.2806 -1.9152 2.6868
6.3489 -1.8668 2.6868
6.4176 -1.8177 2.6868
6.4867 -1.7676 2.6868
6.5041 -1.7030 2.6654
6.5041 -1.6342 2.6372
6.5041 -1.5657 2.6094
6.5042 -1.4977 2.5820
6.5042 -1.4300 2.5550
6.5043 -1.3627 2.5284
6.5043 -1.2958 2.5021
6.5043 -1.2293 2.4762
6.5044 -1.1631 2.4507
6.5044 -1.0971 2.4254
6.5044 -1.0315 2.4006
6.5045 -0.9662 2.3760
6.5045 -0.9011 2.3517
6.5045 -0.8362 2.3278
6.5046 -0.7717 2.3041
-2.5852 -3.5241 2.8392
-2.5364 -3.5397 2.8392
-2.4878 -3.5550 2.8392
-2.4392 -3.5700 2.8392
-2.3907 -3.5847 2.8392
-2.3422 -3.5990 2.8392
-2.2939 -3.6130 2.8392
-2.2457 -3.6267 2.8392
-2.1975 -3.6400 2.8392
-2.1495 -3.6531 2.8392
-2.1015 -3.6658 2.8392
-2.0536 -3.6782 2.8392
-2.0058 -3.6903 2.8392
-1.9581 -3.7021 2.8392
-1.9104 -3.7136 2.8392
-1.8628 -3.7247 2.8392
-1.8153 -3.7356 2.8392
-1.7678 -3.7462 2.8392
-1.7204 -3.7564 2.8392
-1.6731 -3.7665 2.8392
-1.6259 -3.7761 2.8392
-1.5787 -3.7855 2.8392
-1.5316 -3.7946 2.8392
-1.4845 -3.8034 2.8392
-1.4375 -3.8120 2.8392
-1.3905 -3.8202 2.8392
-1.3436 -3.8282 2.8392
-1.2968 -3.8358 2.8392
-1.2499 -3.8432 2.8392
-1.2032 -3.8503 2.8392
-1.1565 -3.8572 2.8392
-1.1098 -3.8637 2.8392
-1.0632 -3.8700 2.8392
-0.9202 -3.5084 2.5699
-0.8767 -3.5084 2.5661
-0.8335 -3.5084 2.5625
-0.7905 -3.5084 2.5591
-0.7477 -3.5084 2.5559
-0.7051 -3.5084 2.5529
-0.6627 -3.5084 2.5500
-0.6204 -3.5084 2.5474
-0.5782 -3.5084 2.5449
-0.5362 -3.5084 2.5426
-0.4944 -3.5084 2.5404
-0.4526 -3.5085 2.5385
-0.4110 -3.5084 2.5367
-0.3695 -3.5085 2.5351
-0.3280 -3.5085 2.5336
-0.2866 -3.5085 2.5324
-0.2453 -3.5085 2.5313
-0.2041 -3.5085 2.5304
-0.1629 -3.5085 2.5296
-0.1218 -3.5085 2.5290
-0.0806 -3.5085 2.5286
-0.0395 -3.5085 2.5284
0.0016 -3.5085 2.5283
0.0427 -3.5085 2.5284
0.0838 -3.5085 2.5286
0.1249 -3.5085 2.5291
0.1661 -3.5085 2.5297
0.2073 -3.5085 2.5304
0.2485 -3.5085 2.5314
0.2898 -3.5085 2.5325
0.3312 -3.5085 2.5337
0.3726 -3.5085 2.5352
0.4142 -3.5085 2.5368
0.4558 -3.5085 2.5386
0.4976 -3.5085 2.5406
0.5394 -3.5085 2.5427
0.5815 -3.5085 2.5451
0.6236 -3.5085 2.5476
0.6659 -3.5085 2.5503
0.7084 -3.5084 2.5531
0.7510 -3.5085 2.5562
0.7938 -3.5085 2.5594
0.8368 -3.5085 2.5628
0.8801 -3.5084 2.5664
0.9235 -3.5084 2.5702
1.0667 -3.8695 2.8392
1.1134 -3.8632 2.8392
1.1600 -3.8567 2.8392
1.2068 -3.8498 2.8392
1.2535 -3.8427 2.8392
1.3003 -3.8352 2.8392
1.3472 -3.8275 2.8392
1.3941 -3.8196 2.8392
1.4411 -3.8113 2.8392
1.4881 -3.8028 2.8392
1.5352 -3.7940 2.8392
1.5823 -3.7848 2.8392
1.6295 -3.7754 2.8392
1.6768 -3.7657 2.8392
1.7241 -3.7557 2.8392
1.7715 -3.7454 2.8392
1.8189 -3.7348 2.8392
1.8664 -3.7239 2.8392
1.9140 -3.7127 2.8392
1.9617 -3.7012 2.8392
2.0095 -3.6894 2.8392
2.0573 -3.6772 2.8392
2.1052 -3.6648 2.8392
2.1532 -3.6521 2.8392
2.2012 -3.6390 2.8392
2.2494 -3.6256 2.8392
2.2976 -3.6120 2.8392
2.3459 -3.5979 2.8392
2.3944 -3.5836 2.8392
2.4429 -3.5689 2.8392
2.4915 -3.5539 2.8392
2.5402 -3.5385 2.8392
2.5890 -3.5229 2.8392
2.6379 -3.5068 2.8392
2.6869 -3.4905 2.8392
2.7360 -3.4738 2.8392
2.7852 -3.4567 2.8392
2.8345 -3.4393 2.8392
2.8840 -3.4215 2.8392
3.0829 -3.3469 2.8392
2.9335 -3.4034 2.8392
3.1329 -3.3272 2.8392
2.9832 -3.3849 2.8392
3.1830 -3.3073 2.8392
3.0330 -3.3661 2.8392
3.2333 -3.2869 2.8392
3.3849 -3.2234 2.8392
3.2837 -3.2661 2.8392
3.4357 -3.2015 2.8392
3.3343 -3.2450 2.8392
3.4867 -3.1792 2.8392
3.6918 -3.0856 2.8392
3.5377 -3.1564 2.8392
3.7435 -3.0612 2.8392
3.5890 -3.1332 2.8392
3.7953 -3.0364 2.8392
3.6403 -3.1097 2.8392
3.8473 -3.0110 2.8392
4.0041 -2.9324 2.8392
3.8994 -2.9853 2.8392
4.0567 -2.9053 2.8392
3.9516 -2.9591 2.8392
4.1094 -2.8777 2.8392
4.3222 -2.7626 2.8392
4.1624 -2.8497 2.8392
4.3758 -2.7326 2.8392
4.2155 -2.8212 2.8392
4.4296 -2.7021 2.8392
4.2687 -2.7921 2.8392
4.4836 -2.6711 2.8392
4.6467 -2.5749 2.8392
4.5378 -2.6395 2.8392
4.7014 -2.5417 2.8392
4.5921 -2.6075 2.8392
4.7435 -2.5013 2.8315
4.7651 -2.2664 2.7177
4.7491 -2.4417 2.8024
4.7764 -2.2121 2.6939
4.7545 -2.3827 2.7737
4.8170 -2.1709 2.6868
4.7599 -2.3243 2.7455
4.8703 -2.1351 2.6868
5.0316 -2.0244 2.6868
4.9318 -2.1022 2.6911
5.0858 -1.9863 2.6868
4.9776 -2.0620 2.6868
5.1402 -1.9476 2.6868
5.3600 -1.7864 2.6868
5.1948 -1.9083 2.6868
5.4155 -1.7445 2.6868
5.2497 -1.8683 2.6868
5.4712 -1.7019 2.6868
5.3047 -1.8277 2.6868
5.5272 -1.6585 2.6868
5.6966 -1.5243 2.6868
5.5834 -1.6145 2.6868
5.7535 -1.4782 2.6868
5.6399 -1.5698 2.6868
5.8107 -1.4313 2.6868
5.8681 -1.3836 2.6868
5.9258 -1.3351 2.6868
5.9838 -1.2859 2.6868
6.0420 -1.2359 2.6868
6.1004 -1.1850 2.6868
6.1591 -1.1334 2.6868
6.2181 -1.0809 2.6868
6.2774 -1.0275 2.6868
6.3369 -0.9733 2.6868
6.3967 -0.9182 2.6868
6.4568 -0.8622 2.6868
6.5039 -0.8037 2.6813
6.5039 -0.7390 2.6566
6.5040 -0.6747 2.6322
-2.3754 -3.1700 2.8392
-2.3310 -3.1852 2.8392
-2.2868 -3.2001 2.8392
-2.2425 -3.2147 2.8392
-2.1984 -3.2289 2.8392
-2.1543 -3.2429 2.8392
-2.1102 -3.2565 2.8392
-2.0662 -3.2699 2.8392
-2.0223 -3.2829 2.8392
-1.9784 -3.2956 2.8392
-1.9346 -3.3080 2.8392
-1.8908 -3.3201 2.8392
-1.8471 -3.3320 2.8392
-1.8034 -3.3435 2.8392
-1.7598 -3.3547 2.8392
-1.7162 -3.3656 2.8392
-1.6726 -3.3762 2.8392
-1.6292 -3.3866 2.8392
-1.5857 -3.3966 2.8392
-1.5423 -3.4064 2.8392
-1.4989 -3.4158 2.8392
-1.4556 -3.4250 2.8392
-1.4123 -3.4340 2.8392
-1.3691 -3.4426 2.8392
-1.3259 -3.4509 2.8392
-1.2827 -3.4590 2.8392
-1.2396 -3.4668 2.8392
-1.1965 -3.4743 2.8392
-1.1534 -3.4816 2.8392
-1.1103 -3.4886 2.8392
-1.0673 -3.4952 2.8392
-1.0243 -3.5017 2.8392
-0.9814 -3.5079 2.8392
-0.9385 -3.5137 2.8392
-0.8956 -3.5193 2.8392
-0.8527 -3.5247 2.8392
-0.8098 -3.5298 2.8392
-0.7670 -3.5346 2.8392
-0.7242 -3.5392 2.8392
-0.6814 -3.5434 2.8392
-0.6386 -3.5475 2.8392
-0.5958 -3.5512 2.8392
-0.5531 -3.5547 2.8392
-0.5104 -3.5579 2.8392
-0.4677 -3.5609 2.8392
-0.4249 -3.5636 2.8392
-0.3823 -3.5661 2.8392
-0.3396 -3.5683 2.8392
-0.2969 -3.5702 2.8392
-0.2542 -3.5719 2.8392
-0.2116 -3.5733 2.8392
-0.1689 -3.5745 2.8392
-0.1263 -3.5754 2.8392
-0.0837 -3.5760 2.8392
-0.0410 -3.5764 2.8392
0.0016 -3.5765 2.8392
0.0443 -3.5763 2.8392
0.0869 -3.5760 2.8392
0.1296 -3.5753 2.8392
0.1722 -3.5744 2.8392
0.2149 -3.5732 2.8392
0.2575 -3.5718 2.8392
0.3002 -3.5701 2.8392
0.3428 -3.5682 2.8392
0.3855 -3.5659 2.8392
0.4282 -3.5635 2.8392
0.4709 -3.5607 2.8392
0.5136 -3.5577 2.8392
0.5564 -3.5545 2.8392
0.5991 -3.5510 2.8392
0.6419 -3.5472 2.8392
0.6846 -3.5431 2.8392
0.7274 -3.5388 2.8392
0.7703 -3.5342 2.8392
0.8131 -3.5294 2.8392
0.8560 -3.5243 2.8392
0.8988 -3.5189 2.8392
0.9417 -3.5133 2.8392
0.9847 -3.5074 2.8392
1.0276 -3.5012 2.8392
1.0706 -3.4947 2.8392
1.1136 -3.4880 2.8392
1.1567 -3.4810 2.8392
1.1998 -3.4738 2.8392
1.2429 -3.4662 2.8392
1.2860 -3.4584 2.8392
1.3292 -3.4503 2.8392
1.3724 -3.4420 2.8392
1.4156 -3.4333 2.8392
1.4589 -3.4244 2.8392
1.5022 -3.4151 2.8392
1.5456 -3.4057 2.8392
1.5890 -3.3958 2.8392
1.6325 -3.3858 2.8392
1.6760 -3.3754 2.8392
1.7195 -3.3648 2.8392
1.7631 -3.3538 2.8392
1.8067 -3.3426 2.8392
1.8504 -3.3311 2.8392
1.8941 -3.3192 2.8392
1.9379 -3.3071 2.8392
1.9818 -3.2946 2.8392
2.0256 -3.2819 2.8392
2.0696 -3.2689 2.8392
2.1136 -3.2555 2.8392
2.1576 -3.2418 2.8392
2.2017 -3.2279 2.8392
2.2459 -3.2136 2.8392
2.2901 -3.1990 2.8392
2.3344 -3.1841 2.8392
2.3788 -3.1688 2.8392
2.4232 -3.1532 2.8392
2.4677 -3.1373 2.8392
2.5122 -3.1211 2.8392
2.5568 -3.1045 2.8392
2.6015 -3.0877 2.8392
2.6463 -3.0704 2.8392
2.6911 -3.0529 2.8392
2.7360 -3.0350 2.8392
2.7809 -3.0167 2.8392
2.8259 -2.9981 2.8392
2.8711 -2.9791 2.8392
2.9162 -2.9598 2.8392
2.9615 -2.9401 2.8392
3.0068 -2.9201 2.8392
3.0523 -2.8997 2.8392
3.0977 -2.8789 2.8392
3.1433 -2.8577 2.8392
3.1890 -2.8362 2.8392
3.2347 -2.8143 2.8392
3.3725 -2.7462 2.8392
3.2806 -2.7920 2.8392
3.4185 -2.7228 2.8392
