ply
format ascii 1.0
element vertex 2112
property float32 x
property float32 y
property float32 z
end_header
-12.1868 -28.9899 2.8395
-10.5369 -28.1287 2.8395
-11.7568 -28.7589 2.8395
-11.3389 -28.5387 2.8395
-10.1514 -27.9379 2.8395
-10.9326 -28.3289 2.8395
-9.7755 -27.7560 2.8395
-8.5643 -25.9458 2.6871
-7.2786 -25.3907 2.6871
-8.9036 -26.1022 2.6871
-6.9731 -25.2683 2.6871
-8.2326 -25.7966 2.6871
-6.6731 -25.1520 2.6871
-6.0888 -24.9366 2.6871
-7.1270 -23.1209 2.4217
-6.3785 -25.0415 2.6871
-5.8039 -24.8373 2.6871
-7.5902 -25.5194 2.6871
-5.7573 -25.7917 2.8010
-5.2542 -25.9532 2.8384
-4.1349 -25.6249 2.8357
-5.5435 -26.0481 2.8390
-3.8632 -25.5550 2.8351
-4.9690 -25.8636 2.8377
-3.0641 -25.3726 2.8332
-3.5943 -25.4897 2.8344
-4.6875 -25.7791 2.8370
-2.8025 -25.3206 2.8326
-3.3280 -25.4290 2.8338
-4.4095 -25.6996 2.8364
-2.5428 -25.2729 2.8319
-2.0287 -25.1901 2.8307
-1.0168 -25.0734 2.8283
-2.2849 -25.2294 2.8313
-1.7740 -25.1549 2.8301
-0.7661 -25.0542 2.8277
-0.0172 -25.0200 2.8259
-1.5205 -25.1237 2.8295
-0.5161 -25.0390 2.8271
0.2320 -25.0165 2.8253
-1.2682 -25.0966 2.8289
0.4812 -25.0167 2.8247
0.9805 -25.0289 2.8235
-0.2665 -25.0275 2.8265
0.7307 -25.0208 2.8241
1.2308 -25.0408 2.8229
1.9868 -25.1001 2.8211
3.0124 -25.2357 2.8186
1.4819 -25.0566 2.8223
2.2409 -25.1279 2.8205
3.2732 -25.2799 2.8180
1.7338 -25.0764 2.8217
2.4965 -25.1597 2.8199
3.5361 -25.3284 2.8174
4.0689 -25.4386 2.8161
2.7536 -25.1956 2.8192
3.8012 -25.3813 2.8167
5.1691 -25.7139 2.8135
6.3274 -26.0688 2.8107
5.4526 -25.7949 2.8128
6.6181 -26.1318 2.8058
4.3394 -25.5004 2.8155
5.7400 -25.8809 2.8121
6.8948 -26.1317 2.7935
4.6127 -25.5668 2.8148
6.0315 -25.9721 2.8114
7.1759 -26.1428 2.7819
4.8892 -25.6380 2.8141
7.4586 -26.1536 2.7698
8.6208 -26.2374 2.7195
7.7438 -26.1668 2.7573
5.2471 -14.0657 1.4213
8.0330 -26.1874 2.7450
8.9203 -26.2688 2.7066
5.4072 -14.0685 1.4116
8.3251 -26.2101 2.7323
5.5685 -14.0712 1.4015
5.8951 -14.0768 1.3804
4.9138 -14.0130 1.4348
5.7311 -14.0740 1.3911
6.0378 -14.0273 1.3642
6.4885 -13.9244 1.3182
6.2061 -14.0352 1.3532
5.0692 -14.0107 1.4253
6.1863 -12.9411 1.2133
6.4881 -14.2901 1.3655
5.5301 -10.7408 0.9757
6.0931 -10.7710 0.9322
5.6767 -10.7639 0.9668
6.2240 -12.6968 1.1784
6.2090 -10.7285 0.9161
5.8140 -10.7662 0.9556
5.3837 -10.7143 0.9840
6.4981 -10.9781 0.9244
5.9528 -10.7686 0.9440
6.4987 -10.7373 0.8910
6.4993 -10.5043 0.8585
6.4973 -9.6357 0.7356
6.4985 -8.8683 0.6237
6.4999 -10.2786 0.8268
6.4987 -8.6894 0.5971
6.4976 -9.4356 0.7067
6.4967 -10.0541 0.7954
6.4990 -8.5151 0.5710
6.4979 -9.2412 0.6785
6.4970 -9.8418 0.7651
6.4992 -8.3453 0.5455
6.4982 -9.0522 0.6508
6.4995 -8.1798 0.5203
6.5004 -7.5568 0.4240
6.5019 -6.9895 0.3335
6.4997 -8.0184 0.4956
6.5006 -7.4100 0.4009
6.5022 -6.8551 0.3117
6.4999 -7.8608 0.4714
6.5008 -7.2665 0.3781
6.5024 -6.7235 0.2901
6.5002 -7.7070 0.4475
6.5010 -7.1261 0.3556
6.5027 -6.5946 0.2688
6.5030 -6.4682 0.2478
6.5041 -5.9864 0.1661
6.5033 -6.3443 0.2271
6.5043 -5.8714 0.1462
6.5036 -6.2227 0.2065
6.5046 -5.7585 0.1266
6.5038 -6.1035 0.1862
6.5048 -5.6475 0.1071
6.5051 -5.5384 0.0878
6.5053 -5.4312 0.0686
6.5055 -5.3257 0.0496
6.5058 -5.2218 0.0308
-7.6870 -18.0213 2.6871
-7.4454 -17.9502 2.6871
-7.2082 -17.8818 2.6871
-6.9753 -17.8162 2.6871
-6.7464 -17.7531 2.6871
-6.5213 -17.6926 2.6871
-6.2999 -17.6345 2.6871
-6.0819 -17.5788 2.6871
-5.8673 -17.5253 2.6871
-5.7508 -17.7677 2.7323
-5.7359 -18.3483 2.8295
-5.5390 -18.3637 2.8395
-5.3246 -18.3163 2.8395
-5.1129 -18.2709 2.8395
-4.9037 -18.2276 2.8395
-4.6971 -18.1863 2.8395
-4.4927 -18.1470 2.8395
-4.2906 -18.1096 2.8395
-4.0905 -18.0740 2.8395
-3.8924 -18.0403 2.8395
-3.6962 -18.0083 2.8395
-3.5017 -17.9781 2.8395
-3.3088 -17.9497 2.8395
-3.1175 -17.9229 2.8395
-2.9276 -17.8978 2.8395
-2.7391 -17.8743 2.8395
-2.5518 -17.8525 2.8395
-2.3657 -17.8322 2.8395
-2.1806 -17.8135 2.8395
-1.9965 -17.7964 2.8395
-1.8133 -17.7808 2.8395
-1.6310 -17.7668 2.8395
-1.4493 -17.7542 2.8395
-1.2683 -17.7431 2.8395
-1.0878 -17.7335 2.8395
-0.9078 -17.7255 2.8395
-0.7283 -17.7188 2.8395
-0.5490 -17.7136 2.8395
-0.3700 -17.7099 2.8395
-0.1911 -17.7076 2.8395
-0.0123 -17.7068 2.8395
0.1664 -17.7074 2.8395
0.3453 -17.7095 2.8395
0.5243 -17.7130 2.8395
0.7035 -17.7180 2.8395
0.8830 -17.7244 2.8395
1.0630 -17.7324 2.8395
1.2433 -17.7417 2.8395
1.4243 -17.7526 2.8395
1.6058 -17.7650 2.8395
1.7881 -17.7788 2.8395
1.9712 -17.7942 2.8395
2.1551 -17.8111 2.8395
2.3401 -17.8296 2.8395
2.5246 -17.8486 2.8395
2.7131 -17.8712 2.8395
2.9015 -17.8945 2.8395
3.0912 -17.9193 2.8395
3.2823 -17.9459 2.8395
3.4750 -17.9741 2.8395
3.6692 -18.0041 2.8395
3.8652 -18.0357 2.8395
4.4647 -18.1417 2.8395
4.0630 -18.0692 2.8395
4.6687 -18.1808 2.8395
4.2628 -18.1045 2.8395
4.7390 -17.7131 2.7603
5.0110 -17.3272 2.6871
4.8110 -17.2846 2.6871
5.2135 -17.3718 2.6871
5.8379 -17.5182 2.6871
5.4188 -17.4185 2.6871
4.8616 -14.1150 2.1586
5.6269 -17.4673 2.6871
5.0269 -14.1330 2.1545
5.3171 -14.0505 2.1277
5.1536 -14.0418 2.1336
5.4861 -14.0698 2.1231
5.9822 -14.0783 2.1004
5.6501 -14.0726 2.1158
6.1749 -14.1375 2.1006
5.8155 -14.0755 2.1082
6.4885 -14.4601 2.1395
6.1688 -13.0436 1.9128
6.4889 -14.0826 2.0745
6.2218 -12.8232 1.8716
5.6150 -10.7422 1.5444
5.3779 -10.8081 1.5698
5.7532 -10.7446 1.5364
5.4659 -10.7157 1.5486
5.8928 -10.7470 1.5282
6.2225 -10.8315 1.5222
6.0372 -10.7551 1.5205
6.3070 -10.7302 1.4986
6.4994 -10.3399 1.4156
6.4981 -10.8083 1.4999
6.5000 -10.1168 1.3752
6.4967 -9.8947 1.3351
6.4988 -10.5702 1.4571
6.4970 -9.6848 1.2968
6.4973 -9.4810 1.2595
6.4984 -8.7220 1.1191
6.4976 -9.2831 1.2231
6.4987 -8.5450 1.0860
6.4979 -9.0908 1.1876
6.4989 -8.3726 1.0537
6.4982 -8.9039 1.1530
6.4992 -8.2046 1.0220
6.4994 -8.0409 0.9910
6.5004 -7.4243 0.8729
6.4997 -7.8811 0.9606
6.5006 -7.2790 0.8447
6.4999 -7.7252 0.9308
6.5008 -7.1369 0.8171
6.5001 -7.5730 0.9015
6.5015 -6.9985 0.7900
6.5018 -6.8626 0.7633
6.5030 -6.3463 0.6606
6.5021 -6.7295 0.7370
6.5033 -6.2236 0.6359
6.5024 -6.5992 0.7111
6.5035 -6.1032 0.6116
6.5027 -6.4715 0.6857
6.5038 -5.9850 0.5876
6.5041 -5.8690 0.5639
6.5043 -5.7550 0.5405
6.5046 -5.6431 0.5174
6.5048 -5.5331 0.4947
6.5050 -5.4250 0.4721
6.5053 -5.3186 0.4499
6.5055 -5.2140 0.4279
6.5058 -5.1110 0.4061
-5.7819 -13.3585 2.6871
-5.7390 -13.6363 2.7483
-5.7266 -14.0021 2.8272
-5.5759 -14.0379 2.8395
-5.4025 -14.0137 2.8395
-5.2311 -13.9904 2.8395
-5.0617 -13.9679 2.8395
-4.8943 -13.9463 2.8395
-4.7287 -13.9255 2.8395
-4.5648 -13.9055 2.8395
-4.4027 -13.8863 2.8395
-4.2421 -13.8678 2.8395
-4.0831 -13.8502 2.8395
-3.9255 -13.8332 2.8395
-3.7693 -13.8170 2.8395
-3.6145 -13.8015 2.8395
-3.4609 -13.7868 2.8395
-3.3085 -13.7726 2.8395
-3.1573 -13.7592 2.8395
-3.0071 -13.7465 2.8395
-2.8580 -13.7343 2.8395
-2.7098 -13.7229 2.8395
-2.5625 -13.7121 2.8395
-2.4161 -13.7019 2.8395
-2.2705 -13.6923 2.8395
-0.9179 -5.9086 1.2261
-0.8556 -5.9049 1.2261
-0.7936 -5.9015 1.2261
-0.7319 -5.8984 1.2261
-0.6704 -5.8955 1.2261
-0.6092 -5.8929 1.2261
-0.5481 -5.8905 1.2261
-0.4872 -5.8884 1.2261
-0.4265 -5.8865 1.2261
-0.3659 -5.8849 1.2261
-0.3054 -5.8835 1.2260
-0.2451 -5.8824 1.2260
-0.1848 -5.8815 1.2260
-0.1245 -5.8809 1.2260
-0.0643 -5.8805 1.2260
-0.0042 -5.8803 1.2260
0.0560 -5.8804 1.2260
0.1162 -5.8808 1.2260
0.1764 -5.8813 1.2260
0.2367 -5.8821 1.2260
0.2971 -5.8832 1.2260
0.3575 -5.8845 1.2260
0.4181 -5.8861 1.2260
0.4788 -5.8879 1.2260
0.5397 -5.8900 1.2260
0.6007 -5.8923 1.2260
0.6619 -5.8948 1.2260
0.7234 -5.8976 1.2260
0.7850 -5.9007 1.2260
0.8470 -5.9041 1.2260
0.9092 -5.9076 1.2260
2.2504 -13.6910 2.8395
2.3959 -13.7005 2.8395
2.5422 -13.7106 2.8395
2.6894 -13.7214 2.8395
2.8374 -13.7327 2.8395
2.9864 -13.7447 2.8395
3.1365 -13.7574 2.8395
3.2876 -13.7707 2.8395
3.4398 -13.7848 2.8395
3.5932 -13.7994 2.8395
3.7479 -13.8149 2.8395
3.9039 -13.8309 2.8395
4.0612 -13.8478 2.8395
4.2201 -13.8654 2.8395
4.3804 -13.8837 2.8395
4.5424 -13.9028 2.8395
4.7060 -13.9227 2.8395
4.7333 -13.5484 2.7591
4.7681 -13.2154 2.6871
4.9281 -13.2365 2.6871
5.0900 -13.2585 2.6871
5.2539 -13.2813 2.6871
5.4198 -13.3050 2.6871
5.5879 -13.3295 2.6871
5.7583 -13.3550 2.6871
5.9309 -13.3814 2.6871
6.1060 -13.4087 2.6871
6.2837 -13.4370 2.6871
6.2121 -12.9415 2.5824
6.4903 -13.1784 2.6237
5.4121 -10.7148 2.1283
5.5652 -10.7473 2.1295
5.7125 -10.7645 2.1277
5.8536 -10.7669 2.1228
5.9962 -10.7693 2.1176
6.1285 -10.7510 2.1083
6.2599 -10.7294 2.0981
6.4975 -10.8837 2.1221
6.4982 -10.6405 2.0685
6.4988 -10.4052 2.0165
6.4994 -10.1775 1.9660
6.4963 -9.9514 1.9160
6.4966 -9.7373 1.8684
6.4973 -9.3282 1.7772
6.4970 -9.5297 1.8221
6.4976 -9.1325 1.7334
6.4984 -8.5775 1.6086
6.4978 -8.9423 1.6907
6.4987 -8.4024 1.5691
6.4981 -8.7574 1.6492
6.4989 -8.2319 1.5305
6.4992 -8.0657 1.4928
6.4994 -7.9036 1.4560
6.5003 -7.2934 1.3164
6.4996 -7.7455 1.4199
6.4999 -7.5912 1.3847
6.5005 -7.1495 1.2833
6.5001 -7.4406 1.3502
6.5012 -7.0093 1.2509
6.5018 -6.7372 1.1879
6.5015 -6.8718 1.2191
6.5021 -6.6054 1.1572
6.5030 -6.2259 1.0685
6.5024 -6.4764 1.1271
6.5032 -6.1043 1.0399
6.5027 -6.3499 1.0976
6.5035 -5.9850 1.0118
6.5040 -5.7529 0.9569
6.5038 -5.8679 0.9842
6.5043 -5.6400 0.9301
6.5050 -5.3128 0.8519
6.5045 -5.5291 0.9037
6.5053 -5.2074 0.8266
6.5048 -5.4200 0.8776
6.5055 -5.1037 0.8016
6.5057 -5.0016 0.7770
-4.9038 -11.1642 2.8395
-4.7647 -11.1567 2.8395
-4.6270 -11.1495 2.8395
-4.4907 -11.1426 2.8395
-4.3556 -11.1358 2.8395
-4.2218 -11.1293 2.8395
-4.0892 -11.1231 2.8395
-3.9577 -11.1170 2.8395
-3.8273 -11.1112 2.8395
-3.6979 -11.1056 2.8395
-3.5696 -11.1002 2.8395
-3.4422 -11.0950 2.8395
-3.3158 -11.0900 2.8395
-3.1902 -11.0852 2.8395
-3.0655 -11.0807 2.8395
-2.9416 -11.0763 2.8395
-2.8185 -11.0720 2.8395
-2.6961 -11.0681 2.8395
-2.5744 -11.0642 2.8395
-2.4533 -11.0606 2.8395
-2.3329 -11.0572 2.8395
-2.2131 -11.0539 2.8395
-0.9023 -4.7620 1.2236
-0.8511 -4.7607 1.2236
-0.8001 -4.7595 1.2236
-0.7494 -4.7584 1.2236
-0.6988 -4.7574 1.2236
-0.6484 -4.7564 1.2236
-0.5982 -4.7555 1.2236
-0.5481 -4.7547 1.2236
-0.4982 -4.7539 1.2236
-0.4483 -4.7532 1.2236
-0.3986 -4.7526 1.2236
-0.3490 -4.7521 1.2236
-0.2995 -4.7516 1.2236
-0.2500 -4.7512 1.2236
-0.2006 -4.7509 1.2236
-0.1513 -4.7506 1.2235
-0.1020 -4.7504 1.2235
-0.0527 -4.7503 1.2235
-0.0034 -4.7503 1.2235
0.0459 -4.7503 1.2235
0.0952 -4.7504 1.2235
0.1445 -4.7505 1.2235
0.1938 -4.7508 1.2235
0.2432 -4.7511 1.2235
0.2926 -4.7514 1.2235
0.3422 -4.7519 1.2235
0.3918 -4.7524 1.2235
0.4415 -4.7530 1.2235
0.4913 -4.7536 1.2235
0.5412 -4.7543 1.2235
0.5912 -4.7552 1.2235
0.6415 -4.7560 1.2235
0.6918 -4.7570 1.2235
0.7424 -4.7580 1.2235
0.7931 -4.7591 1.2235
0.8440 -4.7603 1.2235
0.8951 -4.7615 1.2235
2.1966 -11.0535 2.8395
2.3163 -11.0567 2.8395
2.4367 -11.0601 2.8395
2.5576 -11.0637 2.8395
2.6792 -11.0675 2.8395
2.8015 -11.0715 2.8395
2.9246 -11.0757 2.8395
3.0484 -11.0800 2.8395
3.1730 -11.0846 2.8395
3.2984 -11.0894 2.8395
3.4247 -11.0943 2.8395
3.5520 -11.0994 2.8395
3.6802 -11.1049 2.8395
3.8094 -11.1104 2.8395
3.9396 -11.1162 2.8395
4.0709 -11.1222 2.8395
4.2034 -11.1284 2.8395
4.3371 -11.1349 2.8395
4.4719 -11.1416 2.8395
4.6081 -11.1485 2.8395
4.7260 -11.1097 2.8278
4.7400 -10.8330 2.7556
4.7619 -10.5863 2.6909
4.8893 -10.5788 2.6871
5.0250 -10.5866 2.6871
5.1622 -10.5946 2.6871
5.3010 -10.6028 2.6871
5.4414 -10.6114 2.6871
5.5836 -10.6202 2.6871
5.7275 -10.6293 2.6871
5.8733 -10.6387 2.6871
6.0210 -10.6484 2.6871
6.1706 -10.6584 2.6871
6.3224 -10.6687 2.6871
6.4763 -10.6793 2.6871
6.4982 -10.4739 2.6327
6.4988 -10.2414 2.5716
6.4960 -10.0110 2.5110
6.4963 -9.7927 2.4535
6.4966 -9.5810 2.3977
6.4969 -9.3757 2.3435
6.4972 -9.1765 2.2909
6.4975 -8.9830 2.2397
6.4978 -8.7949 2.1900
6.4981 -8.6120 2.1416
6.4984 -8.4341 2.0944
6.4986 -8.2609 2.0485
6.4989 -8.0921 2.0037
6.4991 -7.9277 1.9601
6.4994 -7.7673 1.9174
6.4996 -7.6109 1.8758
6.4999 -7.4582 1.8351
6.5001 -7.3091 1.7954
6.5003 -7.1634 1.7565
6.5008 -7.0214 1.7186
6.5011 -6.8822 1.6814
6.5015 -6.7461 1.6450
6.5018 -6.6128 1.6093
6.5021 -6.4823 1.5743
6.5024 -6.3545 1.5400
6.5026 -6.2292 1.5063
6.5029 -6.1064 1.4733
6.5032 -5.9859 1.4409
6.5035 -5.8677 1.4090
6.5037 -5.7517 1.3777
6.5040 -5.6378 1.3470
6.5042 -5.5259 1.3167
6.5045 -5.4159 1.2870
6.5047 -5.3078 1.2577
6.5050 -5.2016 1.2289
6.5052 -5.0970 1.2005
6.5055 -4.9942 1.1725
6.5057 -4.8929 1.1450
-4.0975 -9.1909 2.8395
-3.9845 -9.1926 2.8395
-3.8723 -9.1943 2.8395
-3.7610 -9.1959 2.8395
-3.6505 -9.1975 2.8395
-3.5408 -9.1990 2.8395
-3.4319 -9.2005 2.8395
-3.3237 -9.2019 2.8395
-3.2162 -9.2033 2.8395
-3.1094 -9.2046 2.8395
-3.0032 -9.2059 2.8395
-2.8977 -9.2071 2.8395
-2.7927 -9.2083 2.8395
-2.6883 -9.2094 2.8395
-2.5845 -9.2105 2.8395
-2.4812 -9.2116 2.8395
-2.3784 -9.2125 2.8395
-2.2761 -9.2135 2.8395
-2.1743 -9.2144 2.8395
-0.8919 -3.9654 1.2219
-0.8485 -3.9657 1.2219
-0.8052 -3.9660 1.2219
-0.7620 -3.9663 1.2219
-0.7191 -3.9666 1.2219
-0.6762 -3.9669 1.2218
-0.6335 -3.9672 1.2218
-0.5909 -3.9674 1.2218
-0.5484 -3.9676 1.2218
-0.5060 -3.9678 1.2218
-0.4638 -3.9680 1.2218
-0.4216 -3.9682 1.2218
-0.3795 -3.9683 1.2218
-0.3375 -3.9685 1.2218
-0.2955 -3.9686 1.2218
-0.2536 -3.9687 1.2218
-0.2117 -3.9688 1.2218
-0.1699 -3.9689 1.2218
-0.1281 -3.9689 1.2218
-0.0864 -3.9690 1.2218
-0.0446 -3.9690 1.2218
-0.0029 -3.9690 1.2218
0.0389 -3.9690 1.2218
0.0806 -3.9689 1.2218
0.1224 -3.9689 1.2218
0.1641 -3.9688 1.2218
0.2060 -3.9687 1.2218
0.2478 -3.9686 1.2218
0.2897 -3.9685 1.2218
0.3317 -3.9684 1.2218
0.3737 -3.9683 1.2218
0.4158 -3.9681 1.2218
0.4579 -3.9679 1.2218
0.5002 -3.9677 1.2218
0.5425 -3.9675 1.2218
0.5850 -3.9673 1.2218
0.6276 -3.9670 1.2218
0.6703 -3.9667 1.2218
0.7131 -3.9665 1.2218
0.7561 -3.9661 1.2218
0.7992 -3.9658 1.2218
0.8424 -3.9655 1.2218
0.8859 -3.9651 1.2218
2.1602 -9.2145 2.8395
2.2620 -9.2136 2.8395
2.3643 -9.2127 2.8395
2.4670 -9.2117 2.8395
2.5702 -9.2106 2.8395
2.6740 -9.2095 2.8395
2.7783 -9.2084 2.8395
2.8831 -9.2073 2.8395
2.9886 -9.2061 2.8395
3.0947 -9.2048 2.8395
3.2014 -9.2035 2.8395
3.3088 -9.2021 2.8395
3.4169 -9.2007 2.8395
3.5258 -9.1993 2.8395
3.6353 -9.1977 2.8395
3.7457 -9.1961 2.8395
3.8569 -9.1945 2.8395
3.9690 -9.1929 2.8395
4.0819 -9.1911 2.8395
4.1957 -9.1894 2.8395
4.3105 -9.1875 2.8395
4.4262 -9.1856 2.8395
4.5430 -9.1836 2.8395
4.6608 -9.1816 2.8395
4.7335 -9.0907 2.8121
4.7454 -8.8883 2.7501
4.7632 -8.7034 2.6938
4.8673 -8.6806 2.6871
4.9843 -8.6784 2.6871
5.1025 -8.6761 2.6871
5.2220 -8.6738 2.6871
5.3428 -8.6713 2.6871
5.4649 -8.6689 2.6871
5.5884 -8.6663 2.6871
5.7134 -8.6637 2.6871
5.8399 -8.6610 2.6871
5.9679 -8.6582 2.6871
6.0975 -8.6553 2.6871
6.2288 -8.6524 2.6871
6.3618 -8.6494 2.6871
6.4966 -8.6463 2.6871
6.4981 -8.4671 2.6324
6.4983 -8.2911 2.5787
6.4986 -8.1198 2.5264
6.4989 -7.9529 2.4754
6.4991 -7.7902 2.4258
6.4994 -7.6315 2.3774
6.4996 -7.4768 2.3302
6.4998 -7.3257 2.2841
6.5001 -7.1781 2.2392
6.5005 -7.0341 2.1953
6.5008 -6.8933 2.1524
6.5011 -6.7555 2.1105
6.5014 -6.6208 2.0694
6.5017 -6.4888 2.0293
6.5020 -6.3596 1.9900
6.5023 -6.2330 1.9515
6.5026 -6.1090 1.9137
6.5029 -5.9873 1.8768
6.5032 -5.8680 1.8405
6.5034 -5.7509 1.8049
6.5037 -5.6359 1.7700
6.5040 -5.5230 1.7357
6.5042 -5.4121 1.7021
6.5045 -5.3031 1.6690
6.5047 -5.1960 1.6365
6.5050 -5.0907 1.6046
6.5052 -4.9870 1.5732
6.5054 -4.8850 1.5422
6.5057 -4.7846 1.5118
-3.5184 -7.7735 2.8395
-3.4233 -7.7799 2.8395
-3.3288 -7.7861 2.8395
-3.2349 -7.7921 2.8395
-3.1414 -7.7980 2.8395
-3.0486 -7.8036 2.8395
-2.9562 -7.8091 2.8395
-2.8644 -7.8144 2.8395
-2.7730 -7.8195 2.8395
-2.6820 -7.8244 2.8395
-2.5915 -7.8291 2.8395
-2.5015 -7.8337 2.8395
-2.4118 -7.8381 2.8395
-2.3226 -7.8423 2.8395
-2.2337 -7.8463 2.8395
-2.1451 -7.8502 2.8395
-0.9196 -3.5115 1.2695
-0.8800 -3.5115 1.2690
-0.8405 -3.5115 1.2684
-0.8012 -3.5115 1.2679
-0.7620 -3.5115 1.2674
-0.7231 -3.5115 1.2669
-0.6843 -3.5115 1.2665
-0.6456 -3.5115 1.2661
-0.6071 -3.5115 1.2657
-0.5687 -3.5115 1.2653
-0.5304 -3.5115 1.2650
-0.4922 -3.5115 1.2646
-0.4542 -3.5115 1.2643
-0.4162 -3.5115 1.2641
-0.3783 -3.5115 1.2638
-0.3405 -3.5115 1.2636
-0.3028 -3.5115 1.2634
-0.2651 -3.5115 1.2632
-0.2275 -3.5115 1.2631
-0.1900 -3.5115 1.2629
-0.1524 -3.5115 1.2628
-0.1149 -3.5115 1.2628
-0.0775 -3.5115 1.2627
-0.0400 -3.5115 1.2627
-0.0026 -3.5115 1.2626
0.0349 -3.5115 1.2627
0.0723 -3.5115 1.2627
0.1098 -3.5115 1.2627
0.1473 -3.5115 1.2628
0.1848 -3.5115 1.2629
0.2223 -3.5115 1.2631
0.2599 -3.5115 1.2632
0.2976 -3.5115 1.2634
0.3353 -3.5115 1.2636
0.3731 -3.5115 1.2638
0.4110 -3.5115 1.2640
0.4489 -3.5115 1.2643
0.4870 -3.5115 1.2646
0.5251 -3.5115 1.2649
0.5634 -3.5115 1.2653
0.6018 -3.5115 1.2656
0.6403 -3.5115 1.2660
0.6789 -3.5115 1.2664
0.7177 -3.5115 1.2669
0.7567 -3.5115 1.2673
0.7958 -3.5115 1.2678
0.8350 -3.5115 1.2684
0.8745 -3.5115 1.2689
0.9142 -3.5115 1.2695
2.1329 -7.8508 2.8395
2.2214 -7.8469 2.8395
2.3103 -7.8429 2.8395
2.3995 -7.8387 2.8395
2.4891 -7.8343 2.8395
2.5791 -7.8298 2.8395
2.6695 -7.8250 2.8395
2.7604 -7.8201 2.8395
2.8517 -7.8151 2.8395
2.9435 -7.8098 2.8395
3.0358 -7.8044 2.8395
3.1286 -7.7988 2.8395
3.2219 -7.7930 2.8395
3.3158 -7.7870 2.8395
3.4102 -7.7808 2.8395
3.5053 -7.7744 2.8395
3.6009 -7.7678 2.8395
3.6972 -7.7610 2.8395
3.7941 -7.7540 2.8395
3.8917 -7.7469 2.8395
3.9900 -7.7394 2.8395
4.0890 -7.7318 2.8395
4.1887 -7.7239 2.8395
4.2892 -7.7159 2.8395
4.3905 -7.7076 2.8395
4.4926 -7.6991 2.8395
4.5955 -7.6903 2.8395
4.6993 -7.6813 2.8395
4.7389 -7.5680 2.8010
4.7493 -7.4123 2.7468
4.7637 -7.2672 2.6966
4.8488 -7.2325 2.6871
4.9515 -7.2228 2.6871
5.0552 -7.2128 2.6871
5.1600 -7.2025 2.6871
5.2658 -7.1920 2.6871
5.3726 -7.1812 2.6871
5.4806 -7.1702 2.6871
5.5898 -7.1588 2.6871
5.7001 -7.1471 2.6871
5.8117 -7.1352 2.6871
5.9245 -7.1229 2.6871
6.0386 -7.1103 2.6871
6.1541 -7.0974 2.6871
6.2710 -7.0841 2.6871
6.3892 -7.0706 2.6871
6.5001 -7.0470 2.6835
6.5004 -6.9045 2.6345
6.5008 -6.7651 2.5867
6.5011 -6.6287 2.5400
6.5014 -6.4953 2.4944
6.5017 -6.3647 2.4497
6.5020 -6.2368 2.4061
6.5023 -6.1114 2.3634
6.5026 -5.9885 2.3216
6.5029 -5.8680 2.2806
6.5031 -5.7499 2.2405
6.5034 -5.6338 2.2012
6.5037 -5.5200 2.1627
6.5039 -5.4081 2.1249
6.5042 -5.2982 2.0878
6.5044 -5.1902 2.0515
6.5047 -5.0841 2.0157
6.5049 -4.9796 1.9807
6.5052 -4.8769 1.9462
6.5054 -4.7758 1.9123
6.5056 -4.6762 1.8791
-3.0807 -6.7021 2.8395
-2.9987 -6.7110 2.8395
-2.9171 -6.7196 2.8395
-2.8359 -6.7279 2.8395
-2.7551 -6.7360 2.8395
-2.6747 -6.7438 2.8395
-2.5946 -6.7514 2.8395
-2.5149 -6.7587 2.8395
-2.4355 -6.7658 2.8395
-2.3564 -6.7727 2.8395
-2.2776 -6.7793 2.8395
-2.1992 -6.7857 2.8395
-2.1210 -6.7918 2.8395
-2.0431 -6.7977 2.8395
-1.9654 -6.8034 2.8395
-1.8880 -6.8088 2.8395
-1.8108 -6.8140 2.8395
-0.8928 -3.5110 1.4621
-0.8527 -3.5110 1.4610
-0.8128 -3.5110 1.4601
-0.7730 -3.5111 1.4591
-0.7335 -3.5110 1.4583
-0.6941 -3.5110 1.4574
-0.6549 -3.5111 1.4567
-0.6158 -3.5111 1.4559
-0.5768 -3.5111 1.4553
-0.5380 -3.5111 1.4546
-0.4993 -3.5111 1.4540
-0.4606 -3.5111 1.4535
-0.4221 -3.5111 1.4530
-0.3837 -3.5111 1.4525
-0.3454 -3.5111 1.4521
-0.3071 -3.5111 1.4517
-0.2689 -3.5111 1.4514
-0.2307 -3.5111 1.4511
-0.1926 -3.5111 1.4509
-0.1546 -3.5111 1.4507
-0.1166 -3.5111 1.4505
-0.0786 -3.5111 1.4504
-0.0406 -3.5111 1.4503
-0.0026 -3.5111 1.4503
0.0354 -3.5111 1.4503
0.0733 -3.5111 1.4504
0.1113 -3.5111 1.4505
0.1493 -3.5111 1.4506
0.1874 -3.5111 1.4508
0.2255 -3.5111 1.4511
0.2636 -3.5111 1.4514
0.3018 -3.5111 1.4517
0.3401 -3.5111 1.4520
0.3784 -3.5111 1.4525
0.4168 -3.5111 1.4529
0.4553 -3.5111 1.4534
0.4939 -3.5111 1.4540
0.5326 -3.5111 1.4545
0.5714 -3.5111 1.4552
0.6104 -3.5111 1.4559
0.6495 -3.5111 1.4566
0.6887 -3.5111 1.4574
0.7281 -3.5111 1.4582
0.7676 -3.5111 1.4590
0.8073 -3.5111 1.4600
0.8472 -3.5111 1.4609
0.8872 -3.5111 1.4619
1.8002 -6.8147 2.8395
1.8773 -6.8095 2.8395
1.9547 -6.8041 2.8395
2.0323 -6.7985 2.8395
2.1102 -6.7926 2.8395
2.1884 -6.7865 2.8395
2.2668 -6.7802 2.8395
2.3455 -6.7736 2.8395
2.4246 -6.7668 2.8395
2.5039 -6.7597 2.8395
2.5836 -6.7524 2.8395
2.6636 -6.7449 2.8395
2.7440 -6.7371 2.8395
2.8248 -6.7290 2.8395
2.9059 -6.7207 2.8395
2.9874 -6.7122 2.8395
3.0693 -6.7033 2.8395
3.1517 -6.6942 2.8395
3.2345 -6.6848 2.8395
3.3177 -6.6752 2.8395
3.4014 -6.6652 2.8395
3.4855 -6.6551 2.8395
3.5702 -6.6445 2.8395
3.6553 -6.6337 2.8395
3.7410 -6.6227 2.8395
3.8272 -6.6113 2.8395
3.9140 -6.5996 2.8395
4.0013 -6.5876 2.8395
4.0892 -6.5753 2.8395
4.1778 -6.5626 2.8395
4.2669 -6.5496 2.8395
4.3567 -6.5364 2.8395
4.4471 -6.5227 2.8395
4.5382 -6.5087 2.8395
4.6300 -6.4944 2.8395
4.7225 -6.4797 2.8395
4.7425 -6.3663 2.7963
4.7517 -6.2416 2.7481
4.7613 -6.1207 2.7015
4.8265 -6.0729 2.6871
4.9177 -6.0572 2.6871
5.0097 -6.0412 2.6871
5.1026 -6.0247 2.6871
5.1963 -6.0079 2.6871
5.2909 -5.9906 2.6871
5.3864 -5.9730 2.6871
5.4828 -5.9549 2.6871
5.5801 -5.9364 2.6871
5.6785 -5.9175 2.6871
5.7778 -5.8981 2.6871
5.8782 -5.8783 2.6871
5.9796 -5.8579 2.6871
6.0821 -5.8371 2.6871
6.1858 -5.8159 2.6871
6.2906 -5.7941 2.6871
6.3966 -5.7718 2.6871
6.5028 -5.7482 2.6867
6.5031 -5.6311 2.6428
6.5034 -5.5162 2.5997
6.5036 -5.4034 2.5575
6.5039 -5.2926 2.5162
6.5042 -5.1837 2.4757
6.5044 -5.0767 2.4360
6.5047 -4.9715 2.3970
6.5049 -4.8680 2.3588
6.5051 -4.7662 2.3213
6.5054 -4.6659 2.2845
6.5056 -4.5672 2.2483
-2.7368 -5.8605 2.8395
-2.6649 -5.8706 2.8395
-2.5933 -5.8805 2.8395
-2.5219 -5.8901 2.8395
-2.4508 -5.8993 2.8395
-2.3800 -5.9084 2.8395
-2.3094 -5.9171 2.8395
-2.2390 -5.9255 2.8395
-2.1689 -5.9336 2.8395
-2.0991 -5.9415 2.8395
-2.0294 -5.9491 2.8395
-1.9600 -5.9564 2.8395
-1.8907 -5.9635 2.8395
-1.8217 -5.9703 2.8395
-1.7528 -5.9768 2.8395
-1.6841 -5.9831 2.8395
-1.6156 -5.9891 2.8395
-0.9061 -3.5106 1.6628
-0.8654 -3.5106 1.6613
-0.8248 -3.5106 1.6599
-0.7845 -3.5106 1.6585
-0.7443 -3.5106 1.6572
-0.7043 -3.5106 1.6560
-0.6645 -3.5106 1.6548
-0.6248 -3.5106 1.6537
-0.5853 -3.5106 1.6527
-0.5459 -3.5106 1.6517
-0.5066 -3.5106 1.6508
-0.4674 -3.5106 1.6500
-0.4283 -3.5106 1.6493
-0.3893 -3.5106 1.6486
-0.3504 -3.5106 1.6480
-0.3116 -3.5106 1.6474
-0.2728 -3.5106 1.6469
-0.2341 -3.5106 1.6465
-0.1954 -3.5107 1.6461
-0.1568 -3.5107 1.6458
-0.1183 -3.5107 1.6456
-0.0797 -3.5107 1.6454
-0.0412 -3.5106 1.6453
-0.0027 -3.5106 1.6453
0.0359 -3.5107 1.6453
0.0744 -3.5107 1.6454
0.1129 -3.5107 1.6456
0.1515 -3.5107 1.6458
0.1901 -3.5107 1.6461
0.2288 -3.5107 1.6464
0.2675 -3.5107 1.6469
0.3062 -3.5107 1.6473
0.3450 -3.5107 1.6479
0.3839 -3.5107 1.6485
0.4229 -3.5106 1.6492
0.4620 -3.5107 1.6499
0.5011 -3.5107 1.6507
0.5404 -3.5107 1.6516
0.5798 -3.5106 1.6526
0.6194 -3.5107 1.6536
0.6590 -3.5107 1.6547
0.6988 -3.5106 1.6558
0.7388 -3.5106 1.6570
0.7790 -3.5106 1.6583
0.8193 -3.5106 1.6597
0.8598 -3.5106 1.6611
0.9005 -3.5106 1.6626
1.6062 -5.9899 2.8395
1.6747 -5.9839 2.8395
1.7433 -5.9777 2.8395
1.8122 -5.9712 2.8395
1.8812 -5.9644 2.8395
1.9504 -5.9574 2.8395
2.0198 -5.9501 2.8395
2.0894 -5.9426 2.8395
2.1593 -5.9347 2.8395
2.2294 -5.9266 2.8395
2.2997 -5.9182 2.8395
2.3702 -5.9096 2.8395
2.4410 -5.9006 2.8395
2.5121 -5.8914 2.8395
2.5834 -5.8818 2.8395
2.6550 -5.8720 2.8395
2.7269 -5.8619 2.8395
2.7991 -5.8515 2.8395
2.8715 -5.8407 2.8395
2.9444 -5.8297 2.8395
3.0175 -5.8183 2.8395
3.0909 -5.8067 2.8395
3.1647 -5.7948 2.8395
3.2389 -5.7824 2.8395
3.3134 -5.7699 2.8395
3.3883 -5.7568 2.8395
3.4635 -5.7436 2.8395
3.5392 -5.7300 2.8395
3.6153 -5.7160 2.8395
3.6918 -5.7017 2.8395
3.7687 -5.6870 2.8395
3.8460 -5.6720 2.8395
3.9238 -5.6566 2.8395
4.0021 -5.6408 2.8395
4.0808 -5.6247 2.8395
4.1600 -5.6081 2.8395
4.2398 -5.5912 2.8395
4.3200 -5.5739 2.8395
4.4008 -5.5562 2.8395
4.4821 -5.5380 2.8395
4.5640 -5.5195 2.8395
4.6464 -5.5005 2.8395
4.7294 -5.4811 2.8395
4.7442 -5.3831 2.7989
4.7524 -5.2800 2.7555
4.7605 -5.1791 2.7132
4.7957 -5.1093 2.6871
4.8773 -5.0888 2.6871
4.9595 -5.0678 2.6871
5.0424 -5.0464 2.6871
5.1259 -5.0245 2.6871
5.2102 -5.0021 2.6871
5.2951 -4.9793 2.6871
5.3808 -4.9559 2.6871
5.4673 -4.9320 2.6871
5.5545 -4.9075 2.6871
5.6425 -4.8826 2.6871
5.7314 -4.8571 2.6871
5.8210 -4.8311 2.6871
5.9115 -4.8044 2.6871
6.0029 -4.7772 2.6871
6.0952 -4.7494 2.6871
6.1885 -4.7210 2.6871
6.2827 -4.6920 2.6871
6.3778 -4.6623 2.6871
6.4740 -4.6320 2.6871
6.5054 -4.5550 2.6602
6.5056 -4.4572 2.6211
-2.4585 -5.1792 2.8395
-2.3945 -5.1900 2.8395
-2.3308 -5.2005 2.8395
-2.2672 -5.2107 2.8395
-2.2039 -5.2205 2.8395
-2.1407 -5.2301 2.8395
-2.0777 -5.2394 2.8395
-2.0149 -5.2483 2.8395
-1.9522 -5.2570 2.8395
-1.8897 -5.2654 2.8395
-1.8274 -5.2735 2.8395
-1.7652 -5.2813 2.8395
-1.7032 -5.2888 2.8395
-1.6413 -5.2961 2.8395
-1.5795 -5.3030 2.8395
-1.5179 -5.3098 2.8395
-1.4564 -5.3162 2.8395
-0.9200 -3.5101 1.8727
-0.8786 -3.5101 1.8706
-0.8375 -3.5101 1.8687
-0.7965 -3.5101 1.8668
-0.7557 -3.5102 1.8650
-0.7150 -3.5102 1.8634
-0.6746 -3.5102 1.8618
-0.6343 -3.5102 1.8603
-0.5941 -3.5102 1.8589
-0.5541 -3.5102 1.8576
-0.5142 -3.5102 1.8564
-0.4744 -3.5102 1.8553
-0.4347 -3.5102 1.8543
-0.3951 -3.5102 1.8534
-0.3556 -3.5102 1.8525
-0.3162 -3.5102 1.8518
-0.2769 -3.5102 1.8511
-0.2376 -3.5102 1.8505
-0.1984 -3.5102 1.8501
-0.1592 -3.5102 1.8497
-0.1200 -3.5102 1.8494
-0.0809 -3.5102 1.8491
-0.0418 -3.5102 1.8490
-0.0027 -3.5102 1.8489
0.0364 -3.5102 1.8490
0.0755 -3.5102 1.8491
0.1146 -3.5102 1.8493
0.1538 -3.5102 1.8496
0.1930 -3.5102 1.8500
0.2322 -3.5102 1.8505
0.2715 -3.5102 1.8510
0.3108 -3.5102 1.8517
0.3502 -3.5102 1.8524
0.3897 -3.5102 1.8533
0.4293 -3.5102 1.8542
0.4689 -3.5102 1.8552
0.5087 -3.5102 1.8563
0.5486 -3.5102 1.8575
0.5886 -3.5102 1.8588
0.6287 -3.5102 1.8601
0.6690 -3.5102 1.8616
0.7095 -3.5102 1.8632
0.7501 -3.5102 1.8648
0.7908 -3.5102 1.8666
0.8318 -3.5102 1.8684
0.8729 -3.5102 1.8704
0.9143 -3.5102 1.8724
1.4479 -5.3171 2.8395
1.5094 -5.3107 2.8395
1.5710 -5.3040 2.8395
1.6327 -5.2971 2.8395
1.6946 -5.2899 2.8395
1.7566 -5.2824 2.8395
1.8188 -5.2746 2.8395
1.8811 -5.2665 2.8395
1.9436 -5.2582 2.8395
2.0062 -5.2496 2.8395
2.0690 -5.2406 2.8395
2.1320 -5.2314 2.8395
2.1951 -5.2219 2.8395
2.2585 -5.2120 2.8395
2.3220 -5.2019 2.8395
2.3857 -5.1914 2.8395
2.4497 -5.1807 2.8395
2.5138 -5.1697 2.8395
2.5781 -5.1583 2.8395
2.6427 -5.1466 2.8395
2.7075 -5.1346 2.8395
2.7726 -5.1223 2.8395
2.8378 -5.1096 2.8395
2.9034 -5.0966 2.8395
2.9691 -5.0833 2.8395
3.0352 -5.0696 2.8395
3.1015 -5.0556 2.8395
3.1681 -5.0412 2.8395
3.2350 -5.0265 2.8395
3.3021 -5.0115 2.8395
3.3696 -4.9960 2.8395
3.4373 -4.9803 2.8395
3.5054 -4.9641 2.8395
3.5738 -4.9475 2.8395
3.6426 -4.9306 2.8395
3.7116 -4.9133 2.8395
3.7811 -4.8956 2.8395
3.8508 -4.8775 2.8395
3.9210 -4.8590 2.8395
3.9915 -4.8401 2.8395
4.0624 -4.8207 2.8395
4.1336 -4.8010 2.8395
4.2053 -4.7808 2.8395
4.2774 -4.7602 2.8395
4.3499 -4.7391 2.8395
4.4228 -4.7177 2.8395
4.4962 -4.6957 2.8395
4.5700 -4.6733 2.8395
4.6443 -4.6504 2.8395
4.7191 -4.6270 2.8395
4.7440 -4.5549 2.8097
4.7515 -4.4674 2.7704
4.7588 -4.3814 2.7319
4.7702 -4.3004 2.6966
4.8266 -4.2610 2.6871
4.9002 -4.2360 2.6871
4.9744 -4.2105 2.6871
5.0491 -4.1845 2.6871
5.1243 -4.1579 2.6871
5.2001 -4.1308 2.6871
5.2765 -4.1032 2.6871
5.3535 -4.0749 2.6871
5.4311 -4.0461 2.6871
5.5092 -4.0168 2.6871
5.5881 -3.9868 2.6871
5.6675 -3.9562 2.6871
5.7476 -3.9250 2.6871
5.8284 -3.8931 2.6871
-2.2277 -4.6143 2.8395
-2.1702 -4.6253 2.8395
-2.1129 -4.6360 2.8395
-2.0557 -4.6464 2.8395
-1.9987 -4.6565 2.8395
-1.9418 -4.6663 2.8395
-1.8850 -4.6758 2.8395
-1.8284 -4.6849 2.8395
-1.7718 -4.6938 2.8395
-1.7154 -4.7024 2.8395
-1.6591 -4.7107 2.8395
-1.6029 -4.7188 2.8395
-1.5469 -4.7265 2.8395
-1.4909 -4.7339 2.8395
-1.4350 -4.7411 2.8395
-1.3792 -4.7480 2.8395
-1.3235 -4.7545 2.8395
-1.2679 -4.7609 2.8395
-0.8926 -3.5096 2.0906
-0.8507 -3.5097 2.0881
-0.8090 -3.5097 2.0857
-0.7676 -3.5097 2.0834
-0.7263 -3.5097 2.0813
-0.6852 -3.5097 2.0793
-0.6442 -3.5097 2.0774
-0.6034 -3.5097 2.0756
-0.5627 -3.5097 2.0739
-0.5222 -3.5097 2.0724
-0.4818 -3.5097 2.0710
-0.4415 -3.5097 2.0697
-0.4013 -3.5097 2.0685
-0.3612 -3.5097 2.0674
-0.3211 -3.5097 2.0664
-0.2812 -3.5097 2.0656
-0.2413 -3.5097 2.0648
-0.2014 -3.5097 2.0642
-0.1616 -3.5097 2.0637
-0.1219 -3.5097 2.0633
-0.0822 -3.5097 2.0630
-0.0424 -3.5097 2.0628
-0.0027 -3.5097 2.0628
0.0370 -3.5097 2.0628
0.0767 -3.5097 2.0630
0.1164 -3.5097 2.0633
0.1562 -3.5097 2.0636
0.1959 -3.5097 2.0641
0.2358 -3.5097 2.0647
0.2757 -3.5097 2.0655
0.3156 -3.5097 2.0663
0.3556 -3.5097 2.0673
0.3957 -3.5097 2.0683
0.4359 -3.5097 2.0695
0.4762 -3.5097 2.0708
0.5166 -3.5097 2.0722
0.5571 -3.5097 2.0737
0.5978 -3.5097 2.0754
0.6386 -3.5097 2.0771
0.6795 -3.5097 2.0790
0.7206 -3.5097 2.0810
0.7619 -3.5097 2.0832
0.8033 -3.5097 2.0854
0.8450 -3.5097 2.0878
0.8868 -3.5097 2.0903
1.0349 -3.9103 2.3318
1.3158 -4.7554 2.8395
1.3715 -4.7489 2.8395
1.4273 -4.7421 2.8395
1.4831 -4.7349 2.8395
1.5391 -4.7275 2.8395
1.5952 -4.7199 2.8395
1.6514 -4.7119 2.8395
1.7077 -4.7036 2.8395
1.7641 -4.6950 2.8395
1.8206 -4.6862 2.8395
1.8772 -4.6770 2.8395
1.9340 -4.6676 2.8395
1.9908 -4.6579 2.8395
2.0478 -4.6478 2.8395
2.1050 -4.6374 2.8395
2.1623 -4.6267 2.8395
2.2197 -4.6158 2.8395
2.2773 -4.6045 2.8395
2.3350 -4.5929 2.8395
2.3929 -4.5810 2.8395
2.4510 -4.5687 2.8395
2.5092 -4.5562 2.8395
2.5676 -4.5433 2.8395
2.6262 -4.5300 2.8395
2.6849 -4.5165 2.8395
2.7439 -4.5026 2.8395
2.8030 -4.4884 2.8395
2.8623 -4.4738 2.8395
2.9218 -4.4588 2.8395
2.9815 -4.4435 2.8395
3.0414 -4.4279 2.8395
3.1016 -4.4119 2.8395
3.1619 -4.3955 2.8395
3.2225 -4.3788 2.8395
3.2833 -4.3617 2.8395
3.3444 -4.3441 2.8395
3.4056 -4.3263 2.8395
3.4672 -4.3080 2.8395
3.5289 -4.2894 2.8395
3.5910 -4.2703 2.8395
3.6533 -4.2509 2.8395
3.7158 -4.2310 2.8395
3.7787 -4.2108 2.8395
3.8418 -4.1901 2.8395
3.9052 -4.1689 2.8395
3.9689 -4.1474 2.8395
4.0329 -4.1254 2.8395
4.0972 -4.1030 2.8395
4.1618 -4.0801 2.8395
4.2267 -4.0568 2.8395
4.2919 -4.0330 2.8395
4.3575 -4.0087 2.8395
4.4234 -3.9840 2.8395
4.4897 -3.9588 2.8395
4.5563 -3.9330 2.8395
4.6233 -3.9068 2.8395
4.6906 -3.8801 2.8395
4.7419 -3.8396 2.8297
4.7487 -3.7635 2.7938
4.7554 -3.6886 2.7586
4.7620 -3.6148 2.7241
4.7747 -3.5459 2.6938
4.8289 -3.5096 2.6871
4.8953 -3.4807 2.6871
4.9621 -3.4513 2.6871
5.0292 -3.4213 2.6871
5.0969 -3.3908 2.6871
5.1649 -3.3597 2.6871
-2.0324 -4.1362 2.8395
-1.9803 -4.1473 2.8395
-1.9284 -4.1580 2.8395
-1.8766 -4.1684 2.8395
-1.8248 -4.1785 2.8395
-1.7732 -4.1883 2.8395
-1.7216 -4.1978 2.8395
-1.6701 -4.2070 2.8395
-1.6188 -4.2159 2.8395
-1.5675 -4.2245 2.8395
-1.5162 -4.2329 2.8395
-1.4651 -4.2409 2.8395
-1.4140 -4.2486 2.8395
-1.3630 -4.2561 2.8395
-1.3121 -4.2633 2.8395
-1.2612 -4.2702 2.8395
-1.2104 -4.2768 2.8395
-1.0190 -3.7636 2.4951
-0.9073 -3.5091 2.3231
-0.8647 -3.5091 2.3200
-0.8223 -3.5092 2.3170
-0.7802 -3.5092 2.3142
-0.7382 -3.5092 2.3115
-0.6964 -3.5092 2.3090
-0.6547 -3.5092 2.3067
-0.6132 -3.5092 2.3045
-0.5719 -3.5092 2.3024
-0.5307 -3.5092 2.3005
-0.4896 -3.5092 2.2987
-0.4486 -3.5092 2.2971
-0.4078 -3.5092 2.2956
-0.3670 -3.5092 2.2943
-0.3263 -3.5092 2.2931
-0.2857 -3.5092 2.2920
-0.2452 -3.5092 2.2911
-0.2047 -3.5092 2.2904
-0.1642 -3.5092 2.2897
-0.1238 -3.5092 2.2892
-0.0835 -3.5092 2.2889
-0.0431 -3.5092 2.2887
-0.0028 -3.5092 2.2886
0.0376 -3.5092 2.2886
0.0779 -3.5092 2.2888
0.1183 -3.5092 2.2892
0.1587 -3.5092 2.2896
0.1991 -3.5092 2.2903
0.2396 -3.5092 2.2910
0.2801 -3.5092 2.2919
0.3207 -3.5092 2.2929
0.3614 -3.5092 2.2941
0.4021 -3.5092 2.2954
0.4430 -3.5092 2.2969
0.4839 -3.5092 2.2985
0.5250 -3.5092 2.3003
0.5662 -3.5092 2.3022
0.6075 -3.5092 2.3042
0.6490 -3.5092 2.3064
0.6906 -3.5092 2.3087
0.7324 -3.5092 2.3112
0.7744 -3.5092 2.3138
0.8165 -3.5092 2.3166
0.8589 -3.5092 2.3196
0.9014 -3.5092 2.3227
1.0064 -3.7404 2.4792
1.2034 -4.2777 2.8395
1.2542 -4.2711 2.8395
1.3051 -4.2643 2.8395
1.3560 -4.2571 2.8395
1.4070 -4.2497 2.8395
1.4580 -4.2420 2.8395
1.5092 -4.2340 2.8395
1.5604 -4.2257 2.8395
1.6117 -4.2171 2.8395
1.6631 -4.2082 2.8395
1.7145 -4.1991 2.8395
1.7661 -4.1896 2.8395
1.8177 -4.1798 2.8395
1.8694 -4.1698 2.8395
1.9212 -4.1594 2.8395
1.9732 -4.1487 2.8395
2.0252 -4.1378 2.8395
2.0773 -4.1265 2.8395
2.1295 -4.1149 2.8395
2.1819 -4.1030 2.8395
2.2343 -4.0908 2.8395
2.2869 -4.0783 2.8395
2.3396 -4.0654 2.8395
2.3924 -4.0522 2.8395
2.4454 -4.0387 2.8395
2.4984 -4.0249 2.8395
2.5516 -4.0107 2.8395
2.6049 -3.9962 2.8395
2.6584 -3.9813 2.8395
2.7120 -3.9661 2.8395
2.7658 -3.9506 2.8395
2.8197 -3.9347 2.8395
2.8737 -3.9185 2.8395
2.9279 -3.9019 2.8395
2.9823 -3.8849 2.8395
3.0368 -3.8676 2.8395
3.0915 -3.8499 2.8395
3.1463 -3.8318 2.8395
3.2013 -3.8134 2.8395
3.2565 -3.7946 2.8395
3.3119 -3.7754 2.8395
3.3675 -3.7558 2.8395
3.4232 -3.7358 2.8395
3.4791 -3.7154 2.8395
3.5352 -3.6946 2.8395
3.5916 -3.6734 2.8395
3.6481 -3.6518 2.8395
3.7048 -3.6298 2.8395
3.7617 -3.6074 2.8395
3.8188 -3.5845 2.8395
3.8762 -3.5611 2.8395
3.9338 -3.5374 2.8395
3.9916 -3.5132 2.8395
4.0496 -3.4885 2.8395
4.1078 -3.4634 2.8395
4.1663 -3.4378 2.8395
4.2251 -3.4118 2.8395
4.2840 -3.3853 2.8395
4.3433 -3.3583 2.8395
4.4027 -3.3308 2.8395
4.4625 -3.3028 2.8395
4.5225 -3.2743 2.8395
4.5827 -3.2453 2.8395
4.6433 -3.2158 2.8395
4.7041 -3.1857 2.8395
4.7440 -3.1410 2.8269
4.7501 -3.0745 2.7946
4.7562 -3.0087 2.7628
-1.8643 -3.7249 2.8395
-1.8169 -3.7358 2.8395
-1.7695 -3.7463 2.8395
-1.7222 -3.7566 2.8395
-1.6750 -3.7666 2.8395
-1.6278 -3.7763 2.8395
-1.5807 -3.7856 2.8395
-1.5337 -3.7947 2.8395
-1.4867 -3.8036 2.8395
-1.4398 -3.8121 2.8395
-1.3929 -3.8203 2.8395
-1.3461 -3.8282 2.8395
-1.2993 -3.8359 2.8395
-1.2526 -3.8433 2.8395
-1.2059 -3.8504 2.8395
-1.1593 -3.8573 2.8395
-1.1127 -3.8638 2.8395
-1.0661 -3.8701 2.8395
-0.9230 -3.5086 2.5703
-0.8796 -3.5086 2.5665
-0.8365 -3.5086 2.5629
-0.7935 -3.5086 2.5595
-0.7508 -3.5086 2.5563
-0.7082 -3.5086 2.5532
-0.6659 -3.5087 2.5504
-0.6237 -3.5087 2.5477
-0.5816 -3.5087 2.5452
-0.5397 -3.5087 2.5429
-0.4979 -3.5087 2.5408
-0.4562 -3.5087 2.5388
-0.4146 -3.5087 2.5370
-0.3732 -3.5087 2.5354
-0.3318 -3.5087 2.5339
-0.2905 -3.5087 2.5326
-0.2493 -3.5087 2.5315
-0.2081 -3.5087 2.5306
-0.1670 -3.5087 2.5298
-0.1259 -3.5087 2.5292
-0.0849 -3.5087 2.5288
-0.0438 -3.5087 2.5285
-0.0028 -3.5087 2.5284
0.0382 -3.5087 2.5285
0.0792 -3.5087 2.5288
0.1203 -3.5087 2.5292
0.1613 -3.5087 2.5297
0.2024 -3.5087 2.5305
0.2436 -3.5087 2.5314
0.2848 -3.5087 2.5325
0.3261 -3.5087 2.5338
0.3675 -3.5087 2.5352
0.4089 -3.5087 2.5368
0.4505 -3.5087 2.5385
0.4921 -3.5087 2.5405
0.5339 -3.5087 2.5426
0.5758 -3.5087 2.5449
0.6178 -3.5087 2.5474
0.6600 -3.5087 2.5500
0.7024 -3.5087 2.5529
0.7449 -3.5087 2.5559
0.7876 -3.5087 2.5591
0.8305 -3.5087 2.5625
0.8736 -3.5087 2.5660
0.9170 -3.5086 2.5698
1.0597 -3.8709 2.8395
1.1063 -3.8647 2.8395
1.1528 -3.8582 2.8395
1.1995 -3.8514 2.8395
1.2461 -3.8443 2.8395
1.2928 -3.8370 2.8395
1.3396 -3.8293 2.8395
1.3864 -3.8214 2.8395
1.4333 -3.8132 2.8395
1.4802 -3.8047 2.8395
1.5272 -3.7960 2.8395
1.5742 -3.7869 2.8395
1.6213 -3.7775 2.8395
1.6685 -3.7679 2.8395
1.7157 -3.7580 2.8395
1.7630 -3.7478 2.8395
1.8103 -3.7373 2.8395
1.8578 -3.7264 2.8395
1.9052 -3.7153 2.8395
1.9528 -3.7039 2.8395
2.0005 -3.6922 2.8395
2.0482 -3.6801 2.8395
2.0960 -3.6678 2.8395
2.1438 -3.6551 2.8395
2.1918 -3.6421 2.8395
2.2398 -3.6288 2.8395
2.2880 -3.6153 2.8395
2.3362 -3.6013 2.8395
2.3845 -3.5871 2.8395
2.4329 -3.5725 2.8395
2.4814 -3.5576 2.8395
2.5300 -3.5423 2.8395
2.5787 -3.5267 2.8395
2.6274 -3.5108 2.8395
2.6763 -3.4946 2.8395
2.7253 -3.4780 2.8395
2.7744 -3.4610 2.8395
2.8236 -3.4437 2.8395
2.8730 -3.4261 2.8395
2.9224 -3.4081 2.8395
2.9719 -3.3897 2.8395
3.0216 -3.3710 2.8395
3.0714 -3.3519 2.8395
3.1213 -3.3324 2.8395
3.1713 -3.3125 2.8395
3.2214 -3.2923 2.8395
3.2717 -3.2717 2.8395
3.3221 -3.2507 2.8395
3.3727 -3.2293 2.8395
3.4233 -3.2075 2.8395
3.4741 -3.1852 2.8395
3.5251 -3.1626 2.8395
3.5762 -3.1396 2.8395
3.6274 -3.1162 2.8395
3.6788 -3.0924 2.8395
3.7303 -3.0681 2.8395
3.7820 -3.0434 2.8395
3.8338 -3.0183 2.8395
3.8858 -2.9927 2.8395
3.9379 -2.9666 2.8395
3.9902 -2.9402 2.8395
4.0426 -2.9132 2.8395
4.0953 -2.8858 2.8395
4.1480 -2.8579 2.8395
4.2010 -2.8296 2.8395
4.2541 -2.8007 2.8395
4.3074 -2.7714 2.8395
4.3609 -2.7417 2.8395
4.4145 -2.7113 2.8395
-1.7176 -3.3657 2.8395
-1.6741 -3.3763 2.8395
-1.6307 -3.3866 2.8395
-1.5873 -3.3967 2.8395
-1.5440 -3.4065 2.8395
-1.5007 -3.4159 2.8395
-1.4575 -3.4251 2.8395
-1.4143 -3.4340 2.8395
-1.3711 -3.4427 2.8395
-1.3280 -3.4510 2.8395
-1.2849 -3.4591 2.8395
-1.2418 -3.4668 2.8395
-1.1988 -3.4744 2.8395
-1.1558 -3.4816 2.8395
-1.1128 -3.4886 2.8395
-1.0699 -3.4953 2.8395
-1.0270 -3.5018 2.8395
-0.9841 -3.5079 2.8395
-0.9413 -3.5138 2.8395
-0.8984 -3.5194 2.8395
-0.8556 -3.5248 2.8395
-0.8129 -3.5299 2.8395
-0.7701 -3.5347 2.8395
-0.7274 -3.5392 2.8395
-0.6847 -3.5436 2.8395
-0.6420 -3.5476 2.8395
-0.5993 -3.5514 2.8395
-0.5566 -3.5549 2.8395
-0.5140 -3.5581 2.8395
-0.4713 -3.5611 2.8395
-0.4287 -3.5639 2.8395
-0.3861 -3.5663 2.8395
-0.3435 -3.5686 2.8395
-0.3009 -3.5705 2.8395
-0.2583 -3.5722 2.8395
-0.2158 -3.5736 2.8395
-0.1732 -3.5748 2.8395
-0.1306 -3.5757 2.8395
-0.0881 -3.5764 2.8395
-0.0455 -3.5768 2.8395
-0.0029 -3.5770 2.8395
0.0396 -3.5769 2.8395
0.0822 -3.5765 2.8395
0.1247 -3.5759 2.8395
0.1673 -3.5750 2.8395
0.2099 -3.5738 2.8395
0.2525 -3.5724 2.8395
0.2950 -3.5708 2.8395
0.3376 -3.5688 2.8395
0.3802 -3.5667 2.8395
0.4228 -3.5642 2.8395
0.4655 -3.5615 2.8395
0.5081 -3.5586 2.8395
0.5507 -3.5553 2.8395
0.5934 -3.5519 2.8395
0.6361 -3.5481 2.8395
0.6788 -3.5441 2.8395
0.7215 -3.5399 2.8395
0.7642 -3.5353 2.8395
0.8070 -3.5305 2.8395
0.8497 -3.5255 2.8395
0.8925 -3.5202 2.8395
0.9354 -3.5146 2.8395
0.9782 -3.5087 2.8395
1.0211 -3.5026 2.8395
1.0640 -3.4962 2.8395
1.1069 -3.4895 2.8395
1.1499 -3.4826 2.8395
1.1929 -3.4754 2.8395
1.2359 -3.4679 2.8395
1.2789 -3.4602 2.8395
1.3220 -3.4521 2.8395
1.3651 -3.4438 2.8395
1.4083 -3.4352 2.8395
1.4515 -3.4264 2.8395
1.4947 -3.4172 2.8395
1.5380 -3.4078 2.8395
1.5813 -3.3981 2.8395
1.6247 -3.3881 2.8395
1.6681 -3.3778 2.8395
1.7116 -3.3672 2.8395
1.7550 -3.3563 2.8395
1.7986 -3.3452 2.8395
1.8422 -3.3337 2.8395
1.8858 -3.3219 2.8395
1.9295 -3.3099 2.8395
1.9732 -3.2976 2.8395
2.0170 -3.2849 2.8395
2.0609 -3.2720 2.8395
2.1048 -3.2587 2.8395
2.1487 -3.2451 2.8395
2.1928 -3.2312 2.8395
2.2368 -3.2171 2.8395
2.2810 -3.2025 2.8395
2.3252 -3.1877 2.8395
2.3694 -3.1725 2.8395
2.4137 -3.1571 2.8395
2.4581 -3.1413 2.8395
2.5026 -3.1252 2.8395
2.5471 -3.1087 2.8395
2.5916 -3.0920 2.8395
2.6363 -3.0748 2.8395
2.7707 -3.0214 2.8395
2.6810 -3.0574 2.8395
2.8156 -3.0029 2.8395
2.7258 -3.0395 2.8395
2.8606 -2.9841 2.8395
2.9508 -2.9453 2.8395
2.9057 -2.9649 2.8395
2.9961 -2.9254 2.8395
3.1322 -2.8635 2.8395
3.0414 -2.9051 2.8395
3.0868 -2.8845 2.8395
3.1778 -2.8421 2.8395
3.2234 -2.8203 2.8395
3.3149 -2.7756 2.8395
3.3608 -2.7527 2.8395
3.2691 -2.7981 2.8395
3.4068 -2.7293 2.8395
3.4990 -2.6815 2.8395
3.4528 -2.7056 2.8395
3.5452 -2.6570 2.8395
3.6845 -2.5809 2.8395
3.5916 -2.6320 2.8395
3.7311 -2.5547 2.8395
3.6380 -2.6067 2.8395
3.7778 -2.5281 2.8395
3.8246 -2.5009 2.8395
3.8715 -2.4735 2.8395
3.9185 -2.4455 2.8395
3.9656 -2.4171 2.8395
4.0127 -2.3883 2.8395
-1.5878 -3.0481 2.8395
-1.5478 -3.0584 2.8395
-1.5079 -3.0684 2.8395
-1.4679 -3.0782 2.8395
-1.4280 -3.0877 2.8395
-1.3882 -3.0969 2.8395
-1.3483 -3.1058 2.8395
-1.3085 -3.1145 2.8395
-1.2687 -3.1229 2.8395
-1.2289 -3.1310 2.8395
-1.1891 -3.1389 2.8395
-1.1494 -3.1465 2.8395
-1.1097 -3.1538 2.8395
-1.0700 -3.1608 2.8395
-1.0303 -3.1676 2.8395
-0.9906 -3.1742 2.8395
-0.9510 -3.1804 2.8395
-0.9113 -3.1864 2.8395
-0.8717 -3.1922 2.8395
-0.8321 -3.1977 2.8395
-0.7925 -3.2029 2.8395
-0.7529 -3.2079 2.8395
-0.7134 -3.2126 2.8395
-0.6738 -3.2170 2.8395
-0.6343 -3.2212 2.8395
-0.5948 -3.2252 2.8395
-0.5553 -3.2288 2.8395
-0.5157 -3.2322 2.8395
-0.4762 -3.2354 2.8395
-0.4368 -3.2384 2.8395
-0.3973 -3.2410 2.8395
-0.3578 -3.2434 2.8395
-0.3183 -3.2456 2.8395
-0.2789 -3.2475 2.8395
-0.2394 -3.2491 2.8395
-0.2000 -3.2506 2.8395
-0.1605 -3.2517 2.8395
-0.1211 -3.2526 2.8395
-0.0816 -3.2533 2.8395
-0.0422 -3.2537 2.8395
-0.0027 -3.2538 2.8395
0.0367 -3.2537 2.8395
0.0762 -3.2533 2.8395
0.1156 -3.2527 2.8395
0.1551 -3.2519 2.8395
0.1945 -3.2507 2.8395
0.2340 -3.2494 2.8395
0.2734 -3.2478 2.8395
0.3129 -3.2459 2.8395
0.3524 -3.2438 2.8395
0.3918 -3.2414 2.8395
0.4313 -3.2387 2.8395
0.4708 -3.2359 2.8395
0.5103 -3.2327 2.8395
0.5498 -3.2293 2.8395
0.5893 -3.2257 2.8395
0.6288 -3.2218 2.8395
0.6684 -3.2176 2.8395
0.7079 -3.2132 2.8395
0.7475 -3.2085 2.8395
0.7871 -3.2036 2.8395
0.8266 -3.1984 2.8395
0.8662 -3.1930 2.8395
0.9059 -3.1872 2.8395
0.9455 -3.1813 2.8395
0.9851 -3.1751 2.8395
1.0248 -3.1685 2.8395
1.0645 -3.1618 2.8395
1.1042 -3.1548 2.8395
1.1439 -3.1475 2.8395
1.1836 -3.1399 2.8395
1.2234 -3.1321 2.8395
1.2632 -3.1240 2.8395
1.3030 -3.1157 2.8395
1.3428 -3.1070 2.8395
1.3827 -3.0982 2.8395
1.4225 -3.0890 2.8395
1.4624 -3.0795 2.8395
1.5023 -3.0698 2.8395
1.5423 -3.0598 2.8395
1.5823 -3.0495 2.8395
1.6223 -3.0390 2.8395
1.6623 -3.0281 2.8395
1.7023 -3.0170 2.8395
1.7424 -3.0056 2.8395
1.7825 -2.9939 2.8395
1.8226 -2.9819 2.8395
1.8628 -2.9697 2.8395
1.9030 -2.9571 2.8395
1.9432 -2.9442 2.8395
1.9835 -2.9311 2.8395
2.0238 -2.9177 2.8395
2.0641 -2.9039 2.8395
2.1045 -2.8899 2.8395
2.1449 -2.8755 2.8395
2.1853 -2.8609 2.8395
2.2257 -2.8459 2.8395
2.2662 -2.8307 2.8395
2.3068 -2.8151 2.8395
2.3473 -2.7992 2.8395
2.3879 -2.7830 2.8395
2.5507 -2.7150 2.8395
2.4286 -2.7665 2.8395
2.5915 -2.6972 2.8395
2.4692 -2.7497 2.8395
2.6323 -2.6791 2.8395
2.5099 -2.7325 2.8395
2.6732 -2.6606 2.8395
2.7141 -2.6417 2.8395
2.8781 -2.5631 2.8395
2.7550 -2.6226 2.8395
2.9192 -2.5426 2.8395
2.7960 -2.6031 2.8395
2.9603 -2.5217 2.8395
2.8370 -2.5833 2.8395
3.0015 -2.5005 2.8395
3.0428 -2.4789 2.8395
3.2081 -2.3889 2.8395
3.0840 -2.4569 2.8395
3.2495 -2.3654 2.8395
3.1253 -2.4346 2.8395
3.2910 -2.3416 2.8395
3.1667 -2.4119 2.8395
3.3325 -2.3174 2.8395
3.3741 -2.2928 2.8395
3.4157 -2.2679 2.8395
3.4574 -2.2425 2.8395
3.4991 -2.2167 2.8395
3.5408 -2.1906 2.8395
3.5826 -2.1641 2.8395
3.6244 -2.1371 2.8395
3.6663 -2.1097 2.8395
-1.4717 -2.7640 2.8395
-1.4348 -2.7740 2.8395
-1.3979 -2.7837 2.8395
-1.3611 -2.7931 2.8395
-1.3242 -2.8023 2.8395
-1.2874 -2.8112 2.8395
-1.2506 -2.8199 2.8395
-1.2137 -2.8283 2.8395
-1.1769 -2.8364 2.8395
-1.1401 -2.8443 2.8395
-1.1033 -2.8519 2.8395
-1.0665 -2.8592 2.8395
-1.0298 -2.8663 2.8395
-0.9930 -2.8732 2.8395
-0.9562 -2.8798 2.8395
-0.9195 -2.8861 2.8395
-0.8827 -2.8922 2.8395
-0.8460 -2.8980 2.8395
-0.8093 -2.9036 2.8395
-0.7726 -2.9089 2.8395
-0.7359 -2.9139 2.8395
-0.6991 -2.9188 2.8395
-0.6624 -2.9233 2.8395
-0.6258 -2.9277 2.8395
-0.5891 -2.9317 2.8395
-0.5524 -2.9356 2.8395
-0.5157 -2.9391 2.8395
-0.4790 -2.9425 2.8395
-0.4424 -2.9455 2.8395
-0.4057 -2.9484 2.8395
-0.3690 -2.9510 2.8395
-0.3324 -2.9533 2.8395
-0.2957 -2.9554 2.8395
-0.2591 -2.9573 2.8395
-0.2224 -2.9589 2.8395
-0.1858 -2.9602 2.8395
-0.1491 -2.9614 2.8395
-0.1125 -2.9622 2.8395
-0.0758 -2.9629 2.8395
-0.0392 -2.9633 2.8395
-0.0025 -2.9634 2.8395
0.0341 -2.9633 2.8395
0.0708 -2.9629 2.8395
0.1074 -2.9623 2.8395
0.1441 -2.9615 2.8395
0.1807 -2.9604 2.8395
0.2173 -2.9591 2.8395
0.2540 -2.9575 2.8395
0.2907 -2.9557 2.8395
0.3273 -2.9536 2.8395
0.3640 -2.9513 2.8395
0.4006 -2.9488 2.8395
0.4373 -2.9460 2.8395
0.4740 -2.9429 2.8395
0.5106 -2.9396 2.8395
0.5473 -2.9361 2.8395
0.5840 -2.9323 2.8395
0.6207 -2.9282 2.8395
0.6574 -2.9240 2.8395
0.6941 -2.9194 2.8395
0.7308 -2.9147 2.8395
0.7675 -2.9096 2.8395
0.8042 -2.9043 2.8395
0.8409 -2.8988 2.8395
0.8777 -2.8930 2.8395
0.9144 -2.8870 2.8395
0.9512 -2.8807 2.8395
0.9879 -2.8741 2.8395
1.0247 -2.8673 2.8395
1.0615 -2.8602 2.8395
1.0982 -2.8529 2.8395
1.1718 -2.8375 2.8395
1.1350 -2.8453 2.8395
1.3191 -2.8036 2.8395
1.2087 -2.8294 2.8395
1.3560 -2.7944 2.8395
1.2455 -2.8211 2.8395
1.3929 -2.7850 2.8395
1.2823 -2.8124 2.8395
1.4297 -2.7753 2.8395
1.4666 -2.7654 2.8395
1.6143 -2.7229 2.8395
1.5035 -2.7552 2.8395
1.6512 -2.7117 2.8395
1.5404 -2.7447 2.8395
1.6882 -2.7001 2.8395
1.5773 -2.7339 2.8395
1.7251 -2.6883 2.8395
1.7621 -2.6761 2.8395
1.9102 -2.6248 2.8395
1.7991 -2.6637 2.8395
1.9472 -2.6113 2.8395
1.8361 -2.6510 2.8395
1.9843 -2.5975 2.8395
1.8731 -2.6381 2.8395
2.0213 -2.5834 2.8395
2.0584 -2.5690 2.8395
2.0955 -2.5543 2.8395
2.2069 -2.5085 2.8395
2.1326 -2.5393 2.8395
2.1697 -2.5240 2.8395
2.2440 -2.4926 2.8395
2.3555 -2.4431 2.8395
2.2812 -2.4764 2.8395
2.3927 -2.4260 2.8395
2.3183 -2.4599 2.8395
2.4299 -2.4086 2.8395
2.4671 -2.3909 2.8395
2.5044 -2.3729 2.8395
2.6534 -2.2976 2.8395
2.5416 -2.3545 2.8395
2.6907 -2.2779 2.8395
2.5789 -2.3359 2.8395
2.7280 -2.2580 2.8395
2.7653 -2.2377 2.8395
2.6161 -2.3169 2.8395
2.8026 -2.2171 2.8395
2.9519 -2.1312 2.8395
2.8399 -2.1961 2.8395
2.9893 -2.1089 2.8395
2.8773 -2.1748 2.8395
2.9146 -2.1532 2.8395
3.0267 -2.0862 2.8395
3.1014 -2.0398 2.8395
3.0640 -2.0632 2.8395
3.1388 -2.0161 2.8395
3.1762 -1.9920 2.8395
3.2510 -1.9427 2.8395
3.2136 -1.9675 2.8395
3.2884 -1.9175 2.8395
3.3258 -1.8919 2.8395
3.3632 -1.8660 2.8395
-1.3669 -2.5074 2.8395
-1.3327 -2.5170 2.8395
-1.2986 -2.5264 2.8395
-1.2645 -2.5355 2.8395
-1.2304 -2.5443 2.8395
-1.1963 -2.5529 2.8395
-1.1621 -2.5612 2.8395
-1.1280 -2.5694 2.8395
-1.0939 -2.5772 2.8395
-1.0598 -2.5848 2.8395
-1.0257 -2.5921 2.8395
-0.9915 -2.5993 2.8395
-0.9574 -2.6061 2.8395
-0.9233 -2.6127 2.8395
-0.8892 -2.6191 2.8395
-0.8551 -2.6252 2.8395
-0.8210 -2.6310 2.8395
-0.7868 -2.6367 2.8395
-0.7527 -2.6421 2.8395
-0.7186 -2.6472 2.8395
-0.6845 -2.6521 2.8395
-0.6504 -2.6568 2.8395
-0.6163 -2.6612 2.8395
-0.5822 -2.6654 2.8395
-0.5481 -2.6693 2.8395
-0.5139 -2.6730 2.8395
-0.4798 -2.6765 2.8395
-0.4457 -2.6797 2.8395
-0.4116 -2.6826 2.8395
-0.3775 -2.6854 2.8395
-0.3434 -2.6879 2.8395
-0.3093 -2.6902 2.8395
-0.2752 -2.6922 2.8395
-0.2411 -2.6940 2.8395
-0.2070 -2.6955 2.8395
-0.1729 -2.6969 2.8395
-0.1388 -2.6979 2.8395
-0.1047 -2.6988 2.8395
-0.0024 -2.6999 2.8395
-0.0706 -2.6994 2.8395
0.0318 -2.6998 2.8395
-0.0365 -2.6997 2.8395
0.0659 -2.6995 2.8395
0.1341 -2.6981 2.8395
0.1000 -2.6989 2.8395
0.2705 -2.6925 2.8395
0.1682 -2.6970 2.8395
0.3046 -2.6904 2.8395
0.2023 -2.6957 2.8395
0.3387 -2.6882 2.8395
0.2364 -2.6942 2.8395
0.3728 -2.6857 2.8395
0.4069 -2.6831 2.8395
0.5433 -2.6698 2.8395
0.5775 -2.6659 2.8395
0.4410 -2.6801 2.8395
0.6116 -2.6618 2.8395
0.4751 -2.6769 2.8395
0.6457 -2.6574 2.8395
0.5092 -2.6735 2.8395
0.6798 -2.6528 2.8395
0.7139 -2.6479 2.8395
0.8162 -2.6318 2.8395
0.7480 -2.6428 2.8395
0.8504 -2.6260 2.8395
0.7821 -2.6374 2.8395
0.8845 -2.6199 2.8395
1.0892 -2.5783 2.8395
0.9186 -2.6136 2.8395
0.9527 -2.6070 2.8395
1.1233 -2.5704 2.8395
1.1574 -2.5624 2.8395
0.9868 -2.6002 2.8395
1.2257 -2.5455 2.8395
1.1915 -2.5541 2.8395
1.3622 -2.5087 2.8395
1.4986 -2.4678 2.8395
1.2598 -2.5367 2.8395
1.0209 -2.5931 2.8395
1.6351 -2.4228 2.8395
1.3963 -2.4989 2.8395
1.6692 -2.4108 2.8395
1.0551 -2.5858 2.8395
1.2939 -2.5276 2.8395
1.5327 -2.4570 2.8395
1.4304 -2.4888 2.8395
1.7033 -2.3987 2.8395
1.3280 -2.5183 2.8395
1.5669 -2.4459 2.8395
1.4645 -2.4785 2.8395
1.7374 -2.3862 2.8395
1.7715 -2.3735 2.8395
1.9079 -2.3199 2.8395
2.1804 -2.1992 2.8395
2.0442 -2.2618 2.8395
1.6010 -2.4344 2.8395
1.8056 -2.3605 2.8395
1.9420 -2.3058 2.8395
2.2145 -2.1829 2.8395
2.0783 -2.2466 2.8395
2.3165 -2.1321 2.8395
2.2485 -2.1662 2.8395
1.8397 -2.3472 2.8395
1.9761 -2.2914 2.8395
2.1123 -2.2311 2.8395
2.3505 -2.1145 2.8395
2.2825 -2.1493 2.8395
2.0101 -2.2767 2.8395
1.8738 -2.3337 2.8395
2.4525 -2.0602 2.8395
2.1464 -2.2153 2.8395
2.3845 -2.0967 2.8395
2.5882 -1.9834 2.8395
2.7237 -1.9016 2.8395
2.4864 -2.0414 2.8395
2.8590 -1.8148 2.8395
2.4185 -2.0786 2.8395
2.5204 -2.0224 2.8395
2.6221 -1.9634 2.8395
2.7576 -1.8804 2.8395
2.8927 -1.7923 2.8395
2.5543 -2.0031 2.8395
2.6560 -1.9432 2.8395
2.7914 -1.8589 2.8395
2.9264 -1.7695 2.8395
2.6899 -1.9226 2.8395
2.8252 -1.8370 2.8395
2.9601 -1.7463 2.8395
2.9938 -1.7227 2.8395
3.0275 -1.6989 2.8395
3.0611 -1.6747 2.8395
3.0947 -1.6501 2.8395
