ply
format ascii 1.0
element vertex 2058
property float32 x
property float32 y
property float32 z
end_header
-6.9049 2.8324 -1.4814
-6.9636 2.7768 -1.4676
-6.9496 2.6925 -1.4386
-6.9358 2.6091 -1.4100
-7.1555 2.6120 -1.4284
-7.2201 2.5557 -1.4150
-6.3810 2.1886 -1.2276
-6.8017 2.2588 -1.2843
-7.3047 2.3469 -1.3536
-7.2932 2.2648 -1.3260
-7.2819 2.1836 -1.2987
-7.2707 2.1032 -1.2718
-7.2043 2.0081 -1.2357
-7.2487 1.9446 -1.2189
-7.2380 1.8664 -1.1930
-6.8207 1.6882 -1.1016
-7.4837 1.7753 -1.1841
-6.9542 1.5785 -1.0777
-6.8957 1.4949 -1.0463
-6.8384 1.4132 -1.0157
-6.7823 1.3331 -0.9857
-6.7274 1.2547 -0.9565
-6.6736 1.1779 -0.9279
-6.6209 1.1026 -0.8999
-6.7501 1.0571 -0.8966
-6.6664 0.9780 -0.8649
-6.5851 0.9012 -0.8342
-7.3195 0.9297 -0.9050
-7.2796 0.8533 -0.8780
-7.2403 0.7779 -0.8515
-7.2014 0.7035 -0.8254
-7.1630 0.6300 -0.7997
-40.1982 3.1454 -4.3687
-40.1141 2.7500 -4.2414
-40.0308 2.3570 -4.1152
-39.9483 1.9662 -3.9900
-39.8664 1.5775 -3.8659
-39.7853 1.1908 -3.7428
-39.7048 0.8061 -3.6207
-39.6249 0.4231 -3.4995
-39.5457 0.0418 -3.3792
-39.4671 -0.3378 -3.2597
-39.3890 -0.7159 -3.1412
-39.3115 -1.0926 -3.0234
-39.2346 -1.4679 -2.9064
-38.7847 -1.8245 -2.7635
-38.7911 -2.1984 -2.6547
-39.1315 -2.5950 -2.5680
-39.2910 -2.9849 -2.4682
-39.2210 -3.3586 -2.3539
-39.3041 -3.7463 -2.2489
-39.3107 -4.1281 -2.1395
-39.3172 -4.5109 -2.0301
-39.1706 -4.8755 -1.9133
-30.2137 -4.0556 -1.3917
-39.1838 -5.6431 -1.6957
-39.4086 -6.0622 -1.5957
-21.5991 -7.5246 0.2805
-21.5998 -7.7589 0.3429
-21.6030 -8.7140 0.5953
-21.6006 -7.9949 0.4056
-21.6038 -8.9576 0.6591
-21.6014 -8.2327 0.4685
-21.6047 -9.2032 0.7234
-21.6022 -8.4724 0.5317
-21.6055 -9.4511 0.7879
-21.6072 -9.9534 0.9182
-21.6063 -9.7011 0.8529
-21.6080 -10.2081 0.9840
-21.5359 -11.2131 1.2472
-21.6089 -10.4652 1.0502
-21.6098 -10.7250 1.1168
-21.5285 -11.4756 1.3146
-21.6106 -10.9873 1.1839
-21.5294 -11.7455 1.3830
-21.6245 -12.6274 1.5984
-21.6226 -12.0698 1.4581
-21.6254 -12.9113 1.6695
-21.6235 -12.3470 1.5280
-21.6264 -13.1985 1.7413
-21.6274 -13.4894 1.8137
-21.6294 -14.0825 1.9607
-21.6283 -13.7840 1.8869
-21.6304 -14.3850 2.0354
-21.6346 -15.6380 2.3424
-21.6314 -14.6917 2.1109
-21.6357 -15.9628 2.4214
-21.6324 -15.0026 2.1872
-21.6368 -16.2926 2.5014
-21.6335 -15.3180 2.2643
-21.1650 -16.9332 2.6873
-21.5530 -16.5622 2.5723
-20.5362 -16.7627 2.6873
-21.8243 -17.1129 2.6873
-19.9357 -16.6007 2.6873
-19.3214 -17.0772 2.8397
-18.7869 -16.9365 2.8397
-7.2737 -6.1788 1.0096
-18.2734 -16.8023 2.8397
-19.6782 -17.0513 2.8111
-17.7796 -16.6740 2.8397
-17.3042 -16.5514 2.8397
-16.8461 -16.4342 2.8397
-14.7814 -15.9173 2.8397
-16.4043 -16.3219 2.8397
-14.4077 -15.8261 2.8397
-15.9777 -16.2143 2.8397
-14.0456 -15.7385 2.8397
-15.5656 -16.1112 2.8397
-13.6943 -15.6543 2.8397
-15.1671 -16.0123 2.8397
-13.3533 -15.5733 2.8397
-13.0220 -15.4954 2.8397
-11.4952 -15.1467 2.8397
-12.6999 -15.4203 2.8397
-11.2129 -15.0843 2.8397
-12.3866 -15.3481 2.8397
-10.9375 -15.0242 2.8397
-12.0817 -15.2784 2.8397
-10.6685 -14.9662 2.8397
-11.7847 -15.2114 2.8397
-10.4058 -14.9102 2.8397
-8.4652 -13.8282 2.6873
-10.1491 -14.8561 2.8397
-8.2509 -13.7867 2.6873
-9.8980 -14.8039 2.8397
-8.0408 -13.7466 2.6873
-9.1342 -13.9617 2.6873
-7.8346 -13.7078 2.6873
-8.9066 -13.9157 2.6873
-7.6322 -13.6704 2.6873
-8.6836 -13.8712 2.6873
-7.4333 -13.6342 2.6873
-7.2379 -13.5992 2.6873
-7.0458 -13.5655 2.6873
-6.8568 -13.5329 2.6873
-6.6708 -13.5013 2.6873
-6.4878 -13.4709 2.6873
-6.3075 -13.4415 2.6873
-6.1299 -13.4131 2.6873
-5.9548 -13.3857 2.6873
-6.0036 3.2022 -1.1965
-5.5733 2.9026 -1.0888
-5.7303 2.9130 -1.0971
-5.8945 2.9239 -1.1058
-6.0499 2.9273 -1.1119
-6.1878 2.9194 -1.1139
-6.3479 2.9191 -1.1191
-6.5569 2.9377 -1.1317
-6.6576 2.9049 -1.1248
-6.7762 2.8780 -1.1204
-6.9418 2.8685 -1.1230
-7.1135 2.8583 -1.1256
-7.2659 2.8374 -1.1242
-7.2307 2.7427 -1.0937
-7.1962 2.6495 -1.0637
-7.1622 2.5580 -1.0343
-7.1289 2.4680 -1.0054
-7.0961 2.3796 -0.9770
-7.0638 2.2925 -0.9491
-6.6764 2.0952 -0.8750
-7.2961 2.2120 -0.9324
-7.0987 2.0771 -0.8841
-7.5202 2.1214 -0.9124
-7.5483 2.0504 -0.8916
-6.9904 1.8263 -0.8035
-6.9308 1.7391 -0.7748
-6.8725 1.6538 -0.7468
-6.8155 1.5705 -0.7194
-6.7597 1.4888 -0.6926
-6.7051 1.4089 -0.6663
-6.6516 1.3306 -0.6407
-6.7626 1.2850 -0.6308
-6.6782 1.2022 -0.6027
-6.5963 1.1218 -0.5755
-6.5166 1.0436 -0.5490
-7.3257 1.1007 -0.5953
-7.2856 1.0229 -0.5704
-7.2461 0.9462 -0.5459
-7.2072 0.8705 -0.5218
-7.1688 0.7958 -0.4980
-7.1308 0.7221 -0.4745
-39.0257 3.5725 -2.4833
-39.0322 3.1943 -2.3704
-39.0386 2.8167 -2.2579
-39.0451 2.4395 -2.1457
-39.0516 2.0627 -2.0337
-39.0580 1.6863 -1.9220
-39.0645 1.3101 -1.8105
-39.0709 0.9341 -1.6991
-39.0774 0.5582 -1.5880
-39.0838 0.1823 -1.4770
-39.0903 -0.1936 -1.3661
-39.0967 -0.5696 -1.2554
-39.1032 -0.9459 -1.1447
-37.8719 -1.2806 -1.0014
-39.2691 -1.7059 -0.9272
-37.8824 -2.0108 -0.7872
-37.8887 -2.3766 -0.6802
-39.2886 -2.8439 -0.5942
-39.2186 -3.2181 -0.4821
-37.8421 -3.4717 -0.3581
-37.8985 -3.8447 -0.2514
-38.4790 -4.2778 -0.1462
-39.1682 -4.7362 -0.0377
-30.2422 -3.9523 0.0567
-30.0882 -4.2269 0.1420
-39.2386 -5.8979 0.2969
-21.5894 -3.6712 0.2866
-21.5901 -3.8855 0.3485
-21.5908 -4.1006 0.4105
-21.5915 -4.3165 0.4726
-21.5923 -4.5333 0.5349
-21.5930 -4.7511 0.5975
-21.5937 -4.9698 0.6602
-21.5945 -5.1897 0.7231
-21.5952 -5.4106 0.7863
-21.5959 -5.6326 0.8498
-21.5967 -5.8559 0.9134
-21.5097 -6.0557 0.9735
-21.5104 -6.2806 1.0374
-21.5151 -6.5081 1.1019
-21.5958 -6.7608 1.1709
-21.5966 -6.9909 1.2361
-21.5973 -7.2226 1.3017
-21.5981 -7.4558 1.3677
-21.5989 -7.6908 1.4340
-21.5997 -7.9274 1.5008
-21.6005 -8.1659 1.5679
-21.6013 -8.4062 1.6356
-21.6021 -8.6486 1.7037
-21.6029 -8.8929 1.7722
-21.6037 -9.1394 1.8413
-21.6046 -9.3880 1.9109
-21.6054 -9.6389 1.9810
-21.6062 -9.8921 2.0517
-21.6071 -10.1477 2.1230
-21.6080 -10.4058 2.1949
-21.6088 -10.6666 2.2675
-21.6097 -10.9300 2.3407
-21.6040 -11.1928 2.4138
-21.5276 -11.4208 2.4795
-21.5285 -11.6918 2.5546
-21.9956 -12.2250 2.6873
-21.3735 -12.1541 2.6873
-20.7802 -12.0870 2.6873
-20.2129 -12.0231 2.6873
-19.6984 -11.9796 2.6912
-19.6767 -12.2320 2.7612
-19.6640 -12.4928 2.8333
-19.2017 -12.4651 2.8397
-18.7148 -12.4117 2.8397
-18.2462 -12.3606 2.8397
-17.7950 -12.3117 2.8397
-17.3599 -12.2649 2.8397
-16.9401 -12.2200 2.8397
-16.5347 -12.1768 2.8397
-16.1429 -12.1354 2.8397
-15.7639 -12.0956 2.8397
-15.3971 -12.0574 2.8397
-15.0417 -12.0206 2.8397
-14.6973 -11.9852 2.8397
-14.3630 -11.9511 2.8397
-7.2755 -6.1766 1.4716
-13.7235 -11.8866 2.8397
-13.4172 -11.8561 2.8397
-13.1193 -11.8267 2.8397
-12.8294 -11.7982 2.8397
-12.5471 -11.7708 2.8397
-12.2720 -11.7443 2.8397
-12.0038 -11.7187 2.8397
-11.7423 -11.6939 2.8397
-11.4870 -11.6700 2.8397
-11.2378 -11.6469 2.8397
-10.9943 -11.6245 2.8397
-10.7563 -11.6029 2.8397
-10.5236 -11.5819 2.8397
-10.2960 -11.5616 2.8397
-10.0731 -11.5419 2.8397
-9.8549 -11.5229 2.8397
-9.1237 -10.8870 2.6873
-8.9254 -10.8701 2.6873
-8.7310 -10.8537 2.6873
-8.5403 -10.8379 2.6873
-8.3532 -10.8225 2.6873
-8.1694 -10.8075 2.6873
-7.9890 -10.7930 2.6873
-7.8117 -10.7790 2.6873
-7.6374 -10.7654 2.6873
-7.4661 -10.7522 2.6873
-7.2976 -10.7395 2.6873
-7.1317 -10.7270 2.6873
-6.9685 -10.7150 2.6873
-6.8078 -10.7033 2.6873
-6.6494 -10.6920 2.6873
-6.4934 -10.6810 2.6873
-6.3396 -10.6704 2.6873
-6.1880 -10.6601 2.6873
-6.0384 -10.6500 2.6873
-5.8908 -10.6404 2.6873
-5.7451 -10.6309 2.6873
-5.7321 -10.8699 2.7500
-5.7216 -11.1231 2.8164
-5.6206 -11.2058 2.8397
-5.4740 -11.1971 2.8397
-5.3291 -11.1886 2.8397
-5.1859 -11.1803 2.8397
-5.0442 -11.1724 2.8397
-7.3325 3.6567 -0.9792
-7.3315 3.5672 -0.9533
-5.7873 2.7463 -0.7323
-5.9136 2.7359 -0.7280
-6.0440 2.7250 -0.7234
-6.1790 2.7138 -0.7186
-6.3189 2.7021 -0.7137
-6.4556 2.6866 -0.7077
-6.5383 2.6467 -0.6952
-6.6223 2.6061 -0.6825
-6.7077 2.5647 -0.6695
-6.7946 2.5226 -0.6563
-6.8831 2.4797 -0.6428
-7.0075 2.4480 -0.6322
-7.1782 2.4299 -0.6249
-7.1579 2.3459 -0.6007
-7.1039 2.2522 -0.5741
-7.1303 2.1849 -0.5541
-7.0276 2.0792 -0.5246
-6.9669 1.9882 -0.4987
-6.9076 1.8993 -0.4735
-6.8496 1.8123 -0.4488
-6.7929 1.7272 -0.4246
-6.7374 1.6440 -0.4010
-6.6831 1.5625 -0.3778
-6.7758 1.5154 -0.3629
-6.6908 1.4287 -0.3386
-6.6081 1.3446 -0.3150
-6.5279 1.2628 -0.2920
-7.2446 1.3292 -0.3029
-7.2072 1.2506 -0.2803
-7.1704 1.1732 -0.2581
-7.1340 1.0968 -0.2361
-7.0981 1.0214 -0.2144
-7.0627 0.9470 -0.1930
-37.6371 4.6782 -0.9205
-37.1671 4.2569 -0.8025
-37.3269 3.9117 -0.6991
-37.3331 3.5495 -0.5926
-37.4350 3.1961 -0.4875
-37.4412 2.8341 -0.3809
-39.0427 2.5779 -0.2862
-38.9957 2.1983 -0.1750
-39.0556 1.8250 -0.0643
-39.0621 1.4490 0.0465
-39.0686 1.0731 0.1574
-39.0750 0.6973 0.2683
-39.0814 0.3215 0.3793
-21.5796 -0.0300 0.2707
-21.5802 -0.2376 0.3320
-21.5809 -0.4452 0.3933
-21.5816 -0.6529 0.4547
-21.4956 -0.8574 0.5141
-21.4963 -1.0646 0.5754
-21.4999 -1.2723 0.6369
-21.5815 -1.4856 0.7011
-21.5822 -1.6946 0.7629
-21.5828 -1.9038 0.8249
-21.5835 -2.1135 0.8871
-21.5842 -2.3236 0.9494
-21.5849 -2.5342 1.0119
-21.5856 -2.7453 1.0746
-21.5863 -2.9571 1.1375
-21.5871 -3.1694 1.2005
-21.5878 -3.3825 1.2639
-21.5885 -3.5962 1.3274
-21.5892 -3.8108 1.3912
-21.5899 -4.0261 1.4553
-21.5906 -4.2423 1.5197
-21.5913 -4.4594 1.5843
-21.5921 -4.6775 1.6493
-21.5928 -4.8966 1.7146
-21.5935 -5.1168 1.7803
-21.5943 -5.3380 1.8463
-21.5950 -5.5605 1.9127
-21.5957 -5.7841 1.9795
-21.5087 -5.9846 2.0383
-21.5095 -6.2100 2.1057
-21.5141 -6.4379 2.1739
-21.5949 -6.6910 2.2505
-21.5956 -6.9216 2.3194
-21.5964 -7.1538 2.3889
-21.5972 -7.3876 2.4590
-21.5980 -7.6231 2.5295
-21.5988 -7.8604 2.6006
-21.7204 -8.1448 2.6873
-21.1491 -8.1664 2.6873
-20.6025 -8.1868 2.6873
-20.0791 -8.2063 2.6873
-19.6800 -8.2681 2.7014
-19.6672 -8.4895 2.7677
-19.6553 -8.7130 2.8348
-19.2190 -8.7454 2.8397
-18.7662 -8.7619 2.8397
-18.3299 -8.7776 2.8397
-17.9092 -8.7927 2.8397
-17.5031 -8.8073 2.8397
-17.1109 -8.8213 2.8397
-16.7318 -8.8347 2.8397
-16.3649 -8.8476 2.8397
-16.0098 -8.8600 2.8397
-15.6658 -8.8719 2.8397
-15.3322 -8.8835 2.8397
-15.0086 -8.8946 2.8397
-14.6945 -8.9053 2.8397
-14.3894 -8.9156 2.8397
-14.0928 -8.9256 2.8397
-13.8044 -8.9352 2.8397
-13.5237 -8.9445 2.8397
-13.2504 -8.9535 2.8397
-12.9842 -8.9622 2.8397
-12.7248 -8.9706 2.8397
-12.4718 -8.9787 2.8397
-12.2249 -8.9866 2.8397
-11.9839 -8.9943 2.8397
-11.7486 -9.0016 2.8397
-11.5186 -9.0088 2.8397
-11.2938 -9.0158 2.8397
-11.0740 -9.0225 2.8397
-10.8589 -9.0290 2.8397
-7.2769 -6.1745 1.9406
-10.4423 -9.0415 2.8397
-10.2403 -9.0474 2.8397
-10.0424 -9.0532 2.8397
-9.8484 -9.0588 2.8397
-9.1398 -8.5778 2.6873
-8.9631 -8.5828 2.6873
-8.7897 -8.5877 2.6873
-8.6194 -8.5925 2.6873
-8.4521 -8.5970 2.6873
-8.2878 -8.6015 2.6873
-8.1263 -8.6059 2.6873
-7.9675 -8.6101 2.6873
-7.8113 -8.6142 2.6873
-7.6576 -8.6182 2.6873
-7.5063 -8.6221 2.6873
-7.3574 -8.6259 2.6873
-7.2108 -8.6295 2.6873
-7.0663 -8.6331 2.6873
-6.9240 -8.6365 2.6873
-6.7836 -8.6399 2.6873
-6.6453 -8.6432 2.6873
-6.5088 -8.6464 2.6873
-6.3742 -8.6495 2.6873
-6.2413 -8.6525 2.6873
-6.1102 -8.6555 2.6873
-5.9807 -8.6583 2.6873
-5.8528 -8.6611 2.6873
-5.7369 -8.6797 2.6922
-5.7280 -8.8621 2.7479
-5.7189 -9.0499 2.8053
-5.6599 -9.1633 2.8397
-5.5324 -9.1658 2.8397
-5.4063 -9.1683 2.8397
-5.2815 -9.1707 2.8397
-5.1580 -9.1731 2.8397
-5.0357 -9.1754 2.8397
-4.9147 -9.1776 2.8397
-4.7948 -9.1797 2.8397
-4.6760 -9.1818 2.8397
-4.5583 -9.1838 2.8397
-4.4417 -9.1858 2.8397
-4.3261 -9.1877 2.8397
-4.2114 -9.1895 2.8397
-39.4304 25.3752 -4.6330
-40.2268 25.3356 -4.5823
-7.1366 3.3215 -0.5022
-7.1365 3.2377 -0.4796
-7.1364 3.1547 -0.4573
-6.6456 2.8611 -0.4051
-6.0367 2.5300 -0.3494
-6.1692 2.5156 -0.3381
-6.3064 2.5007 -0.3263
-6.4486 2.4853 -0.3141
-6.4251 2.4052 -0.2936
-6.5053 2.3638 -0.2777
-6.5869 2.3217 -0.2616
-6.6699 2.2789 -0.2450
-6.7543 2.2352 -0.2282
-6.8403 2.1907 -0.2109
-7.1505 2.2142 -0.1996
-7.1926 2.1515 -0.1798
-6.8267 1.9706 -0.1508
-6.7703 1.8839 -0.1299
-6.7150 1.7990 -0.1095
-6.7891 1.7490 -0.0911
-6.7033 1.6582 -0.0708
-6.6200 1.5702 -0.0510
-6.5391 1.4847 -0.0317
-7.1424 1.5496 -0.0143
-7.1061 1.4703 0.0060
-7.0703 1.3921 0.0260
-7.0350 1.3150 0.0458
-7.0002 1.2390 0.0653
-6.9658 1.1639 0.0846
-21.5675 3.3911 0.3228
-21.5682 3.1792 0.3836
-21.5689 2.9678 0.4443
-21.5696 2.7569 0.5049
-21.5703 2.5466 0.5656
-21.5710 2.3368 0.6262
-21.5717 2.1274 0.6869
-21.5724 1.9183 0.7476
-21.5731 1.7096 0.8083
-21.5738 1.5012 0.8690
-21.5745 1.2931 0.9298
-21.5752 1.0852 0.9907
-21.5759 0.8774 1.0517
-21.5766 0.6697 1.1128
-21.5773 0.4622 1.1739
-21.5779 0.2547 1.2352
-21.5786 0.0472 1.2966
-21.5793 -0.1604 1.3582
-21.5800 -0.3680 1.4199
-21.5807 -0.5758 1.4818
-21.4947 -0.7805 1.5377
-21.4954 -0.9878 1.5997
-21.4990 -1.1955 1.6621
-21.5805 -1.4087 1.7311
-21.5812 -1.6176 1.7940
-21.5819 -1.8270 1.8571
-21.5826 -2.0368 1.9205
-21.5833 -2.2470 1.9842
-21.5840 -2.4577 2.0482
-21.5847 -2.6691 2.1125
-21.5854 -2.8810 2.1771
-21.5861 -3.0935 2.2420
-21.5868 -3.3067 2.3073
-21.5875 -3.5207 2.3729
-21.5883 -3.7354 2.4389
-21.5890 -3.9510 2.5053
-21.5897 -4.1675 2.5721
-21.9827 -4.4646 2.6873
-21.4333 -4.5696 2.6873
-20.9078 -4.6699 2.6873
-20.4042 -4.7656 2.6873
-19.9209 -4.8570 2.6873
-19.6690 -4.9984 2.7166
-19.6579 -5.1994 2.7788
-19.6347 -5.3979 2.8397
-19.1975 -5.4791 2.8397
-18.7760 -5.5570 2.8397
-18.3694 -5.6317 2.8397
-17.9767 -5.7035 2.8397
-17.5972 -5.7726 2.8397
-17.2303 -5.8390 2.8397
-16.8751 -5.9029 2.8397
-16.5311 -5.9645 2.8397
-16.1977 -6.0238 2.8397
-15.8744 -6.0810 2.8397
-15.5606 -6.1362 2.8397
-15.2560 -6.1894 2.8397
-14.9600 -6.2409 2.8397
-14.6723 -6.2906 2.8397
-14.3924 -6.3386 2.8397
-14.1200 -6.3851 2.8397
-13.8547 -6.4300 2.8397
-13.5963 -6.4734 2.8397
-13.3444 -6.5155 2.8397
-13.0988 -6.5563 2.8397
-12.8591 -6.5958 2.8397
-12.6251 -6.6341 2.8397
-12.3966 -6.6713 2.8397
-12.1734 -6.7072 2.8397
-11.9551 -6.7422 2.8397
-11.7417 -6.7761 2.8397
-11.5330 -6.8090 2.8397
-11.3287 -6.8409 2.8397
-11.1286 -6.8720 2.8397
-10.9327 -6.9021 2.8397
-10.7408 -6.9314 2.8397
-10.5526 -6.9598 2.8397
-10.3681 -6.9876 2.8397
-10.1871 -7.0145 2.8397
-10.0095 -7.0406 2.8397
-9.8352 -7.0661 2.8397
-9.1454 -6.7103 2.6873
-8.9863 -6.7331 2.6873
-8.8300 -6.7554 2.6873
-8.6764 -6.7770 2.6873
-8.5253 -6.7980 2.6873
-8.3768 -6.8185 2.6873
-8.2306 -6.8385 2.6873
-7.2784 -6.1724 2.4186
-7.9453 -6.8769 2.6873
-7.8059 -6.8954 2.6873
-7.6687 -6.9133 2.6873
-7.5334 -6.9309 2.6873
-7.4002 -6.9479 2.6873
-7.2688 -6.9646 2.6873
-7.1393 -6.9808 2.6873
-7.0116 -6.9966 2.6873
-6.8856 -7.0120 2.6873
-6.7613 -7.0271 2.6873
-6.6386 -7.0417 2.6873
-6.5175 -7.0560 2.6873
-6.3979 -7.0699 2.6873
-6.2797 -7.0835 2.6873
-6.1630 -7.0967 2.6873
-6.0477 -7.1097 2.6873
-5.9337 -7.1223 2.6873
-5.8211 -7.1345 2.6873
-5.7326 -7.1752 2.6981
-5.7247 -7.3183 2.7474
-5.7166 -7.4648 2.7980
-5.6879 -7.5878 2.8397
-5.5751 -7.5992 2.8397
-5.4634 -7.6103 2.8397
-5.3529 -7.6212 2.8397
-5.2434 -7.6317 2.8397
-5.1350 -7.6420 2.8397
-5.0276 -7.6521 2.8397
-4.9211 -7.6618 2.8397
-4.8156 -7.6713 2.8397
-4.7111 -7.6806 2.8397
-4.6074 -7.6896 2.8397
-4.5046 -7.6984 2.8397
-4.4026 -7.7070 2.8397
-4.3015 -7.7153 2.8397
-4.2011 -7.7233 2.8397
-4.1015 -7.7312 2.8397
-4.0026 -7.7388 2.8397
-3.9045 -7.7462 2.8397
-3.8070 -7.7534 2.8397
-3.7102 -7.7605 2.8397
-3.6141 -7.7673 2.8397
-36.2428 26.5085 -2.9199
-36.2522 25.9781 -2.7972
-36.2614 25.4551 -2.6757
-36.2701 24.9388 -2.5554
-36.2787 24.4294 -2.4362
-36.2872 23.9266 -2.3181
-36.0365 23.2630 -2.1853
-36.3442 22.9657 -2.0872
-37.4851 23.1815 -2.0334
-38.3336 23.1961 -1.9585
-39.2104 23.2111 -1.8805
-40.1171 23.2267 -1.7994
-41.0555 23.2428 -1.7149
-42.0273 23.2595 -1.6269
-37.4795 20.2720 -1.3370
-37.1571 19.6362 -1.2134
-37.7433 19.4822 -1.1194
-38.3479 19.3280 -1.0231
-38.9639 19.1694 -0.9241
-39.5918 19.0064 -0.8225
-40.2320 18.8387 -0.7180
-40.8849 18.6663 -0.6106
-41.5511 18.4889 -0.5001
-6.9561 3.0154 -0.0637
-6.9567 2.9364 -0.0437
-6.9573 2.8581 -0.0238
-6.9578 2.7804 -0.0040
-6.5135 2.5305 0.0147
-6.6631 2.5151 0.0339
-6.2892 2.3052 0.0497
-6.4281 2.2863 0.0688
-6.5722 2.2666 0.0887
-6.7217 2.2462 0.1095
-6.8771 2.2249 0.1312
-7.1145 2.2265 0.1555
-6.8908 2.0841 0.1697
-6.8016 1.9861 0.1863
-6.7150 1.8911 0.2025
-6.6310 1.7989 0.2182
-6.5495 1.7095 0.2336
-7.0412 1.7659 0.2705
-7.0060 1.6858 0.2884
-6.9713 1.6069 0.3061
-6.9371 1.5291 0.3237
-6.9033 1.4524 0.3411
-6.8699 1.3767 0.3583
-21.4744 4.0896 1.1789
-21.5652 3.8931 1.2431
-21.5659 3.6800 1.3024
-21.5666 3.4676 1.3618
-21.5673 3.2559 1.4212
-21.5680 3.0447 1.4807
-21.5687 2.8341 1.5403
-21.5694 2.6240 1.6000
-21.5701 2.4144 1.6598
-21.5708 2.2051 1.7197
-21.5715 1.9963 1.7798
-21.5722 1.7877 1.8400
-21.5729 1.5794 1.9003
-21.5736 1.3714 1.9609
-21.5742 1.1636 2.0216
-21.5749 0.9559 2.0825
-21.5756 0.7484 2.1436
-21.5763 0.5409 2.2049
-21.5770 0.3334 2.2664
-21.5777 0.1260 2.3282
-21.5784 -0.0816 2.3902
-21.5791 -0.2892 2.4525
-21.5798 -0.4969 2.5151
-21.5805 -0.7049 2.5780
-21.9584 -0.9290 2.6873
-21.4430 -1.1142 2.6873
-20.9493 -1.2911 2.6873
-20.4753 -1.4602 2.6873
-20.0198 -1.6219 2.6873
-19.6679 -1.7846 2.6991
-19.6548 -1.9750 2.7567
-19.6445 -2.1658 2.8149
-19.4030 -2.3291 2.8397
-19.0033 -2.4678 2.8397
-18.6172 -2.6010 2.8397
-18.2439 -2.7292 2.8397
-17.8829 -2.8525 2.8397
-17.5334 -2.9712 2.8397
-17.1948 -3.0857 2.8397
-16.8667 -3.1960 2.8397
-16.5483 -3.3024 2.8397
-16.2394 -3.4051 2.8397
-15.9393 -3.5043 2.8397
-15.6478 -3.6001 2.8397
-15.3643 -3.6927 2.8397
-15.0886 -3.7822 2.8397
-14.8202 -3.8688 2.8397
-14.5588 -3.9527 2.8397
-14.3042 -4.0339 2.8397
-14.0559 -4.1125 2.8397
-13.8139 -4.1887 2.8397
-13.5777 -4.2626 2.8397
-13.3471 -4.3342 2.8397
-13.1219 -4.4037 2.8397
-12.9020 -4.4711 2.8397
-12.6870 -4.5365 2.8397
-12.4767 -4.6001 2.8397
-12.2711 -4.6618 2.8397
-12.0698 -4.7217 2.8397
-11.8728 -4.7800 2.8397
-11.6799 -4.8367 2.8397
-11.4909 -4.8918 2.8397
-11.3057 -4.9454 2.8397
-11.1241 -4.9975 2.8397
-10.9460 -5.0482 2.8397
-10.7713 -5.0976 2.8397
-10.5998 -5.1456 2.8397
-10.4315 -5.1924 2.8397
-10.2662 -5.2380 2.8397
-10.1039 -5.2824 2.8397
-9.9444 -5.3257 2.8397
-9.7876 -5.3678 2.8397
-9.1164 -5.1186 2.6873
-8.9730 -5.1565 2.6873
-8.8319 -5.1935 2.6873
-8.6930 -5.2295 2.6873
-8.5564 -5.2647 2.6873
-8.4218 -5.2989 2.6873
-8.2893 -5.3324 2.6873
-8.1588 -5.3650 2.6873
-8.0302 -5.3968 2.6873
-7.9035 -5.4279 2.6873
-7.7786 -5.4582 2.6873
-7.6554 -5.4878 2.6873
-7.5339 -5.5167 2.6873
-7.4141 -5.5450 2.6873
-7.2959 -5.5725 2.6873
-7.1792 -5.5994 2.6873
-7.0640 -5.6257 2.6873
-6.9503 -5.6513 2.6873
-6.8380 -5.6764 2.6873
-6.7271 -5.7008 2.6873
-6.6175 -5.7248 2.6873
-6.5092 -5.7481 2.6873
-6.4021 -5.7709 2.6873
-6.2963 -5.7932 2.6873
-6.1917 -5.8150 2.6873
-6.0882 -5.8363 2.6873
-5.9858 -5.8570 2.6873
-5.8846 -5.8773 2.6873
-5.7844 -5.8972 2.6873
-5.7283 -5.9614 2.7076
-5.7212 -6.0780 2.7518
-5.7139 -6.1970 2.7970
-5.6994 -6.3107 2.8397
-5.5987 -6.3293 2.8397
-5.4989 -6.3475 2.8397
-5.4000 -6.3653 2.8397
-5.3020 -6.3827 2.8397
-5.2049 -6.3996 2.8397
-5.1086 -6.4162 2.8397
-5.0132 -6.4324 2.8397
-4.9185 -6.4482 2.8397
-4.8247 -6.4636 2.8397
-4.7316 -6.4786 2.8397
-4.6392 -6.4933 2.8397
-4.5475 -6.5077 2.8397
-4.4565 -6.5216 2.8397
-4.3662 -6.5352 2.8397
-4.2766 -6.5485 2.8397
-4.1876 -6.5615 2.8397
-4.0992 -6.5742 2.8397
-4.0114 -6.5865 2.8397
-3.9242 -6.5985 2.8397
-3.8376 -6.6102 2.8397
-3.7515 -6.6216 2.8397
-3.6659 -6.6327 2.8397
-3.5809 -6.6435 2.8397
-3.4964 -6.6540 2.8397
-3.4124 -6.6642 2.8397
-3.3288 -6.6742 2.8397
-3.2457 -6.6839 2.8397
-3.1630 -6.6933 2.8397
-36.2328 27.1005 -0.8885
-36.1698 26.5130 -0.7785
-36.2177 26.0150 -0.6715
-36.2267 25.4956 -0.5645
-36.2355 24.9831 -0.4584
-36.2441 24.4775 -0.3529
-36.2864 24.0005 -0.2484
-36.2943 23.5068 -0.1442
-36.5839 23.1979 -0.0409
-37.3436 23.1791 0.0642
-37.6708 22.8835 0.1710
-37.6792 22.3957 0.2767
-37.6875 21.9135 0.3819
-21.5396 12.2490 0.2780
-21.5406 11.9773 0.3375
-21.5415 11.7086 0.3968
-21.5424 11.4427 0.4558
-21.5432 11.1796 0.5145
-21.5441 10.9191 0.5730
-21.5450 10.6613 0.6314
-21.5459 10.4058 0.6895
-21.5467 10.1529 0.7475
-21.5475 9.9022 0.8053
-21.4552 9.6119 0.8592
-21.4560 9.3667 0.9165
-21.5104 9.1463 0.9760
-21.5413 8.9170 1.0346
-21.5421 8.6769 1.0918
-21.5429 8.4386 1.1489
-21.5437 8.2021 1.2059
-21.5445 7.9673 1.2628
-21.5453 7.7342 1.3197
-7.3311 2.5528 0.4684
-21.5468 7.2728 1.4334
-21.5476 7.0443 1.4903
-6.5411 2.0694 0.4696
-7.0095 2.1441 0.5217
-6.9745 2.0607 0.5375
-6.9401 1.9786 0.5532
-6.9061 1.8977 0.5687
-6.8725 1.8181 0.5841
-6.8394 1.7395 0.5993
-6.8067 1.6621 0.6145
-21.5543 5.0455 2.0030
-21.5550 4.8288 2.0603
-21.5557 4.6130 2.1178
-21.4791 4.3823 2.1675
-21.4734 4.1676 2.2243
-21.4741 3.9551 2.2819
-21.5649 3.7589 2.3495
-21.5656 3.5468 2.4077
-21.5663 3.3354 2.4660
-21.5670 3.1245 2.5245
-21.5677 2.9141 2.5833
-21.9368 2.7504 2.6873
-21.4567 2.4817 2.6873
-20.9958 2.2248 2.6873
-20.5525 1.9790 2.6873
-20.1259 1.7434 2.6873
-19.7148 1.5180 2.6873
-19.6518 1.3233 2.7336
-19.6422 1.1335 2.7875
-19.6194 0.9433 2.8397
-19.2420 0.7401 2.8397
-18.8770 0.5445 2.8397
-18.5237 0.3563 2.8397
-18.1816 0.1750 2.8397
-17.8499 0.0002 2.8397
-17.5282 -0.1685 2.8397
-17.2161 -0.3312 2.8397
-16.9131 -0.4883 2.8397
-16.6186 -0.6401 2.8397
-16.3324 -0.7868 2.8397
-16.0539 -0.9286 2.8397
-15.7830 -1.0658 2.8397
-15.5192 -1.1986 2.8397
-15.2622 -1.3272 2.8397
-15.0117 -1.4518 2.8397
-14.7675 -1.5725 2.8397
-14.5293 -1.6895 2.8397
-14.2968 -1.8029 2.8397
-14.0698 -1.9130 2.8397
-13.8480 -2.0197 2.8397
-13.6314 -2.1235 2.8397
-13.4195 -2.2242 2.8397
-13.2124 -2.3219 2.8397
-13.0097 -2.4170 2.8397
-12.8113 -2.5094 2.8397
-12.6171 -2.5992 2.8397
-12.4269 -2.6865 2.8397
-12.2405 -2.7715 2.8397
-12.0579 -2.8542 2.8397
-11.8788 -2.9347 2.8397
-11.7032 -3.0130 2.8397
-11.5308 -3.0893 2.8397
-11.3618 -3.1636 2.8397
-11.1958 -3.2360 2.8397
-11.0328 -3.3065 2.8397
-10.8727 -3.3753 2.8397
-10.7153 -3.4423 2.8397
-10.5607 -3.5077 2.8397
-10.4088 -3.5714 2.8397
-10.2593 -3.6336 2.8397
-10.1123 -3.6942 2.8397
-9.9677 -3.7534 2.8397
-9.8253 -3.8111 2.8397
-9.1654 -3.6598 2.6873
-9.0349 -3.7121 2.6873
-8.9063 -3.7629 2.6873
-8.7796 -3.8126 2.6873
-8.6548 -3.8611 2.6873
-8.5318 -3.9085 2.6873
-8.4106 -3.9548 2.6873
-8.2911 -4.0000 2.6873
-8.1732 -4.0442 2.6873
-8.0569 -4.0874 2.6873
-7.9421 -4.1296 2.6873
-7.8289 -4.1709 2.6873
-7.7172 -4.2112 2.6873
-7.6068 -4.2507 2.6873
-7.4979 -4.2892 2.6873
-7.3903 -4.3269 2.6873
-7.2840 -4.3638 2.6873
-7.1790 -4.3999 2.6873
-7.0752 -4.4352 2.6873
-6.9727 -4.4697 2.6873
-6.8713 -4.5035 2.6873
-6.7710 -4.5365 2.6873
-6.6719 -4.5688 2.6873
-6.5738 -4.6005 2.6873
-6.4768 -4.6314 2.6873
-6.3809 -4.6616 2.6873
-6.2859 -4.6913 2.6873
-6.1919 -4.7203 2.6873
-6.0988 -4.7486 2.6873
-6.0067 -4.7764 2.6873
-5.9155 -4.8036 2.6873
-5.8251 -4.8301 2.6873
-5.7356 -4.8564 2.6873
-5.7234 -4.9478 2.7236
-5.7170 -5.0459 2.7636
-5.7104 -5.1457 2.8043
-5.6912 -5.2358 2.8397
-5.6008 -5.2605 2.8397
-5.5111 -5.2847 2.8397
-5.4223 -5.3083 2.8397
-5.3341 -5.3314 2.8397
-5.2467 -5.3540 2.8397
-5.1600 -5.3762 2.8397
-5.0739 -5.3978 2.8397
-4.9885 -5.4190 2.8397
-4.9038 -5.4397 2.8397
-4.8197 -5.4600 2.8397
-4.7362 -5.4798 2.8397
-4.6533 -5.4992 2.8397
-4.5710 -5.5182 2.8397
-4.4893 -5.5367 2.8397
-4.4081 -5.5548 2.8397
-4.3275 -5.5726 2.8397
-4.2474 -5.5899 2.8397
-4.1678 -5.6068 2.8397
-4.0887 -5.6233 2.8397
-4.0101 -5.6395 2.8397
-3.9319 -5.6553 2.8397
-3.8542 -5.6706 2.8397
-3.7770 -5.6857 2.8397
-3.7002 -5.7003 2.8397
-3.6239 -5.7147 2.8397
-3.5479 -5.7287 2.8397
-3.4724 -5.7423 2.8397
-3.3972 -5.7556 2.8397
-3.3225 -5.7686 2.8397
-3.2481 -5.7812 2.8397
-3.1741 -5.7935 2.8397
-3.1004 -5.8055 2.8397
-3.0271 -5.8171 2.8397
-2.9541 -5.8285 2.8397
-2.8814 -5.8396 2.8397
-2.8090 -5.8503 2.8397
-21.5208 16.4576 0.6955
-21.5219 16.1344 0.7515
-21.5230 15.8158 0.8071
-21.5240 15.5017 0.8625
-21.5251 15.1921 0.9176
-21.4425 14.8288 0.9688
-21.4436 14.5285 1.0233
-21.5320 14.2902 1.0820
-21.5330 13.9965 1.1363
-21.5339 13.7065 1.1904
-21.5349 13.4200 1.2444
-21.5359 13.1370 1.2983
-21.5368 12.8572 1.3520
-21.5378 12.5808 1.4056
-21.5387 12.3073 1.4592
-21.5396 12.0369 1.5126
-21.5405 11.7694 1.5659
-21.5414 11.5047 1.6192
-21.5423 11.2427 1.6724
-21.5432 10.9833 1.7256
-21.5440 10.7265 1.7787
-21.5449 10.4721 1.8318
-21.5457 10.2200 1.8849
-21.5466 9.9702 1.9380
-21.4542 9.6806 1.9826
-21.4551 9.4362 2.0355
-21.4654 9.1980 2.0893
-21.5403 8.9884 2.1497
-21.5412 8.7490 2.2029
-21.5420 8.5114 2.2562
-21.5427 8.2756 2.3096
-21.5435 8.0415 2.3631
-21.5443 7.8091 2.4166
-21.5451 7.5782 2.4702
-21.5459 7.3489 2.5240
-21.5466 7.1210 2.5779
-7.0720 2.2628 0.8638
-7.0579 2.1845 0.8798
-21.1319 6.3208 2.6873
-20.7208 5.9835 2.6873
-20.3243 5.6600 2.6873
-19.9415 5.3493 2.6873
-19.6532 5.0719 2.6985
-19.6414 4.8698 2.7470
-19.6328 4.6698 2.7962
-19.5837 4.4613 2.8397
-19.2406 4.1907 2.8397
-18.9079 3.9298 2.8397
-18.5852 3.6782 2.8397
-18.2719 3.4355 2.8397
-17.9675 3.2011 2.8397
-17.6718 2.9748 2.8397
-17.3842 2.7560 2.8397
-17.1043 2.5445 2.8397
-16.8320 2.3400 2.8397
-16.5667 2.1419 2.8397
-16.3082 1.9502 2.8397
-16.0563 1.7645 2.8397
-15.8106 1.5846 2.8397
-15.5708 1.4103 2.8397
-15.3368 1.2411 2.8397
-15.1082 1.0771 2.8397
-14.8850 0.9180 2.8397
-14.6668 0.7634 2.8397
-14.4534 0.6134 2.8397
-14.2447 0.4676 2.8397
-14.0405 0.3260 2.8397
-13.8407 0.1883 2.8397
-13.6450 0.0545 2.8397
-13.4533 -0.0756 2.8397
-13.2656 -0.2022 2.8397
-13.0815 -0.3255 2.8397
-12.9010 -0.4454 2.8397
-12.7240 -0.5622 2.8397
-12.5504 -0.6759 2.8397
-12.3799 -0.7866 2.8397
-12.2127 -0.8946 2.8397
-12.0484 -0.9998 2.8397
-11.8870 -1.1023 2.8397
-11.7285 -1.2022 2.8397
-11.5728 -1.2997 2.8397
-11.4196 -1.3948 2.8397
-11.2691 -1.4875 2.8397
-11.1210 -1.5780 2.8397
-10.9753 -1.6664 2.8397
-10.8320 -1.7526 2.8397
-10.6909 -1.8368 2.8397
-10.5520 -1.9190 2.8397
-10.4152 -1.9993 2.8397
-10.2805 -2.0777 2.8397
-10.1478 -2.1544 2.8397
-10.0171 -2.2292 2.8397
-9.8882 -2.3024 2.8397
-9.7612 -2.3739 2.8397
-9.1188 -2.3127 2.6873
-9.0019 -2.3774 2.6873
-8.8866 -2.4406 2.6873
-8.7728 -2.5025 2.6873
-8.6606 -2.5630 2.6873
-8.5498 -2.6222 2.6873
-8.4404 -2.6801 2.6873
-8.3325 -2.7368 2.6873
-8.2259 -2.7922 2.6873
-8.1205 -2.8465 2.6873
-8.0165 -2.8996 2.6873
-7.9137 -2.9516 2.6873
-7.8122 -3.0025 2.6873
-7.7118 -3.0523 2.6873
-7.6126 -3.1011 2.6873
-7.5144 -3.1489 2.6873
-7.4174 -3.1956 2.6873
-7.3215 -3.2415 2.6873
-7.2266 -3.2864 2.6873
-7.1327 -3.3303 2.6873
-7.0398 -3.3734 2.6873
-6.9478 -3.4156 2.6873
-6.8568 -3.4569 2.6873
-6.7667 -3.4974 2.6873
-6.6776 -3.5370 2.6873
-6.5892 -3.5759 2.6873
-6.5018 -3.6140 2.6873
-6.4152 -3.6514 2.6873
-6.3293 -3.6879 2.6873
-6.2443 -3.7238 2.6873
-6.1601 -3.7589 2.6873
-6.0766 -3.7934 2.6873
-5.9938 -3.8271 2.6873
-5.9118 -3.8602 2.6873
-5.8305 -3.8926 2.6873
-5.7499 -3.9244 2.6873
-5.7231 -3.9927 2.7125
-5.7174 -4.0765 2.7482
-5.7115 -4.1614 2.7846
-5.7055 -4.2476 2.8216
-5.6603 -4.3053 2.8397
-5.5791 -4.3349 2.8397
-5.4985 -4.3641 2.8397
-5.4186 -4.3927 2.8397
-5.3392 -4.4208 2.8397
-5.2604 -4.4483 2.8397
-5.1822 -4.4752 2.8397
-5.1045 -4.5015 2.8397
-5.0274 -4.5274 2.8397
-4.9508 -4.5528 2.8397
-4.8747 -4.5776 2.8397
-4.7991 -4.6019 2.8397
-4.7240 -4.6258 2.8397
-4.6494 -4.6491 2.8397
-4.5752 -4.6720 2.8397
-4.5016 -4.6944 2.8397
-4.4283 -4.7163 2.8397
-4.3555 -4.7378 2.8397
-4.2831 -4.7588 2.8397
-4.2112 -4.7794 2.8397
-4.1396 -4.7996 2.8397
-4.0685 -4.8193 2.8397
-3.9977 -4.8387 2.8397
-3.9273 -4.8576 2.8397
-3.8573 -4.8760 2.8397
-3.7877 -4.8942 2.8397
-3.7184 -4.9119 2.8397
-3.6494 -4.9292 2.8397
-3.5808 -4.9461 2.8397
-3.5125 -4.9626 2.8397
-3.4446 -4.9788 2.8397
-3.3769 -4.9946 2.8397
-3.3096 -5.0100 2.8397
-3.2425 -5.0251 2.8397
-3.1758 -5.0398 2.8397
-3.1093 -5.0542 2.8397
-3.0431 -5.0682 2.8397
-2.9772 -5.0819 2.8397
-2.9115 -5.0952 2.8397
-2.8461 -5.1083 2.8397
-2.7809 -5.1209 2.8397
-2.7160 -5.1333 2.8397
-2.6513 -5.1453 2.8397
-2.5869 -5.1570 2.8397
-2.5226 -5.1684 2.8397
-21.5187 16.8239 1.9417
-21.5198 16.4980 1.9887
-21.5209 16.1770 2.0358
-21.5220 15.8605 2.0828
-21.5231 15.5484 2.1298
-21.5241 15.2406 2.1768
-21.4454 14.8816 2.2156
-21.4426 14.5805 2.2620
-21.5310 14.3441 2.3183
-21.5320 14.0521 2.3654
-21.5330 13.7636 2.4125
-21.5339 13.4786 2.4597
-21.5349 13.1970 2.5070
-21.5358 12.9187 2.5543
-21.5368 12.6435 2.6017
-21.8471 12.5491 2.6873
-21.4623 12.0593 2.6873
-21.0902 11.5890 2.6873
-20.7300 11.1370 2.6873
-20.3811 10.7022 2.6873
-20.0429 10.2839 2.6873
-19.7148 9.8802 2.6873
-19.6358 9.6102 2.7204
-19.6284 9.3773 2.7635
-19.6209 9.1466 2.8066
-19.5435 8.8864 2.8397
-19.2433 8.5311 2.8397
-18.9510 8.1879 2.8397
-18.6665 7.8562 2.8397
-18.3893 7.5355 2.8397
-18.1191 7.2253 2.8397
-17.8557 6.9251 2.8397
-17.5987 6.6345 2.8397
-17.3479 6.3531 2.8397
-17.1031 6.0803 2.8397
-16.8639 5.8160 2.8397
-7.1151 2.3787 1.2149
-7.0660 2.2881 1.2234
-7.0182 2.1994 1.2318
-7.1685 2.1721 1.2755
-15.7459 4.6086 2.8397
-15.5365 4.3879 2.8397
-15.3315 4.1734 2.8397
-15.1307 3.9650 2.8397
-14.9339 3.7624 2.8397
-14.7410 3.5653 2.8397
-14.5519 3.3737 2.8397
-14.3664 3.1872 2.8397
-14.1844 3.0058 2.8397
-14.0058 2.8291 2.8397
-13.8305 2.6571 2.8397
-13.6584 2.4895 2.8397
-13.4893 2.3263 2.8397
-13.3232 2.1673 2.8397
-13.1599 2.0122 2.8397
-12.9995 1.8612 2.8397
-12.8417 1.7138 2.8397
-12.6866 1.5701 2.8397
-12.5340 1.4299 2.8397
-12.3839 1.2931 2.8397
-12.2361 1.1597 2.8397
-12.0907 1.0294 2.8397
-11.9475 0.9022 2.8397
-11.8066 0.7780 2.8397
-11.6677 0.6567 2.8397
-11.5309 0.5382 2.8397
-11.3961 0.4225 2.8397
-11.2632 0.3094 2.8397
-11.1323 0.1988 2.8397
-11.0031 0.0908 2.8397
-10.8758 -0.0148 2.8397
-10.7503 -0.1181 2.8397
-10.6264 -0.2191 2.8397
-10.5042 -0.3179 2.8397
-10.3835 -0.4145 2.8397
-10.2645 -0.5090 2.8397
-10.1470 -0.6015 2.8397
-10.0309 -0.6920 2.8397
-9.9164 -0.7805 2.8397
-9.8032 -0.8673 2.8397
-9.6914 -0.9521 2.8397
-9.0668 -0.9797 2.6873
-8.9635 -1.0567 2.6873
-8.8615 -1.1321 2.6873
-8.7606 -1.2060 2.6873
-8.6609 -1.2783 2.6873
-8.5623 -1.3492 2.6873
-8.4648 -1.4186 2.6873
-8.3683 -1.4867 2.6873
-8.2730 -1.5533 2.6873
-8.1786 -1.6187 2.6873
-8.0852 -1.6827 2.6873
-7.9929 -1.7454 2.6873
-7.9014 -1.8070 2.6873
-7.8109 -1.8673 2.6873
-7.7214 -1.9264 2.6873
-7.6327 -1.9844 2.6873
-7.5449 -2.0412 2.6873
-7.4579 -2.0970 2.6873
-7.3718 -2.1516 2.6873
-7.2864 -2.2053 2.6873
-7.2019 -2.2578 2.6873
-7.1182 -2.3094 2.6873
-7.0352 -2.3600 2.6873
-6.9530 -2.4097 2.6873
-6.8714 -2.4584 2.6873
-6.7907 -2.5062 2.6873
-6.7106 -2.5530 2.6873
-6.6312 -2.5991 2.6873
-6.5524 -2.6442 2.6873
-6.4743 -2.6885 2.6873
-6.3969 -2.7320 2.6873
-6.3201 -2.7746 2.6873
-6.2439 -2.8165 2.6873
-6.1683 -2.8576 2.6873
-6.0933 -2.8979 2.6873
-6.0188 -2.9375 2.6873
-5.9450 -2.9763 2.6873
-5.8717 -3.0145 2.6873
-5.7989 -3.0518 2.6873
-5.7254 -3.0880 2.6867
-5.7203 -3.1608 2.7183
-5.7151 -3.2344 2.7505
-5.7098 -3.3088 2.7832
-5.7045 -3.3841 2.8164
-5.6778 -3.4474 2.8397
-5.6046 -3.4821 2.8397
-5.5319 -3.5162 2.8397
-5.4597 -3.5496 2.8397
-5.3879 -3.5825 2.8397
-5.3166 -3.6147 2.8397
-5.2457 -3.6463 2.8397
-5.1753 -3.6773 2.8397
-5.1053 -3.7078 2.8397
-5.0358 -3.7377 2.8397
-4.9666 -3.7670 2.8397
-4.8979 -3.7958 2.8397
-4.8295 -3.8241 2.8397
-4.7616 -3.8518 2.8397
-4.6940 -3.8790 2.8397
-4.6268 -3.9057 2.8397
-4.5599 -3.9319 2.8397
-4.4934 -3.9576 2.8397
-4.4273 -3.9828 2.8397
-4.3615 -4.0075 2.8397
-4.2961 -4.0317 2.8397
-4.2310 -4.0555 2.8397
-4.1662 -4.0788 2.8397
-4.1017 -4.1016 2.8397
-4.0375 -4.1241 2.8397
-3.9736 -4.1460 2.8397
-3.9101 -4.1675 2.8397
-3.8468 -4.1887 2.8397
-3.7838 -4.2093 2.8397
-3.7211 -4.2296 2.8397
-3.6586 -4.2494 2.8397
-3.5965 -4.2689 2.8397
-3.5345 -4.2879 2.8397
-3.4729 -4.3066 2.8397
-3.4115 -4.3248 2.8397
-3.3503 -4.3427 2.8397
-3.2894 -4.3602 2.8397
-3.2287 -4.3773 2.8397
-3.1682 -4.3940 2.8397
-3.1080 -4.4104 2.8397
-3.0480 -4.4264 2.8397
-2.9881 -4.4420 2.8397
-2.9285 -4.4573 2.8397
-2.8691 -4.4723 2.8397
-2.8099 -4.4869 2.8397
-2.7509 -4.5011 2.8397
-2.6921 -4.5150 2.8397
-2.6335 -4.5286 2.8397
-2.5750 -4.5418 2.8397
-2.5167 -4.5548 2.8397
-2.4586 -4.5674 2.8397
-2.4007 -4.5796 2.8397
-2.3429 -4.5916 2.8397
-2.2852 -4.6032 2.8397
-18.9935 15.1819 2.8397
-18.7728 14.7182 2.8397
-18.5559 14.2682 2.8397
-18.3427 13.8317 2.8397
-18.1331 13.4081 2.8397
-17.9271 12.9967 2.8397
-17.7244 12.5973 2.8397
-17.5252 12.2093 2.8397
-17.3291 11.8323 2.8397
-17.1362 11.4659 2.8397
-16.9464 11.1097 2.8397
-16.7596 10.7634 2.8397
-16.5757 10.4266 2.8397
-16.3947 10.0989 2.8397
-16.2165 9.7801 2.8397
-16.0410 9.4698 2.8397
-15.8681 9.1678 2.8397
-15.6978 8.8737 2.8397
-15.5299 8.5874 2.8397
-15.3646 8.3082 2.8397
-15.2017 8.0364 2.8397
-15.0410 7.7715 2.8397
-14.8827 7.5134 2.8397
-14.7266 7.2616 2.8397
-14.5727 7.0162 2.8397
-14.4209 6.7769 2.8397
-14.2711 6.5434 2.8397
-14.1234 6.3156 2.8397
-13.9777 6.0933 2.8397
-13.8339 5.8764 2.8397
-13.6920 5.6646 2.8397
-13.5519 5.4579 2.8397
-13.4136 5.2561 2.8397
-13.2771 5.0589 2.8397
-13.1424 4.8663 2.8397
-13.0093 4.6782 2.8397
-12.8779 4.4944 2.8397
-12.7481 4.3148 2.8397
-7.0858 2.3241 1.5944
-7.0374 2.2349 1.5996
-6.9975 2.1498 1.6066
-7.2093 2.1406 1.6720
-12.1221 3.4752 2.8397
-12.0012 3.3183 2.8397
-11.8818 3.1647 2.8397
-11.7637 3.0145 2.8397
-11.6470 2.8675 2.8397
-11.5316 2.7237 2.8397
-11.4174 2.5829 2.8397
-11.3045 2.4451 2.8397
-11.1928 2.3102 2.8397
-11.0823 2.1781 2.8397
-10.9730 2.0487 2.8397
-10.8649 1.9220 2.8397
-10.7579 1.7979 2.8397
-10.6520 1.6764 2.8397
-10.5472 1.5573 2.8397
-10.4434 1.4407 2.8397
-10.3407 1.3264 2.8397
-10.2390 1.2143 2.8397
-10.1383 1.1046 2.8397
-10.0386 0.9969 2.8397
-9.9399 0.8914 2.8397
-9.8421 0.7881 2.8397
-9.7453 0.6866 2.8397
-9.1315 0.5557 2.6873
-9.0415 0.4634 2.6873
-8.9524 0.3729 2.6873
-8.8641 0.2841 2.6873
-8.7766 0.1970 2.6873
-8.6899 0.1117 2.6873
-8.6040 0.0278 2.6873
-8.5188 -0.0544 2.6873
-8.4344 -0.1351 2.6873
-8.3507 -0.2142 2.6873
-8.2677 -0.2919 2.6873
-8.1854 -0.3682 2.6873
-8.1038 -0.4430 2.6873
-8.0229 -0.5164 2.6873
-7.9426 -0.5886 2.6873
-7.8630 -0.6594 2.6873
-7.7840 -0.7289 2.6873
-7.7057 -0.7971 2.6873
-7.6280 -0.8641 2.6873
-7.5509 -0.9299 2.6873
-7.4744 -0.9946 2.6873
-7.3985 -1.0580 2.6873
-7.3232 -1.1203 2.6873
-7.2484 -1.1815 2.6873
-7.1742 -1.2417 2.6873
-7.1005 -1.3007 2.6873
-7.0274 -1.3587 2.6873
-6.9548 -1.4157 2.6873
-6.8827 -1.4717 2.6873
-6.8111 -1.5267 2.6873
-6.7401 -1.5808 2.6873
-6.6695 -1.6339 2.6873
-6.5994 -1.6860 2.6873
-6.5298 -1.7373 2.6873
-6.4607 -1.7877 2.6873
-6.3920 -1.8372 2.6873
-6.3237 -1.8858 2.6873
-6.2560 -1.9336 2.6873
-6.1886 -1.9806 2.6873
-6.1217 -2.0268 2.6873
-6.0552 -2.0721 2.6873
-5.9891 -2.1167 2.6873
-5.9234 -2.1606 2.6873
-5.8582 -2.2036 2.6873
-5.7933 -2.2460 2.6873
-5.7288 -2.2880 2.6873
-5.7194 -2.3510 2.7132
-5.7147 -2.4168 2.7418
-5.7100 -2.4831 2.7709
-5.7053 -2.5501 2.8005
-5.7004 -2.6175 2.8305
-5.6531 -2.6658 2.8397
-5.5876 -2.7047 2.8397
-5.5225 -2.7431 2.8397
-5.4577 -2.7807 2.8397
-5.3933 -2.8177 2.8397
-5.3293 -2.8541 2.8397
-5.2655 -2.8898 2.8397
-5.2021 -2.9249 2.8397
-5.1390 -2.9594 2.8397
-5.0763 -2.9934 2.8397
-5.0138 -3.0267 2.8397
-4.9517 -3.0595 2.8397
-4.8898 -3.0917 2.8397
-4.8283 -3.1233 2.8397
-4.7670 -3.1544 2.8397
-4.7061 -3.1849 2.8397
-4.6454 -3.2150 2.8397
-4.5850 -3.2445 2.8397
-4.5248 -3.2734 2.8397
-4.4649 -3.3019 2.8397
-4.4053 -3.3298 2.8397
-4.3460 -3.3573 2.8397
-4.2869 -3.3842 2.8397
-4.2280 -3.4107 2.8397
-4.1694 -3.4368 2.8397
-4.1110 -3.4623 2.8397
-4.0529 -3.4874 2.8397
-3.9950 -3.5120 2.8397
-3.9373 -3.5361 2.8397
-3.8799 -3.5599 2.8397
-3.8226 -3.5832 2.8397
-3.7656 -3.6060 2.8397
-3.7088 -3.6285 2.8397
-3.6522 -3.6505 2.8397
-3.5958 -3.6721 2.8397
-3.5396 -3.6932 2.8397
-3.4836 -3.7140 2.8397
-3.4278 -3.7344 2.8397
-3.3721 -3.7544 2.8397
-3.3167 -3.7739 2.8397
-3.2614 -3.7931 2.8397
-3.2063 -3.8119 2.8397
-3.1514 -3.8304 2.8397
-3.0967 -3.8484 2.8397
-3.0421 -3.8661 2.8397
-2.9877 -3.8834 2.8397
-2.9334 -3.9004 2.8397
-2.8793 -3.9170 2.8397
-2.8254 -3.9332 2.8397
-2.7716 -3.9491 2.8397
-2.7180 -3.9646 2.8397
-2.6645 -3.9799 2.8397
-2.6111 -3.9947 2.8397
-2.5579 -4.0092 2.8397
-2.5048 -4.0234 2.8397
-2.4518 -4.0373 2.8397
-2.3990 -4.0508 2.8397
-2.3463 -4.0639 2.8397
-2.2937 -4.0768 2.8397
-2.2412 -4.0894 2.8397
-2.1889 -4.1016 2.8397
-2.1366 -4.1135 2.8397
-2.0845 -4.1251 2.8397
-13.4928 11.0278 2.8397
-13.4086 10.7520 2.8397
-13.3240 10.4817 2.8397
-13.2392 10.2165 2.8397
-13.1540 9.9565 2.8397
-13.0686 9.7016 2.8397
-12.9831 9.4517 2.8397
-12.8973 9.2065 2.8397
-12.8115 8.9662 2.8397
-12.7256 8.7304 2.8397
-12.6396 8.4992 2.8397
-12.5535 8.2725 2.8397
-12.4675 8.0501 2.8397
-12.3815 7.8320 2.8397
-12.2955 7.6180 2.8397
-12.2097 7.4082 2.8397
-12.1239 7.2023 2.8397
-12.0382 7.0004 2.8397
-11.9527 6.8023 2.8397
-11.8673 6.6079 2.8397
-11.7821 6.4172 2.8397
-11.6971 6.2301 2.8397
-11.6123 6.0465 2.8397
-11.5277 5.8663 2.8397
-11.4434 5.6895 2.8397
-11.3592 5.5160 2.8397
-11.2754 5.3457 2.8397
-11.1918 5.1786 2.8397
-11.1084 5.0146 2.8397
-11.0254 4.8536 2.8397
-10.9427 4.6955 2.8397
-10.8602 4.5404 2.8397
-10.7781 4.3880 2.8397
-10.6963 4.2385 2.8397
-10.6148 4.0916 2.8397
-10.5336 3.9475 2.8397
-10.4527 3.8059 2.8397
-10.3722 3.6668 2.8397
-10.2921 3.5303 2.8397
-7.1082 2.3639 1.9765
-7.0592 2.2743 1.9783
-7.0113 2.1864 1.9804
-7.0287 2.1196 2.0009
-7.2379 2.1087 2.0768
-9.8184 2.7607 2.8397
-9.7407 2.6402 2.8397
-9.1448 2.3865 2.6873
-9.0719 2.2765 2.6873
-8.9994 2.1684 2.6873
-8.9273 2.0622 2.6873
-8.8555 1.9578 2.6873
-8.7840 1.8552 2.6873
-8.7129 1.7544 2.6873
-8.6421 1.6553 2.6873
-8.5717 1.5579 2.6873
-8.5016 1.4622 2.6873
-8.4319 1.3681 2.6873
-8.3625 1.2756 2.6873
-8.2934 1.1847 2.6873
-8.2247 1.0953 2.6873
-8.1563 1.0075 2.6873
-8.0883 0.9211 2.6873
-8.0206 0.8362 2.6873
-7.9532 0.7526 2.6873
-7.8862 0.6705 2.6873
-7.8194 0.5898 2.6873
-7.7531 0.5104 2.6873
-7.6870 0.4323 2.6873
-7.6213 0.3555 2.6873
-7.5559 0.2799 2.6873
-7.4908 0.2057 2.6873
-7.4260 0.1326 2.6873
-7.3616 0.0608 2.6873
-7.2975 -0.0099 2.6873
-7.2336 -0.0795 2.6873
-7.1701 -0.1479 2.6873
-7.1069 -0.2152 2.6873
-7.0440 -0.2814 2.6873
-6.9814 -0.3465 2.6873
-6.9191 -0.4105 2.6873
-6.8571 -0.4736 2.6873
-6.7954 -0.5356 2.6873
-6.7340 -0.5966 2.6873
-6.6729 -0.6566 2.6873
-6.6121 -0.7157 2.6873
-6.5515 -0.7738 2.6873
-6.4913 -0.8310 2.6873
-6.4313 -0.8873 2.6873
-6.3715 -0.9427 2.6873
-6.2529 -1.0508 2.6873
-6.3121 -0.9972 2.6873
-6.1940 -1.1035 2.6873
-5.9611 -1.3064 2.6873
-6.1354 -1.1555 2.6873
-5.9035 -1.3551 2.6873
-6.0770 -1.2066 2.6873
-5.8461 -1.4030 2.6873
-6.0189 -1.2569 2.6873
-5.7890 -1.4502 2.6873
-5.7185 -1.5540 2.7076
-5.7322 -1.4968 2.6873
-5.7145 -1.6143 2.7328
-5.6976 -1.8585 2.8374
-5.7103 -1.6748 2.7584
-5.6438 -1.9040 2.8397
-5.7061 -1.7357 2.7844
-5.5857 -1.9472 2.8397
-5.7019 -1.7970 2.8107
-5.5278 -1.9896 2.8397
-5.4128 -2.0727 2.8397
-5.4702 -2.0315 2.8397
-5.3556 -2.1132 2.8397
-5.1292 -2.2689 2.8397
-5.2987 -2.1531 2.8397
-5.0731 -2.3063 2.8397
-5.2420 -2.1923 2.8397
-5.0172 -2.3431 2.8397
-5.1855 -2.2309 2.8397
-4.9616 -2.3793 2.8397
-4.8509 -2.4500 2.8397
-4.9061 -2.4149 2.8397
-4.7958 -2.4845 2.8397
-4.7410 -2.5184 2.8397
-4.5776 -2.6170 2.8397
-4.6863 -2.5518 2.8397
-4.5235 -2.6488 2.8397
-4.6319 -2.5846 2.8397
-4.4696 -2.6800 2.8397
-4.3090 -2.7708 2.8397
-4.4159 -2.7108 2.8397
-4.2558 -2.8001 2.8397
-4.3624 -2.7410 2.8397
-4.2028 -2.8288 2.8397
-4.0448 -2.9123 2.8397
-4.1500 -2.8571 2.8397
-3.9925 -2.9392 2.8397
-4.0973 -2.8849 2.8397
-3.7847 -3.0423 2.8397
-3.9403 -2.9657 2.8397
-3.7331 -3.0670 2.8397
-3.8883 -2.9916 2.8397
-3.6817 -3.0912 2.8397
-3.8364 -3.0172 2.8397
-3.6304 -3.1150 2.8397
-3.5283 -3.1614 2.8397
-3.5793 -3.1385 2.8397
-3.4775 -3.1840 2.8397
-3.2755 -3.2703 2.8397
-3.4268 -3.2062 2.8397
-3.2253 -3.2909 2.8397
-3.3762 -3.2279 2.8397
-3.1753 -3.3112 2.8397
-3.3258 -3.2493 2.8397
-3.1254 -3.3310 2.8397
-3.0259 -3.3695 2.8397
-3.0756 -3.3504 2.8397
-2.9763 -3.3883 2.8397
-2.7792 -3.4596 2.8397
-2.9269 -3.4066 2.8397
-2.7302 -3.4765 2.8397
-2.8775 -3.4246 2.8397
-2.6813 -3.4931 2.8397
-2.8283 -3.4423 2.8397
-2.6325 -3.5094 2.8397
-2.5352 -3.5409 2.8397
-2.5838 -3.5253 2.8397
-2.4868 -3.5561 2.8397
-2.4384 -3.5710 2.8397
-2.3901 -3.5856 2.8397
-2.3419 -3.5998 2.8397
-2.2937 -3.6138 2.8397
-2.2457 -3.6274 2.8397
-2.1978 -3.6407 2.8397
-2.1499 -3.6537 2.8397
-2.1021 -3.6663 2.8397
-2.0544 -3.6787 2.8397
-2.0068 -3.6908 2.8397
-1.9592 -3.7025 2.8397
-1.9118 -3.7139 2.8397
-10.3852 8.6810 2.8397
-10.3522 8.4922 2.8397
-10.3182 8.3061 2.8397
-10.2831 8.1224 2.8397
-10.2469 7.9413 2.8397
-10.2098 7.7627 2.8397
-10.1717 7.5865 2.8397
-10.1327 7.4128 2.8397
-10.0929 7.2414 2.8397
-10.0523 7.0725 2.8397
-10.0108 6.9059 2.8397
-9.9686 6.7417 2.8397
-9.9257 6.5798 2.8397
-9.8821 6.4201 2.8397
-9.8379 6.2628 2.8397
-9.7930 6.1078 2.8397
-9.7475 5.9549 2.8397
-9.7014 5.8042 2.8397
-9.1367 5.3526 2.6873
-9.0921 5.2136 2.6873
-9.0471 5.0771 2.6873
-9.0016 4.9426 2.6873
-8.9557 4.8100 2.6873
-8.9095 4.6793 2.6873
-8.8628 4.5505 2.6873
-8.8158 4.4236 2.6873
-8.7684 4.2986 2.6873
-8.7208 4.1753 2.6873
-8.6728 4.0539 2.6873
-8.6246 3.9342 2.6873
-8.5761 3.8163 2.6873
-8.5274 3.7001 2.6873
-8.4784 3.5856 2.6873
-8.4292 3.4728 2.6873
-8.3799 3.3616 2.6873
-8.3303 3.2521 2.6873
-8.2806 3.1442 2.6873
-8.2307 3.0378 2.6873
-8.1806 2.9330 2.6873
-8.1304 2.8298 2.6873
-7.1330 2.4082 2.3723
-7.0838 2.3182 2.3707
-7.0354 2.2299 2.3694
-6.9880 2.1432 2.3685
-7.0464 2.0892 2.4036
-7.2552 2.0774 2.4909
-7.7764 2.1481 2.6873
-7.7255 2.0564 2.6873
-7.6746 1.9660 2.6873
-7.6236 1.8769 2.6873
-7.5726 1.7891 2.6873
-7.5216 1.7026 2.6873
-7.4706 1.6173 2.6873
-7.4196 1.5333 2.6873
-7.3686 1.4506 2.6873
-7.3175 1.3690 2.6873
-7.2665 1.2887 2.6873
-7.2155 1.2095 2.6873
-7.1645 1.1314 2.6873
-7.1136 1.0545 2.6873
-7.0626 0.9787 2.6873
-7.0118 0.9041 2.6873
-6.9609 0.8305 2.6873
-6.9101 0.7580 2.6873
-6.8594 0.6865 2.6873
-6.8087 0.6161 2.6873
-6.7580 0.5467 2.6873
-6.7074 0.4783 2.6873
-6.6569 0.4109 2.6873
-6.6065 0.3444 2.6873
-6.5561 0.2790 2.6873
-6.5058 0.2145 2.6873
-6.4555 0.1509 2.6873
-6.4054 0.0882 2.6873
-6.3553 0.0265 2.6873
-6.3053 -0.0344 2.6873
-6.2554 -0.0944 2.6873
-6.2056 -0.1535 2.6873
-6.1558 -0.2117 2.6873
-6.1062 -0.2691 2.6873
-6.0566 -0.3257 2.6873
-6.0072 -0.3814 2.6873
-5.9578 -0.4364 2.6873
-5.9085 -0.4906 2.6873
-5.8594 -0.5439 2.6873
-5.8103 -0.5965 2.6873
-5.7613 -0.6483 2.6873
-5.7195 -0.7003 2.6906
-5.7160 -0.7567 2.7121
-5.7125 -0.8133 2.7339
-5.7089 -0.8700 2.7561
-5.7053 -0.9270 2.7785
-5.7017 -0.9840 2.8013
-5.6979 -1.0413 2.8244
-5.6779 -1.0958 2.8397
-5.6271 -1.1438 2.8397
-5.5765 -1.1911 2.8397
-5.5259 -1.2378 2.8397
-5.4755 -1.2838 2.8397
-5.4252 -1.3291 2.8397
-5.3750 -1.3737 2.8397
-5.3249 -1.4177 2.8397
-5.2749 -1.4611 2.8397
-5.2250 -1.5037 2.8397
-5.1753 -1.5458 2.8397
-5.1256 -1.5873 2.8397
-5.0761 -1.6281 2.8397
-5.0267 -1.6684 2.8397
-4.9774 -1.7081 2.8397
-4.9282 -1.7472 2.8397
-4.8791 -1.7856 2.8397
-4.6353 -1.9697 2.8397
-4.8301 -1.8236 2.8397
-4.5869 -2.0049 2.8397
-4.7812 -1.8610 2.8397
-4.5386 -2.0396 2.8397
-4.7325 -1.8977 2.8397
-4.4903 -2.0737 2.8397
-4.6838 -1.9340 2.8397
-4.4422 -2.1074 2.8397
-4.3942 -2.1404 2.8397
-4.1558 -2.2986 2.8397
-4.3463 -2.1730 2.8397
-4.1084 -2.3288 2.8397
-4.2986 -2.2052 2.8397
-4.0611 -2.3585 2.8397
-4.2509 -2.2368 2.8397
-4.0140 -2.3878 2.8397
-4.2033 -2.2679 2.8397
-3.9669 -2.4165 2.8397
-3.9199 -2.4449 2.8397
-3.6864 -2.5800 2.8397
-3.8730 -2.4728 2.8397
-3.6400 -2.6057 2.8397
-3.8262 -2.5003 2.8397
-3.5937 -2.6310 2.8397
-3.7795 -2.5273 2.8397
-3.5475 -2.6559 2.8397
-3.7329 -2.5539 2.8397
-3.5013 -2.6805 2.8397
-3.4553 -2.7045 2.8397
-3.2263 -2.8191 2.8397
-3.4093 -2.7282 2.8397
-3.1808 -2.8408 2.8397
-3.1353 -2.8622 2.8397
-3.3634 -2.7515 2.8397
-3.0900 -2.8832 2.8397
-3.3176 -2.7744 2.8397
-3.0447 -2.9038 2.8397
-3.2719 -2.7970 2.8397
-2.9994 -2.9241 2.8397
-2.7745 -3.0200 2.8397
-2.9543 -2.9440 2.8397
-2.7298 -3.0381 2.8397
-2.9093 -2.9635 2.8397
-2.6851 -3.0559 2.8397
-2.8643 -2.9827 2.8397
-2.6404 -3.0734 2.8397
-2.8194 -3.0015 2.8397
-2.5959 -3.0905 2.8397
-2.5514 -3.1073 2.8397
-2.3300 -3.1862 2.8397
-2.5070 -3.1237 2.8397
-2.4626 -3.1399 2.8397
-2.2859 -3.2011 2.8397
-2.4183 -3.1556 2.8397
-2.2418 -3.2156 2.8397
-2.3741 -3.1711 2.8397
-2.1978 -3.2298 2.8397
-2.1539 -3.2437 2.8397
-2.1100 -3.2573 2.8397
-2.0662 -3.2705 2.8397
-2.0225 -3.2835 2.8397
-1.9788 -3.2962 2.8397
-1.9351 -3.3085 2.8397
-1.8915 -3.3206 2.8397
-1.8480 -3.3324 2.8397
-1.8045 -3.3438 2.8397
-1.7610 -3.3550 2.8397
-7.9311 6.7827 2.6873
-7.9217 6.6502 2.6873
-7.9112 6.5190 2.6873
-7.8996 6.3891 2.6873
-7.8870 6.2605 2.6873
-7.8734 6.1331 2.6873
-7.8588 6.0070 2.6873
-7.8432 5.8822 2.6873
-7.8267 5.7587 2.6873
-7.8093 5.6364 2.6873
-7.7910 5.5155 2.6873
-7.7719 5.3958 2.6873
-7.7520 5.2774 2.6873
-7.7312 5.1602 2.6873
-7.7097 5.0444 2.6873
-7.6874 4.9298 2.6873
-7.6644 4.8164 2.6873
-7.6407 4.7044 2.6873
-7.6163 4.5935 2.6873
-7.5913 4.4840 2.6873
-7.5656 4.3756 2.6873
-7.5393 4.2685 2.6873
-7.5124 4.1626 2.6873
-7.4849 4.0579 2.6873
-7.4568 3.9545 2.6873
-7.4282 3.8522 2.6873
-7.3991 3.7511 2.6873
-7.3695 3.6512 2.6873
-7.3393 3.5525 2.6873
-7.3087 3.4550 2.6873
-7.2777 3.3586 2.6873
-7.2462 3.2634 2.6873
-7.2143 3.1692 2.6873
-7.1820 3.0763 2.6873
-7.1492 2.9845 2.6873
-7.1161 2.8937 2.6873
-7.0827 2.8041 2.6873
-7.0488 2.7155 2.6873
-7.0147 2.6280 2.6873
-6.9802 2.5416 2.6873
-6.9454 2.4563 2.6873
-6.9103 2.3720 2.6873
-6.8749 2.2887 2.6873
-6.8392 2.2065 2.6873
-6.8032 2.1253 2.6873
-6.7670 2.0451 2.6873
-6.7306 1.9659 2.6873
-6.6939 1.8877 2.6873
-6.6570 1.8104 2.6873
-6.6198 1.7342 2.6873
-6.5825 1.6589 2.6873
-6.5450 1.5845 2.6873
-6.5072 1.5110 2.6873
-6.4693 1.4385 2.6873
-6.4312 1.3670 2.6873
-6.3930 1.2963 2.6873
-6.3546 1.2265 2.6873
-6.3160 1.1576 2.6873
-6.2773 1.0895 2.6873
-6.2385 1.0224 2.6873
-6.1995 0.9560 2.6873
-6.1604 0.8906 2.6873
-6.1212 0.8260 2.6873
-6.0819 0.7622 2.6873
-6.0424 0.6992 2.6873
-6.0029 0.6370 2.6873
-5.9633 0.5757 2.6873
-5.9236 0.5151 2.6873
-5.8838 0.4553 2.6873
-5.8440 0.3963 2.6873
-5.8041 0.3380 2.6873
-5.7641 0.2805 2.6873
-5.7240 0.2235 2.6873
-5.7156 0.1686 2.7023
-5.7127 0.1137 2.7201
-5.7098 0.0588 2.7383
-5.7069 0.0040 2.7567
-5.7039 -0.0509 2.7753
-5.7009 -0.1059 2.7942
-5.6978 -0.1609 2.8135
-5.6947 -0.2157 2.8329
-5.6654 -0.2698 2.8397
-5.6227 -0.3222 2.8397
-5.5799 -0.3742 2.8397
-5.5371 -0.4254 2.8397
-5.4943 -0.4760 2.8397
-5.4515 -0.5259 2.8397
-5.4087 -0.5751 2.8397
-5.3658 -0.6237 2.8397
-5.3230 -0.6716 2.8397
-5.2801 -0.7192 2.8397
-5.2373 -0.7656 2.8397
-5.1945 -0.8117 2.8397
-5.1516 -0.8571 2.8397
-5.1088 -0.9019 2.8397
-5.0660 -0.9462 2.8397
-5.0232 -0.9898 2.8397
-4.9804 -1.0328 2.8397
-4.9376 -1.0753 2.8397
-4.8948 -1.1172 2.8397
-4.8521 -1.1585 2.8397
-4.8094 -1.1993 2.8397
-4.7667 -1.2395 2.8397
-4.7240 -1.2792 2.8397
-4.6813 -1.3183 2.8397
-4.6387 -1.3569 2.8397
-4.5961 -1.3949 2.8397
-4.5535 -1.4325 2.8397
-4.5109 -1.4695 2.8397
-4.4684 -1.5060 2.8397
-4.4259 -1.5420 2.8397
-4.3835 -1.5775 2.8397
-4.3411 -1.6125 2.8397
-4.2987 -1.6469 2.8397
-4.2563 -1.6810 2.8397
-4.2140 -1.7145 2.8397
-4.1717 -1.7476 2.8397
-4.1295 -1.7802 2.8397
-4.0873 -1.8123 2.8397
-4.0451 -1.8440 2.8397
-4.0030 -1.8752 2.8397
-3.9609 -1.9060 2.8397
-3.9188 -1.9363 2.8397
-3.8768 -1.9662 2.8397
-3.8348 -1.9957 2.8397
-3.7929 -2.0247 2.8397
-3.7510 -2.0533 2.8397
-3.7091 -2.0814 2.8397
-3.6673 -2.1092 2.8397
-3.6256 -2.1365 2.8397
-3.5838 -2.1634 2.8397
-3.5421 -2.1899 2.8397
-3.5005 -2.2160 2.8397
-3.4589 -2.2418 2.8397
-3.4173 -2.2671 2.8397
-3.3758 -2.2920 2.8397
-3.3344 -2.3166 2.8397
-3.2929 -2.3407 2.8397
-3.2515 -2.3645 2.8397
-3.2102 -2.3879 2.8397
-3.1689 -2.4109 2.8397
-3.1276 -2.4336 2.8397
-3.0864 -2.4559 2.8397
-3.0452 -2.4778 2.8397
-3.0041 -2.4994 2.8397
-2.9630 -2.5206 2.8397
-2.9219 -2.5414 2.8397
-2.8809 -2.5619 2.8397
-2.8399 -2.5821 2.8397
-2.7990 -2.6019 2.8397
-2.7581 -2.6213 2.8397
-2.7172 -2.6405 2.8397
-2.6764 -2.6593 2.8397
-2.6356 -2.6777 2.8397
-2.5949 -2.6959 2.8397
-2.5542 -2.7136 2.8397
-2.5135 -2.7311 2.8397
-2.4729 -2.7483 2.8397
-2.4323 -2.7651 2.8397
-2.3918 -2.7816 2.8397
-2.3513 -2.7978 2.8397
-2.3108 -2.8137 2.8397
-2.2704 -2.8293 2.8397
-2.2299 -2.8445 2.8397
-2.1896 -2.8595 2.8397
-2.1492 -2.8741 2.8397
-2.1089 -2.8885 2.8397
-2.0687 -2.9025 2.8397
-2.0284 -2.9163 2.8397
-1.9882 -2.9297 2.8397
-1.9481 -2.9429 2.8397
