ply
format ascii 1.0
element vertex 2143
property float32 x
property float32 y
property float32 z
end_header
6.5099 -1.6025 -0.7484
6.5100 -1.3397 -0.8170
6.5099 -1.5363 -0.7655
6.5100 -1.2746 -0.8343
6.5100 -1.4705 -0.7826
6.5100 -1.4050 -0.7998
6.5100 -1.2098 -0.8517
6.5101 -1.0808 -0.8866
6.5101 -1.1452 -0.8691
6.5101 -1.0166 -0.9041
6.5101 -0.9525 -0.9217
6.5102 -0.8249 -0.9572
6.5102 -0.8886 -0.9394
6.5102 -0.7613 -0.9751
6.5103 -0.5713 -1.0292
6.5103 -0.5081 -1.0475
6.5102 -0.6979 -0.9930
6.5096 -0.4449 -1.0657
6.5102 -0.6345 -1.0111
6.5097 -0.3819 -1.0841
6.5099 -0.3189 -1.1027
6.5104 -0.0670 -1.1781
6.5100 -0.2559 -1.1214
6.5105 -0.0041 -1.1973
6.5101 -0.1930 -1.1402
6.5107 0.0589 -1.2166
6.5103 -0.1300 -1.1591
6.5108 0.1220 -1.2361
6.5115 0.4385 -1.3355
6.5109 0.1851 -1.2557
6.5116 0.5021 -1.3559
6.5111 0.2483 -1.2754
6.5117 0.5659 -1.3764
6.5119 0.6298 -1.3971
6.5112 0.3116 -1.2953
6.5120 0.6939 -1.4180
6.5113 0.3750 -1.3153
6.5121 0.7581 -1.4390
6.5125 0.9521 -1.5034
6.5123 0.8226 -1.4603
6.5127 1.0173 -1.5252
6.5124 0.8873 -1.4817
6.5128 1.0827 -1.5473
6.5131 1.2142 -1.5921
6.5130 1.1483 -1.5696
6.5132 1.2805 -1.6148
6.5134 1.3470 -1.6378
6.5137 1.4812 -1.6844
6.5135 1.4139 -1.6610
6.5138 1.5487 -1.7082
6.5142 1.7539 -1.7809
6.5139 1.6167 -1.7321
6.5144 1.8231 -1.8057
6.5145 1.8928 -1.8309
6.5141 1.6851 -1.7564
6.5147 1.9630 -1.8563
6.5148 2.0336 -1.8820
6.5154 2.3216 -1.9882
6.5156 2.3950 -2.0156
6.5150 2.1048 -1.9081
6.5158 2.4690 -2.0434
6.5151 2.1765 -1.9344
6.5159 2.5437 -2.0716
6.5153 2.2487 -1.9611
6.5209 2.6210 -2.1017
6.5211 2.6971 -2.1307
6.5214 2.9298 -2.2201
6.5212 2.7739 -2.1601
6.5215 3.0089 -2.2508
6.5213 2.8515 -2.1899
6.5218 3.2515 -2.3458
6.5216 3.0889 -2.2820
6.5219 3.3341 -2.3784
6.5217 3.1697 -2.3136
6.5221 3.4177 -2.4116
6.5222 3.5024 -2.4453
6.5223 3.5880 -2.4796
6.5228 3.9417 -2.6227
6.5224 3.6747 -2.5145
6.5229 4.0331 -2.6600
6.5231 4.1257 -2.6981
6.5225 3.7625 -2.5499
6.5232 4.2197 -2.7368
6.5227 3.8515 -2.5860
6.5233 4.3151 -2.7763
6.5235 4.4119 -2.8165
6.5239 4.7114 -2.9419
6.5236 4.5102 -2.8575
6.5241 4.8144 -2.9854
6.5238 4.6100 -2.8993
6.5245 5.1342 -3.1213
6.5242 4.9192 -3.0297
6.5247 5.2445 -3.1685
6.5244 5.0258 -3.0750
6.5248 5.3569 -3.2168
6.5250 5.4713 -3.2661
6.5227 5.5858 -3.3153
6.5234 6.0754 -3.5290
6.5236 6.2042 -3.5857
6.5229 5.7046 -3.3669
6.5237 6.3357 -3.6437
6.5230 5.8257 -3.4197
6.5239 6.4701 -3.7032
6.5241 6.6075 -3.7643
6.5232 5.9493 -3.4737
6.5243 6.7481 -3.8269
6.5249 7.1900 -4.0251
6.5245 6.8919 -3.8912
6.5247 7.0392 -3.9573
6.5252 7.3446 -4.0948
6.5258 7.8328 -4.3163
6.5254 7.5032 -4.1666
6.5261 8.0043 -4.3945
6.5263 8.1805 -4.4752
6.5256 7.6658 -4.2403
6.5266 8.3618 -4.5583
6.5249 9.3479 -5.0139
6.5236 8.5439 -4.6417
6.5253 9.5651 -5.1150
6.5239 8.7359 -4.7302
6.5256 9.7896 -5.2198
6.5260 10.0216 -5.3284
6.5242 8.9337 -4.8217
6.5264 10.2617 -5.4410
6.5246 9.1376 -4.9162
6.5268 10.5104 -5.5578
6.5272 10.7682 -5.6793
6.5276 11.0357 -5.8055
6.5281 11.3134 -5.9369
6.5307 11.6058 -6.0756
6.5315 11.9068 -6.2186
17.6303 32.9819 -17.1865
17.3436 33.3090 -17.3186
6.5094 -1.5128 -0.4449
6.5094 -1.4468 -0.4626
6.5094 -1.3812 -0.4803
6.5095 -1.2506 -0.5157
6.5095 -1.3158 -0.4980
6.5095 -1.1857 -0.5335
6.5096 -0.9923 -0.5869
6.5095 -1.1210 -0.5513
6.5096 -0.9282 -0.6048
6.5095 -1.0566 -0.5691
6.5096 -0.8642 -0.6228
6.5097 -0.7368 -0.6588
6.5096 -0.8005 -0.6408
6.5097 -0.6733 -0.6769
6.5094 -0.4833 -0.7315
6.5097 -0.6099 -0.6950
6.5096 -0.4202 -0.7498
6.5097 -0.5466 -0.7132
6.5097 -0.3571 -0.7682
6.5100 -0.2311 -0.8053
6.5101 -0.1681 -0.8240
6.5098 -0.2941 -0.7867
6.5102 -0.1052 -0.8427
6.5105 0.0208 -0.8805
6.5104 -0.0422 -0.8616
6.5106 0.0838 -0.8995
6.5110 0.2732 -0.9572
6.5108 0.1469 -0.9186
6.5112 0.3365 -0.9767
6.5109 0.2100 -0.9379
6.5113 0.3999 -0.9963
6.5116 0.5269 -1.0358
6.5114 0.4633 -1.0160
6.5117 0.5907 -1.0558
6.5121 0.7829 -1.1165
6.5118 0.6546 -1.0759
6.5122 0.8473 -1.1371
6.5120 0.7186 -1.0961
6.5124 0.9119 -1.1578
6.5127 1.0418 -1.1996
6.5125 0.9767 -1.1786
6.5128 1.1071 -1.2208
6.5132 1.3047 -1.2855
6.5133 1.3712 -1.3075
6.5129 1.1727 -1.2422
6.5135 1.4380 -1.3296
6.5131 1.2386 -1.2638
6.5136 1.5052 -1.3520
6.5138 1.5726 -1.3745
6.5143 1.8466 -1.4670
6.5145 1.9161 -1.4908
6.5139 1.6405 -1.3973
6.5146 1.9862 -1.5148
6.5141 1.7088 -1.4203
6.5148 2.0566 -1.5390
6.5142 1.7775 -1.4436
6.5149 2.1277 -1.5635
6.5151 2.1992 -1.5883
6.5156 2.4172 -1.6645
6.5152 2.2713 -1.6134
6.5154 2.3439 -1.6388
6.5157 2.4910 -1.6904
6.5205 2.7182 -1.7716
6.5159 2.5655 -1.7168
6.5206 2.7948 -1.7989
6.5207 2.8721 -1.8266
6.5204 2.6423 -1.7446
6.5208 2.9501 -1.8547
6.5209 3.0290 -1.8832
6.5213 3.3529 -2.0012
6.5210 3.1087 -1.9121
6.5215 3.4361 -2.0318
6.5216 3.5204 -2.0629
6.5211 3.1892 -1.9414
6.5217 3.6056 -2.0944
6.5212 3.2706 -1.9711
6.5218 3.6919 -2.1264
6.5223 4.0484 -2.2599
6.5219 3.7793 -2.1590
6.5220 3.8678 -2.1921
6.5224 4.1405 -2.2947
6.5222 3.9575 -2.2257
6.5225 4.2340 -2.3300
6.5228 4.4249 -2.4027
6.5227 4.3287 -2.3660
6.5229 4.5226 -2.4400
6.5234 4.8247 -2.5562
6.5231 4.6217 -2.4780
6.5232 4.7224 -2.5167
6.5235 4.9287 -2.5964
6.5240 5.2515 -2.7220
6.5237 5.0345 -2.6374
6.5241 5.3629 -2.7656
6.5238 5.1421 -2.6793
6.5243 5.4763 -2.8101
6.5224 5.7078 -2.9010
6.5223 5.5901 -2.8546
6.5226 5.8278 -2.9485
6.5231 6.2025 -3.0975
6.5233 6.3326 -3.1496
6.5228 5.9502 -2.9971
6.5235 6.4656 -3.2028
6.5229 6.0751 -3.0467
6.5237 6.6014 -3.2574
6.5239 6.7403 -3.3134
6.5247 7.3293 -3.5521
6.5241 6.8824 -3.3708
6.5249 7.4857 -3.6158
6.5251 7.6460 -3.6813
6.5243 7.0278 -3.4296
6.5253 7.8105 -3.7487
6.5245 7.1767 -3.4900
6.5256 7.9795 -3.8180
6.5237 8.6995 -4.1150
6.5258 8.1530 -3.8894
6.5240 8.8938 -4.1956
6.5260 8.3313 -3.9629
6.5263 8.5147 -4.0387
6.5243 9.0940 -4.2788
6.5250 9.5135 -4.4537
6.5247 9.3005 -4.3648
6.5254 9.7334 -4.5456
6.5265 10.4388 -4.8416
6.5257 9.9606 -4.6408
6.5261 10.1956 -4.7394
6.5269 10.6907 -4.9477
6.5273 10.9519 -5.0579
6.5278 11.2228 -5.1724
6.5282 11.5041 -5.2915
6.5308 11.8005 -5.4172
6.5317 12.1055 -5.5468
6.5325 12.4233 -5.6820
6.5335 12.7546 -5.8231
6.5344 13.1004 -5.9707
6.5089 -1.4242 -0.1450
6.5089 -1.3584 -0.1633
6.5089 -1.2929 -0.1815
6.5089 -1.2277 -0.1998
6.5090 -1.1627 -0.2180
6.5090 -1.0979 -0.2363
6.5090 -1.0334 -0.2545
6.5090 -0.9690 -0.2727
6.5091 -0.9048 -0.2909
6.5091 -0.8408 -0.3092
6.5091 -0.7770 -0.3274
6.5091 -0.7133 -0.3457
6.5091 -0.6497 -0.3640
6.5092 -0.5863 -0.3823
6.5092 -0.5230 -0.4006
6.5092 -0.4597 -0.4190
6.5095 -0.3965 -0.4374
6.5097 -0.3334 -0.4559
6.5098 -0.2704 -0.4744
6.5099 -0.2074 -0.4929
6.5101 -0.1444 -0.5115
6.5102 -0.0814 -0.5301
6.5103 -0.0184 -0.5488
6.5105 0.0446 -0.5675
6.5106 0.1076 -0.5864
6.5107 0.1707 -0.6052
6.5109 0.2338 -0.6242
6.5110 0.2970 -0.6432
6.5111 0.3602 -0.6623
6.5113 0.4236 -0.6815
6.5114 0.4871 -0.7008
6.5115 0.5506 -0.7202
6.5117 0.6144 -0.7397
6.5118 0.6782 -0.7593
6.5119 0.7422 -0.7790
6.5121 0.8064 -0.7987
6.5122 0.8708 -0.8187
6.5123 0.9354 -0.8387
6.5125 1.0001 -0.8588
6.5126 1.0652 -0.8791
6.5128 1.1304 -0.8995
6.5129 1.1959 -0.9201
6.5130 1.2617 -0.9408
6.5132 1.3278 -0.9616
6.5133 1.3942 -0.9826
6.5135 1.4609 -1.0038
6.5136 1.5279 -1.0251
6.5137 1.5953 -1.0466
6.5139 1.6631 -1.0683
6.5140 1.7312 -1.0902
6.5142 1.7998 -1.1122
6.5143 1.8687 -1.1344
6.5145 1.9382 -1.1569
6.5146 2.0080 -1.1795
6.5148 2.0784 -1.2024
6.5149 2.1492 -1.2255
6.5151 2.2206 -1.2488
6.5152 2.2925 -1.2724
6.5154 2.3649 -1.2962
6.5155 2.4380 -1.3202
6.5157 2.5116 -1.3445
6.5197 2.5874 -1.3700
6.5200 2.8142 -1.4454
6.5201 2.8913 -1.4712
6.5198 2.6623 -1.3948
6.5202 2.9691 -1.4972
6.5199 2.7379 -1.4200
6.5203 3.0476 -1.5236
6.5204 3.1270 -1.5503
6.5209 3.4531 -1.6608
6.5205 3.2072 -1.5774
6.5210 3.5369 -1.6893
6.5206 3.2882 -1.6048
6.5211 3.6218 -1.7183
6.5208 3.3702 -1.6326
6.5212 3.7076 -1.7477
6.5213 3.7946 -1.7775
6.5218 4.1538 -1.9015
6.5214 3.8826 -1.8078
6.5219 4.2467 -1.9337
6.5220 4.3409 -1.9664
6.5215 3.9718 -1.8385
6.5222 4.4365 -1.9997
6.5217 4.0622 -1.8698
6.5223 4.5335 -2.0336
6.5228 4.9368 -2.1751
6.5224 4.6319 -2.0681
6.5226 4.7319 -2.1031
6.5230 5.0417 -2.2122
6.5227 4.8335 -2.1388
6.5231 5.1484 -2.2499
6.5234 5.3674 -2.3275
6.5233 5.2570 -2.2883
6.5236 5.4799 -2.3675
6.5219 5.5929 -2.4076
6.5222 5.8284 -2.4918
6.5221 5.7095 -2.4493
6.5224 5.9496 -2.5352
6.5229 6.3280 -2.6712
6.5225 6.0732 -2.5795
6.5231 6.4595 -2.7187
6.5232 6.5938 -2.7672
6.5227 6.1993 -2.6249
6.5234 6.7311 -2.8169
6.5236 6.8715 -2.8679
6.5244 7.4669 -3.0847
6.5238 7.0151 -2.9201
6.5246 7.6250 -3.1426
6.5240 7.1621 -2.9736
6.5248 7.7871 -3.2020
6.5250 7.9535 -3.2630
6.5242 7.3127 -3.0284
6.5253 8.1244 -3.3258
6.5238 8.8533 -3.5945
6.5255 8.2999 -3.3903
6.5257 8.4802 -3.4568
6.5241 9.0499 -3.6673
6.5235 8.6623 -3.5240
6.5244 9.2525 -3.7424
6.5251 9.6770 -3.9001
6.5248 9.4614 -3.8200
6.5255 9.8996 -3.9829
6.5266 10.6138 -4.2494
6.5258 10.1297 -4.0687
6.5262 10.3676 -4.1574
6.5270 10.8689 -4.3448
6.5274 11.1333 -4.4439
6.5279 11.4077 -4.5468
6.5302 11.6960 -4.6550
6.5310 11.9928 -4.7666
6.5318 12.3018 -4.8829
6.5327 12.6237 -5.0041
6.5336 12.9593 -5.1307
6.5346 13.3097 -5.2630
6.5084 -1.3362 0.1525
6.5084 -1.2706 0.1337
6.5084 -1.2053 0.1149
6.5084 -1.1403 0.0961
6.5084 -1.0754 0.0773
6.5085 -1.0108 0.0587
6.5085 -0.9464 0.0400
6.5085 -0.8822 0.0214
6.5085 -0.8181 0.0028
6.5086 -0.7542 -0.0158
6.5086 -0.6905 -0.0344
6.5086 -0.6269 -0.0529
6.5086 -0.5634 -0.0715
6.5087 -0.5000 -0.0900
6.5094 -0.4367 -0.1085
6.5095 -0.3735 -0.1271
6.5096 -0.3104 -0.1456
6.5098 -0.2473 -0.1641
6.5099 -0.1843 -0.1827
6.5100 -0.1213 -0.2012
6.5102 -0.0583 -0.2198
6.5103 0.0047 -0.2384
6.5104 0.0677 -0.2571
6.5106 0.1307 -0.2758
6.5107 0.1938 -0.2945
6.5108 0.2569 -0.3132
6.5110 0.3201 -0.3320
6.5111 0.3833 -0.3508
6.5112 0.4466 -0.3697
6.5114 0.5101 -0.3886
6.5115 0.5736 -0.4076
6.5116 0.6373 -0.4267
6.5118 0.7011 -0.4458
6.5119 0.7651 -0.4650
6.5120 0.8292 -0.4843
6.5122 0.8935 -0.5036
6.5123 0.9581 -0.5230
6.5124 1.0228 -0.5426
6.5126 1.0877 -0.5622
6.5127 1.1529 -0.5819
6.5129 1.2183 -0.6017
6.5130 1.2840 -0.6216
6.5131 1.3500 -0.6416
6.5133 1.4163 -0.6618
6.5134 1.4829 -0.6820
6.5136 1.5499 -0.7024
6.5137 1.6171 -0.7229
6.5138 1.6848 -0.7436
6.5140 1.7528 -0.7644
6.5141 1.8212 -0.7853
6.5143 1.8901 -0.8064
6.5144 1.9593 -0.8277
6.5146 2.0291 -0.8491
6.5147 2.0992 -0.8707
6.5149 2.1699 -0.8924
6.5150 2.2411 -0.9144
6.5152 2.3128 -0.9365
6.5153 2.3851 -0.9588
6.5155 2.4579 -0.9814
6.5156 2.5314 -1.0041
6.5192 2.6067 -1.0276
6.5193 2.6814 -1.0508
6.5194 2.7567 -1.0742
6.5195 2.8328 -1.0978
6.5196 2.9095 -1.1217
6.5197 2.9870 -1.1459
6.5198 3.0653 -1.1703
6.5199 3.1443 -1.1950
6.5200 3.2242 -1.2200
6.5201 3.3049 -1.2453
6.5202 3.3865 -1.2709
6.5203 3.4690 -1.2968
6.5204 3.5525 -1.3230
6.5205 3.6369 -1.3495
6.5206 3.7224 -1.3764
6.5207 3.8089 -1.4037
6.5208 3.8964 -1.4313
6.5209 3.9851 -1.4593
6.5211 4.0750 -1.4878
6.5212 4.1661 -1.5166
6.5213 4.2584 -1.5458
6.5214 4.3520 -1.5755
6.5215 4.4470 -1.6057
6.5217 4.5433 -1.6363
6.5218 4.6411 -1.6674
6.5219 4.7404 -1.6990
6.5220 4.8413 -1.7311
6.5222 4.9437 -1.7638
6.5223 5.0479 -1.7971
6.5224 5.1538 -1.8309
6.5226 5.2614 -1.8653
6.5227 5.3709 -1.9004
6.5229 5.4824 -1.9361
6.5215 5.5948 -1.9721
6.5217 5.7103 -2.0092
6.5218 5.8280 -2.0470
6.5220 5.9480 -2.0856
6.5221 6.0704 -2.1250
6.5223 6.1952 -2.1652
6.5225 6.3226 -2.2063
6.5226 6.4526 -2.2482
6.5228 6.5854 -2.2911
6.5230 6.7211 -2.3350
6.5232 6.8598 -2.3798
6.5233 7.0017 -2.4258
6.5235 7.1468 -2.4728
6.5237 7.2954 -2.5210
6.5239 7.4475 -2.5703
6.5241 7.6034 -2.6210
6.5243 7.7632 -2.6729
6.5245 7.9272 -2.7262
6.5248 8.0954 -2.7810
6.5250 8.2682 -2.8373
6.5252 8.4456 -2.8951
6.5233 8.6251 -2.9536
6.5236 8.8127 -3.0149
6.5239 9.0059 -3.0780
6.5242 9.2048 -3.1430
6.5245 9.4098 -3.2100
6.5249 9.6212 -3.2792
6.5252 9.8394 -3.3507
6.5256 10.0646 -3.4245
6.5259 10.2975 -3.5009
6.5263 10.5383 -3.5799
6.5267 10.7875 -3.6617
6.5271 11.0457 -3.7465
6.5276 11.3134 -3.8345
6.5295 11.5940 -3.9268
6.5303 11.8831 -4.0219
6.5311 12.1838 -4.1209
6.5320 12.4966 -4.2240
6.5329 12.8226 -4.3314
6.5338 13.1625 -4.4435
6.5348 13.5174 -4.5606
6.5078 -1.2486 0.4491
6.5079 -1.1832 0.4296
6.5079 -1.1180 0.4102
6.5079 -1.0531 0.3909
6.5079 -0.9884 0.3717
6.5080 -0.9240 0.3526
6.5080 -0.8597 0.3335
6.5080 -0.7956 0.3144
6.5080 -0.7316 0.2955
6.5081 -0.6679 0.2765
6.5081 -0.6042 0.2577
6.5081 -0.5407 0.2389
6.5081 -0.4773 0.2201
6.5094 -0.4140 0.2014
6.5095 -0.3508 0.1827
6.5096 -0.2877 0.1640
6.5097 -0.2246 0.1453
6.5099 -0.1615 0.1267
6.5100 -0.0985 0.1081
6.5101 -0.0355 0.0895
6.5103 0.0275 0.0709
6.5104 0.0905 0.0523
6.5105 0.1535 0.0337
6.5107 0.2166 0.0151
6.5108 0.2797 -0.0035
6.5109 0.3428 -0.0221
6.5111 0.4060 -0.0407
6.5112 0.4693 -0.0593
6.5113 0.5328 -0.0780
6.5115 0.5963 -0.0967
6.5116 0.6599 -0.1154
6.5117 0.7237 -0.1341
6.5119 0.7876 -0.1529
6.5120 0.8517 -0.1717
6.5121 0.9159 -0.1905
6.5123 0.9804 -0.2094
6.5124 1.0450 -0.2284
6.5126 1.1099 -0.2474
6.5127 1.1750 -0.2665
6.5128 1.2404 -0.2856
6.5130 1.3060 -0.3048
6.5131 1.3719 -0.3241
6.5132 1.4381 -0.3434
6.5134 1.5046 -0.3629
6.5135 1.5714 -0.3824
6.5137 1.6386 -0.4020
6.5138 1.7061 -0.4217
6.5139 1.7740 -0.4415
6.5141 1.8423 -0.4614
6.5142 1.9110 -0.4814
6.5144 1.9801 -0.5016
6.5145 2.0496 -0.5219
6.5147 2.1196 -0.5422
6.5148 2.1901 -0.5628
6.5150 2.2611 -0.5834
6.5151 2.3327 -0.6042
6.5153 2.4047 -0.6252
6.5154 2.4774 -0.6463
6.5156 2.5506 -0.6675
6.5186 2.6255 -0.6893
6.5187 2.7000 -0.7109
6.5188 2.7750 -0.7327
6.5189 2.8508 -0.7546
6.5190 2.9273 -0.7768
6.5191 3.0045 -0.7992
6.5192 3.0825 -0.8218
6.5193 3.1612 -0.8446
6.5194 3.2407 -0.8676
6.5195 3.3211 -0.8908
6.5196 3.4024 -0.9143
6.5197 3.4845 -0.9381
6.5198 3.5675 -0.9621
6.5199 3.6516 -0.9863
6.5200 3.7366 -1.0109
6.5201 3.8226 -1.0357
6.5202 3.9097 -1.0609
6.5203 3.9979 -1.0863
6.5204 4.0873 -1.1121
6.5206 4.1778 -1.1382
6.5207 4.2696 -1.1646
6.5208 4.3626 -1.1914
6.5209 4.4570 -1.2186
6.5210 4.5527 -1.2461
6.5211 4.6499 -1.2740
6.5213 4.7485 -1.3024
6.5214 4.8486 -1.3312
6.5215 4.9503 -1.3604
6.5216 5.0536 -1.3901
6.5218 5.1586 -1.4203
6.5219 5.2654 -1.4509
6.5220 5.3741 -1.4821
6.5222 5.4846 -1.5138
6.5212 5.5961 -1.5458
6.5213 5.7107 -1.5786
6.5214 5.8273 -1.6120
6.5216 5.9462 -1.6461
6.5217 6.0673 -1.6808
6.5219 6.1908 -1.7162
6.5221 6.3169 -1.7522
6.5222 6.4455 -1.7890
6.5224 6.5768 -1.8266
6.5226 6.7109 -1.8650
6.5227 6.8480 -1.9041
6.5229 6.9881 -1.9442
6.5231 7.1314 -1.9851
6.5233 7.2781 -2.0270
6.5235 7.4282 -2.0699
6.5237 7.5820 -2.1138
6.5239 7.7395 -2.1587
6.5241 7.9010 -2.2048
6.5243 8.0668 -2.2521
6.5245 8.2368 -2.3006
6.5247 8.4115 -2.3504
6.5231 8.5884 -2.4008
6.5234 8.7729 -2.4534
6.5237 8.9627 -2.5075
6.5240 9.1580 -2.5631
6.5243 9.3592 -2.6204
6.5246 9.5666 -2.6794
6.5250 9.7804 -2.7403
6.5253 10.0012 -2.8031
6.5257 10.2291 -2.8679
6.5261 10.4647 -2.9349
6.5264 10.7084 -3.0042
6.5268 10.9606 -3.0759
6.5272 11.2219 -3.1501
6.5277 11.4929 -3.2271
6.5297 11.7770 -3.3077
6.5305 12.0697 -3.3909
6.5313 12.3741 -3.4773
6.5322 12.6908 -3.5672
6.5331 13.0209 -3.6609
6.5340 13.3651 -3.7585
6.5349 13.7245 -3.8605
6.5073 -1.1609 0.7459
6.5073 -1.0957 0.7258
6.5074 -1.0307 0.7059
6.5074 -0.9659 0.6861
6.5074 -0.9014 0.6664
6.5074 -0.8371 0.6467
6.5075 -0.7729 0.6272
6.5075 -0.7089 0.6078
6.5075 -0.6451 0.5884
6.5075 -0.5814 0.5692
6.5076 -0.5179 0.5500
6.5076 -0.4544 0.5309
6.5093 -0.3912 0.5120
6.5095 -0.3279 0.4931
6.5096 -0.2648 0.4742
6.5097 -0.2017 0.4553
6.5099 -0.1386 0.4365
6.5100 -0.0756 0.4178
6.5101 -0.0126 0.3991
6.5102 0.0504 0.3805
6.5104 0.1134 0.3619
6.5105 0.1764 0.3433
6.5106 0.2395 0.3248
6.5108 0.3025 0.3063
6.5109 0.3656 0.2878
6.5110 0.4289 0.2693
6.5112 0.4921 0.2509
6.5113 0.5555 0.2325
6.5114 0.6190 0.2141
6.5116 0.6825 0.1957
6.5117 0.7463 0.1772
6.5118 0.8101 0.1588
6.5120 0.8742 0.1404
6.5121 0.9383 0.1220
6.5122 1.0027 0.1035
6.5124 1.0673 0.0851
6.5125 1.1321 0.0666
6.5127 1.1971 0.0481
6.5128 1.2624 0.0296
6.5129 1.3279 0.0110
6.5131 1.3937 -0.0076
6.5132 1.4598 -0.0262
6.5133 1.5262 -0.0449
6.5135 1.5929 -0.0636
6.5136 1.6600 -0.0824
6.5138 1.7274 -0.1012
6.5139 1.7951 -0.1201
6.5141 1.8633 -0.1391
6.5142 1.9318 -0.1581
6.5143 2.0008 -0.1772
6.5145 2.0702 -0.1964
6.5146 2.1400 -0.2157
6.5148 2.2103 -0.2351
6.5149 2.2812 -0.2545
6.5151 2.3525 -0.2741
6.5152 2.4244 -0.2937
6.5154 2.4968 -0.3135
6.5155 2.5698 -0.3334
6.5181 2.6443 -0.3535
6.5182 2.7185 -0.3736
6.5183 2.7933 -0.3939
6.5184 2.8688 -0.4143
6.5185 2.9450 -0.4348
6.5186 3.0219 -0.4555
6.5187 3.0996 -0.4763
6.5188 3.1780 -0.4973
6.5188 3.2572 -0.5185
6.5189 3.3372 -0.5398
6.5190 3.4181 -0.5613
6.5191 3.4999 -0.5830
6.5192 3.5825 -0.6049
6.5193 3.6661 -0.6271
6.5194 3.7507 -0.6494
6.5195 3.8363 -0.6719
6.5196 3.9230 -0.6947
6.5197 4.0107 -0.7177
6.5199 4.0996 -0.7409
6.5200 4.1896 -0.7644
6.5201 4.2808 -0.7882
6.5202 4.3732 -0.8123
6.5203 4.4670 -0.8366
6.5204 4.5621 -0.8613
6.5205 4.6586 -0.8862
6.5206 4.7565 -0.9115
6.5207 4.8559 -0.9371
6.5209 4.9568 -0.9630
6.5210 5.0594 -0.9893
6.5211 5.1636 -1.0160
6.5212 5.2695 -1.0431
6.5214 5.3772 -1.0706
6.5215 5.4868 -1.0985
6.5208 5.5977 -1.1267
6.5209 5.7111 -1.1555
6.5211 5.8267 -1.1847
6.5212 5.9444 -1.2145
6.5214 6.0644 -1.2448
6.5215 6.1867 -1.2756
6.5217 6.3114 -1.3069
6.5218 6.4386 -1.3389
6.5220 6.5685 -1.3714
6.5221 6.7011 -1.4046
6.5223 6.8366 -1.4384
6.5225 6.9750 -1.4729
6.5227 7.1165 -1.5081
6.5228 7.2613 -1.5441
6.5230 7.4095 -1.5808
6.5232 7.5611 -1.6184
6.5234 7.7165 -1.6568
6.5236 7.8757 -1.6961
6.5238 8.0390 -1.7363
6.5240 8.2065 -1.7775
6.5242 8.3784 -1.8197
6.5229 8.5528 -1.8626
6.5232 8.7343 -1.9070
6.5235 8.9208 -1.9526
6.5238 9.1127 -1.9995
6.5241 9.3103 -2.0476
6.5244 9.5138 -2.0972
6.5247 9.7235 -2.1482
6.5251 9.9399 -2.2007
6.5254 10.1632 -2.2548
6.5258 10.3938 -2.3106
6.5262 10.6321 -2.3683
6.5265 10.8787 -2.4278
6.5269 11.1339 -2.4894
6.5274 11.3984 -2.5530
6.5291 11.6750 -2.6195
6.5299 11.9602 -2.6880
6.5307 12.2565 -2.7591
6.5315 12.5646 -2.8329
6.5323 12.8853 -2.9097
6.5332 13.2194 -2.9896
6.5342 13.5679 -3.0728
6.5351 13.9318 -3.1596
6.5068 -1.0727 1.0443
6.5068 -1.0077 1.0236
6.5069 -0.9429 1.0031
6.5069 -0.8783 0.9828
6.5069 -0.8139 0.9626
6.5069 -0.7497 0.9425
6.5070 -0.6857 0.9225
6.5070 -0.6218 0.9027
6.5070 -0.5581 0.8830
6.5070 -0.4945 0.8634
6.5092 -0.4312 0.8442
6.5093 -0.3678 0.8248
6.5094 -0.3046 0.8055
6.5096 -0.2414 0.7863
6.5097 -0.1783 0.7673
6.5098 -0.1152 0.7483
6.5100 -0.0522 0.7294
6.5101 0.0108 0.7105
6.5102 0.0738 0.6918
6.5104 0.1368 0.6731
6.5105 0.1998 0.6545
6.5106 0.2628 0.6360
6.5107 0.3258 0.6175
6.5109 0.3889 0.5991
6.5110 0.4521 0.5807
6.5111 0.5153 0.5624
6.5113 0.5787 0.5441
6.5114 0.6421 0.5259
6.5115 0.7056 0.5077
6.5117 0.7693 0.4896
6.5118 0.8331 0.4714
6.5119 0.8971 0.4533
6.5121 0.9612 0.4353
6.5122 1.0255 0.4172
6.5124 1.0900 0.3992
6.5125 1.1547 0.3812
6.5126 1.2197 0.3632
6.5128 1.2849 0.3452
6.5129 1.3503 0.3273
6.5130 1.4160 0.3093
6.5132 1.4820 0.2913
6.5133 1.5482 0.2733
6.5135 1.6148 0.2553
6.5136 1.6818 0.2373
6.5137 1.7490 0.2192
6.5139 1.8166 0.2012
6.5140 1.8846 0.1831
6.5142 1.9530 0.1650
6.5143 2.0218 0.1468
6.5145 2.0911 0.1286
6.5146 2.1607 0.1104
6.5147 2.2309 0.0921
6.5149 2.3015 0.0738
6.5150 2.3727 0.0554
6.5152 2.4443 0.0370
6.5153 2.5166 0.0185
6.5175 2.5900 -0.0001
6.5176 2.6634 -0.0188
6.5177 2.7373 -0.0375
6.5178 2.8119 -0.0563
6.5178 2.8872 -0.0752
6.5179 2.9631 -0.0942
6.5180 3.0397 -0.1133
6.5181 3.1171 -0.1324
6.5182 3.1952 -0.1517
6.5183 3.2740 -0.1711
6.5184 3.3537 -0.1907
6.5185 3.4342 -0.2103
6.5186 3.5156 -0.2301
6.5187 3.5979 -0.2500
6.5188 3.6811 -0.2701
6.5189 3.7653 -0.2903
6.5190 3.8504 -0.3106
6.5191 3.9366 -0.3311
6.5192 4.0239 -0.3518
6.5193 4.1122 -0.3727
6.5194 4.2017 -0.3938
6.5195 4.2924 -0.4150
6.5196 4.3843 -0.4364
6.5197 4.4774 -0.4581
6.5198 4.5719 -0.4800
6.5199 4.6677 -0.5021
6.5200 4.7650 -0.5244
6.5201 4.8637 -0.5470
6.5202 4.9639 -0.5698
6.5203 5.0657 -0.5929
6.5205 5.1690 -0.6163
6.5206 5.2741 -0.6400
6.5207 5.3810 -0.6640
6.5208 5.4896 -0.6883
6.5204 5.5998 -0.7128
6.5206 5.7122 -0.7378
6.5207 5.8267 -0.7631
6.5208 5.9434 -0.7888
6.5210 6.0622 -0.8148
6.5211 6.1832 -0.8413
6.5213 6.3067 -0.8682
6.5214 6.4326 -0.8955
6.5216 6.5610 -0.9233
6.5217 6.6922 -0.9515
6.5219 6.8261 -0.9802
6.5221 6.9629 -1.0095
6.5222 7.1027 -1.0393
6.5224 7.2456 -1.0697
6.5226 7.3919 -1.1006
6.5228 7.5416 -1.1322
6.5229 7.6948 -1.1644
6.5231 7.8518 -1.1973
6.5233 8.0127 -1.2309
6.5235 8.1777 -1.2652
6.5237 8.3469 -1.3003
6.5239 8.5207 -1.3363
6.5230 8.6975 -1.3728
6.5233 8.8810 -1.4105
6.5236 9.0695 -1.4491
6.5239 9.2636 -1.4887
6.5242 9.4634 -1.5294
6.5245 9.6692 -1.5711
6.5248 9.8813 -1.6140
6.5252 10.1002 -1.6582
6.5255 10.3260 -1.7036
6.5259 10.5593 -1.7503
6.5263 10.8005 -1.7986
6.5267 11.0499 -1.8483
6.5271 11.3082 -1.8997
6.5275 11.5758 -1.9527
6.5293 11.8558 -2.0080
6.5300 12.1444 -2.0649
6.5308 12.4443 -2.1239
6.5316 12.7562 -2.1850
6.5325 13.0808 -2.2485
6.5334 13.4190 -2.3145
6.5343 13.7718 -2.3832
6.5353 14.1402 -2.4548
6.5063 -0.9837 1.3455
6.5063 -0.9188 1.3243
6.5063 -0.8542 1.3032
6.5064 -0.7898 1.2823
6.5064 -0.7255 1.2616
6.5064 -0.6615 1.2411
6.5064 -0.5976 1.2207
6.5065 -0.5339 1.2004
6.5065 -0.4703 1.1804
6.5091 -0.4069 1.1609
6.5093 -0.3436 1.1411
6.5094 -0.2803 1.1214
6.5095 -0.2171 1.1019
6.5097 -0.1540 1.0825
6.5098 -0.0909 1.0633
6.5099 -0.0279 1.0441
6.5101 0.0351 1.0251
6.5102 0.0981 1.0061
6.5103 0.1610 0.9873
6.5105 0.2240 0.9686
6.5106 0.2870 0.9500
6.5107 0.3500 0.9315
6.5109 0.4131 0.9131
6.5110 0.4762 0.8947
6.5111 0.5394 0.8765
6.5113 0.6027 0.8583
6.5114 0.6661 0.8402
6.5115 0.7296 0.8222
6.5117 0.7932 0.8042
6.5118 0.8569 0.7864
6.5119 0.9208 0.7685
6.5121 0.9849 0.7508
6.5122 1.0491 0.7331
6.5123 1.1135 0.7154
6.5125 1.1782 0.6978
6.5126 1.2430 0.6803
6.5127 1.3081 0.6628
6.5129 1.3734 0.6453
6.5130 1.4390 0.6279
6.5131 1.5049 0.6105
6.5133 1.5711 0.5931
6.5134 1.6375 0.5757
6.5136 1.7043 0.5584
6.5137 1.7715 0.5411
6.5138 1.8389 0.5238
6.5140 1.9068 0.5065
6.5141 1.9750 0.4893
6.5143 2.0437 0.4720
6.5144 2.1128 0.4548
6.5146 2.1823 0.4375
6.5147 2.2522 0.4202
6.5149 2.3227 0.4030
6.5150 2.3936 0.3857
6.5151 2.4651 0.3684
6.5153 2.5371 0.3511
6.5170 2.6102 0.3338
6.5170 2.6833 0.3164
6.5171 2.7570 0.2990
6.5172 2.8313 0.2816
6.5173 2.9063 0.2641
6.5174 2.9819 0.2466
6.5175 3.0583 0.2290
6.5176 3.1353 0.2114
6.5176 3.2131 0.1937
6.5177 3.2916 0.1760
6.5178 3.3710 0.1582
6.5179 3.4512 0.1403
6.5180 3.5322 0.1224
6.5181 3.6141 0.1044
6.5182 3.6969 0.0863
6.5183 3.7806 0.0681
6.5184 3.8654 0.0498
6.5185 3.9511 0.0314
6.5186 4.0379 0.0129
6.5187 4.1257 -0.0057
6.5188 4.2147 -0.0244
6.5189 4.3048 -0.0432
6.5190 4.3962 -0.0622
6.5191 4.4888 -0.0813
6.5192 4.5826 -0.1005
6.5193 4.6778 -0.1199
6.5194 4.7744 -0.1394
6.5195 4.8724 -0.1591
6.5196 4.9719 -0.1790
6.5197 5.0729 -0.1990
6.5198 5.1755 -0.2193
6.5199 5.2798 -0.2397
6.5200 5.3857 -0.2603
6.5202 5.4935 -0.2812
6.5201 5.6030 -0.3022
6.5202 5.7145 -0.3235
6.5203 5.8279 -0.3451
6.5205 5.9435 -0.3668
6.5206 6.0611 -0.3889
6.5208 6.1810 -0.4112
6.5209 6.3032 -0.4339
6.5210 6.4279 -0.4568
6.5212 6.5549 -0.4800
6.5213 6.6846 -0.5036
6.5215 6.8170 -0.5275
6.5217 6.9523 -0.5518
6.5218 7.0904 -0.5765
6.5220 7.2316 -0.6015
6.5222 7.3760 -0.6270
6.5223 7.5238 -0.6529
6.5225 7.6749 -0.6792
6.5227 7.8298 -0.7060
6.5229 7.9884 -0.7333
6.5231 8.1510 -0.7612
6.5233 8.3177 -0.7896
6.5234 8.4888 -0.8185
6.5228 8.6632 -0.8480
6.5231 8.8436 -0.8782
6.5234 9.0291 -0.9090
6.5237 9.2198 -0.9406
6.5240 9.4160 -0.9729
6.5243 9.6180 -1.0060
6.5246 9.8262 -1.0399
6.5249 10.0407 -1.0746
6.5253 10.2620 -1.1103
6.5256 10.4905 -1.1469
6.5260 10.7265 -1.1845
6.5264 10.9705 -1.2232
6.5268 11.2229 -1.2631
6.5272 11.4842 -1.3041
6.5287 11.7570 -1.3466
6.5294 12.0384 -1.3904
6.5302 12.3305 -1.4356
6.5310 12.6340 -1.4823
6.5318 12.9496 -1.5307
6.5327 13.2782 -1.5808
6.5336 13.6206 -1.6329
6.5345 13.9777 -1.6869
6.5355 14.3507 -1.7431
6.5057 -0.8934 1.6511
6.5058 -0.8287 1.6292
6.5058 -0.7643 1.6076
6.5058 -0.7000 1.5861
6.5059 -0.6359 1.5649
6.5059 -0.5720 1.5439
6.5059 -0.5083 1.5230
6.5059 -0.4447 1.5024
6.5091 -0.3813 1.4826
6.5092 -0.3180 1.4624
6.5094 -0.2547 1.4423
6.5095 -0.1915 1.4223
6.5096 -0.1284 1.4026
6.5098 -0.0653 1.3829
6.5099 -0.0023 1.3635
6.5100 0.0607 1.3442
6.5102 0.1236 1.3250
6.5103 0.1866 1.3060
6.5104 0.2495 1.2871
6.5106 0.3125 1.2684
6.5107 0.3755 1.2497
6.5108 0.4385 1.2312
6.5110 0.5016 1.2129
6.5111 0.5647 1.1946
6.5112 0.6280 1.1765
6.5114 0.6913 1.1585
6.5115 0.7547 1.1405
6.5116 0.8183 1.1227
6.5118 0.8820 1.1050
6.5119 0.9458 1.0874
6.5120 1.0098 1.0699
6.5122 1.0739 1.0525
6.5123 1.1383 1.0351
6.5124 1.2028 1.0179
6.5126 1.2676 1.0007
6.5127 1.3326 0.9836
6.5128 1.3978 0.9666
6.5130 1.4633 0.9496
6.5131 1.5290 0.9328
6.5132 1.5951 0.9160
6.5134 1.6614 0.8992
6.5135 1.7281 0.8825
6.5137 1.7951 0.8659
6.5138 1.8625 0.8493
6.5139 1.9302 0.8328
6.5141 1.9983 0.8163
6.5142 2.0668 0.7999
6.5144 2.1357 0.7835
6.5145 2.2050 0.7671
6.5147 2.2748 0.7508
6.5148 2.3451 0.7345
6.5150 2.4158 0.7183
6.5151 2.4871 0.7021
6.5153 2.5588 0.6859
6.5164 2.6315 0.6698
6.5165 2.7044 0.6536
6.5166 2.7779 0.6375
6.5167 2.8519 0.6213
6.5168 2.9266 0.6052
6.5168 3.0020 0.5890
6.5169 3.0781 0.5729
6.5170 3.1548 0.5568
6.5171 3.2323 0.5406
6.5172 3.3105 0.5245
6.5173 3.3895 0.5083
6.5174 3.4693 0.4922
6.5174 3.5500 0.4760
6.5175 3.6315 0.4598
6.5176 3.7139 0.4435
6.5177 3.7973 0.4273
6.5178 3.8816 0.4110
6.5179 3.9669 0.3947
6.5180 4.0532 0.3783
6.5181 4.1406 0.3619
6.5182 4.2290 0.3454
6.5183 4.3186 0.3289
6.5184 4.4094 0.3123
6.5185 4.5014 0.2957
6.5186 4.5947 0.2789
6.5187 4.6893 0.2622
6.5188 4.7852 0.2453
6.5189 4.8826 0.2284
6.5190 4.9813 0.2113
6.5191 5.0816 0.1942
6.5192 5.1835 0.1770
6.5193 5.2869 0.1597
6.5194 5.3921 0.1423
6.5195 5.4989 0.1247
6.5197 5.6078 0.1071
6.5198 5.7183 0.0893
6.5200 5.8308 0.0713
6.5201 5.9453 0.0532
6.5202 6.0619 0.0350
6.5204 6.1806 0.0166
6.5205 6.3016 -0.0019
6.5207 6.4250 -0.0206
6.5208 6.5507 -0.0396
6.5210 6.6791 -0.0587
6.5211 6.8100 -0.0780
6.5213 6.9437 -0.0975
6.5214 7.0802 -0.1173
6.5216 7.2198 -0.1372
6.5217 7.3624 -0.1575
6.5219 7.5083 -0.1780
6.5221 7.6575 -0.1987
6.5222 7.8102 -0.2198
6.5224 7.9667 -0.2411
6.5226 8.1269 -0.2628
6.5228 8.2912 -0.2848
6.5230 8.4597 -0.3072
6.5226 8.6318 -0.3298
6.5229 8.8094 -0.3530
6.5232 8.9918 -0.3765
6.5235 9.1793 -0.4004
6.5238 9.3721 -0.4248
6.5241 9.5706 -0.4497
6.5244 9.7749 -0.4751
6.5247 9.9854 -0.5010
6.5250 10.2024 -0.5275
6.5254 10.4262 -0.5545
6.5257 10.6573 -0.5822
6.5261 10.8961 -0.6106
6.5265 11.1429 -0.6397
6.5269 11.3983 -0.6694
6.5281 11.6642 -0.7001
6.5288 11.9388 -0.7316
6.5296 12.2236 -0.7639
6.5303 12.5192 -0.7973
6.5311 12.8264 -0.8316
6.5320 13.1458 -0.8670
6.5328 13.4784 -0.9036
6.5337 13.8250 -0.9414
6.5347 14.1866 -0.9805
6.5253 14.5411 -1.0195
6.5052 -0.8014 1.9623
6.5052 -0.7369 1.9398
6.5053 -0.6726 1.9176
6.5053 -0.6086 1.8956
6.5053 -0.5446 1.8739
6.5053 -0.4809 1.8524
6.5089 -0.4175 1.8321
6.5091 -0.3540 1.8110
6.5092 -0.2906 1.7902
6.5093 -0.2273 1.7696
6.5095 -0.1641 1.7491
6.5096 -0.1010 1.7289
6.5097 -0.0380 1.7089
6.5099 0.0250 1.6890
6.5100 0.0880 1.6694
6.5101 0.1509 1.6499
6.5103 0.2138 1.6306
6.5104 0.2767 1.6115
6.5105 0.3397 1.5926
6.5107 0.4026 1.5738
6.5108 0.4656 1.5551
6.5109 0.5286 1.5367
6.5111 0.5917 1.5184
6.5112 0.6549 1.5002
6.5113 0.7182 1.4822
6.5115 0.7816 1.4643
6.5116 0.8450 1.4466
6.5117 0.9087 1.4290
6.5119 0.9724 1.4115
6.5120 1.0363 1.3942
6.5121 1.1004 1.3769
6.5123 1.1647 1.3599
6.5124 1.2291 1.3429
6.5125 1.2938 1.3260
6.5127 1.3587 1.3093
6.5128 1.4238 1.2927
6.5129 1.4892 1.2762
6.5131 1.5548 1.2597
6.5132 1.6208 1.2434
6.5134 1.6870 1.2272
6.5135 1.7535 1.2111
6.5136 1.8204 1.1951
6.5138 1.8876 1.1792
6.5139 1.9552 1.1633
6.5141 2.0231 1.1476
6.5142 2.0914 1.1319
6.5143 2.1602 1.1163
6.5145 2.2294 1.1008
6.5146 2.2990 1.0854
6.5148 2.3690 1.0700
6.5149 2.4396 1.0548
6.5151 2.5107 1.0396
6.5158 2.5824 1.0245
6.5159 2.6545 1.0094
6.5160 2.7271 0.9944
6.5161 2.8004 0.9794
6.5161 2.8742 0.9645
6.5162 2.9487 0.9496
6.5163 3.0237 0.9348
6.5164 3.0995 0.9201
6.5165 3.1760 0.9053
6.5165 3.2531 0.8907
6.5166 3.3310 0.8761
6.5167 3.4097 0.8615
6.5168 3.4892 0.8469
6.5169 3.5695 0.8324
6.5170 3.6507 0.8179
6.5171 3.7327 0.8035
6.5171 3.8156 0.7891
6.5172 3.8995 0.7747
6.5173 3.9844 0.7603
6.5174 4.0702 0.7460
6.5175 4.1572 0.7316
6.5176 4.2451 0.7173
6.5177 4.3343 0.7030
6.5178 4.4245 0.6887
6.5179 4.5160 0.6744
6.5180 4.6087 0.6602
6.5180 4.7026 0.6459
6.5181 4.7980 0.6316
6.5182 4.8946 0.6173
6.5183 4.9927 0.6030
6.5184 5.0923 0.5887
6.5185 5.1934 0.5744
6.5186 5.2961 0.5601
6.5187 5.4004 0.5457
6.5188 5.5065 0.5314
6.5194 5.6147 0.5170
6.5195 5.7243 0.5025
6.5196 5.8358 0.4881
6.5197 5.9493 0.4736
6.5199 6.0648 0.4590
6.5200 6.1825 0.4444
6.5201 6.3023 0.4298
6.5203 6.4245 0.4151
6.5204 6.5490 0.4003
6.5206 6.6760 0.3855
6.5207 6.8055 0.3706
6.5208 6.9377 0.3556
6.5210 7.0727 0.3406
6.5212 7.2106 0.3254
6.5213 7.3515 0.3102
6.5215 7.4956 0.2949
6.5216 7.6430 0.2795
6.5218 7.7937 0.2639
6.5220 7.9481 0.2483
6.5221 8.1061 0.2325
6.5223 8.2681 0.2166
6.5225 8.4341 0.2005
6.5225 8.6040 0.1843
6.5227 8.7789 0.1679
6.5230 8.9584 0.1514
6.5233 9.1428 0.1347
6.5236 9.3324 0.1178
6.5239 9.5274 0.1007
6.5242 9.7281 0.0834
6.5245 9.9347 0.0658
6.5248 10.1476 0.0480
6.5251 10.3671 0.0300
6.5255 10.5936 0.0117
6.5259 10.8273 -0.0069
6.5262 11.0689 -0.0258
6.5266 11.3186 -0.0450
6.5270 11.5770 -0.0646
6.5283 11.8462 -0.0846
6.5290 12.1240 -0.1049
6.5297 12.4123 -0.1257
6.5305 12.7115 -0.1469
6.5313 13.0224 -0.1686
6.5321 13.3458 -0.1908
6.5330 13.6825 -0.2135
6.5339 14.0334 -0.2368
6.5349 14.3994 -0.2608
6.5266 14.7606 -0.2850
6.5046 -0.7073 2.2808
6.5047 -0.6430 2.2577
6.5047 -0.5789 2.2349
6.5047 -0.5150 2.2123
6.5048 -0.4512 2.1900
6.5089 -0.3879 2.1694
6.5091 -0.3243 2.1477
6.5092 -0.2610 2.1262
6.5093 -0.1977 2.1050
6.5095 -0.1345 2.0840
6.5096 -0.0714 2.0632
6.5097 -0.0084 2.0427
6.5099 0.0546 2.0224
6.5100 0.1175 2.0023
6.5101 0.1804 1.9825
6.5102 0.2433 1.9629
6.5104 0.3061 1.9434
6.5105 0.3690 1.9242
6.5106 0.4319 1.9052
6.5108 0.4949 1.8864
6.5109 0.5579 1.8677
6.5110 0.6209 1.8493
6.5112 0.6840 1.8310
6.5113 0.7472 1.8129
6.5114 0.8105 1.7950
6.5116 0.8740 1.7773
6.5117 0.9375 1.7598
6.5118 1.0012 1.7424
6.5120 1.0650 1.7252
6.5121 1.1290 1.7081
6.5122 1.1932 1.6912
6.5124 1.2575 1.6745
6.5125 1.3221 1.6579
6.5126 1.3869 1.6414
6.5128 1.4519 1.6252
6.5129 1.5172 1.6090
6.5131 1.5827 1.5930
6.5132 1.6485 1.5771
6.5133 1.7146 1.5614
6.5135 1.7810 1.5458
6.5136 1.8478 1.5304
6.5137 1.9148 1.5150
6.5139 1.9823 1.4998
6.5140 2.0501 1.4848
6.5142 2.1182 1.4698
6.5143 2.1868 1.4550
6.5145 2.2558 1.4402
6.5146 2.3252 1.4256
6.5147 2.3951 1.4112
6.5149 2.4655 1.3968
6.5150 2.5364 1.3825
6.5153 2.6077 1.3684
6.5153 2.6796 1.3543
6.5154 2.7520 1.3404
6.5155 2.8250 1.3265
6.5156 2.8986 1.3128
6.5157 2.9728 1.2991
6.5157 3.0476 1.2856
6.5158 3.1231 1.2722
6.5159 3.1993 1.2588
6.5160 3.2762 1.2455
6.5161 3.3538 1.2324
6.5161 3.4321 1.2193
6.5162 3.5113 1.2063
6.5163 3.5912 1.1934
6.5164 3.6720 1.1806
6.5165 3.7537 1.1679
6.5166 3.8362 1.1552
6.5166 3.9197 1.1427
6.5167 4.0042 1.1302
6.5168 4.0896 1.1178
6.5169 4.1761 1.1055
6.5170 4.2636 1.0932
6.5171 4.3522 1.0811
6.5172 4.4419 1.0690
6.5172 4.5329 1.0570
6.5173 4.6250 1.0450
6.5174 4.7184 1.0332
6.5175 4.8131 1.0214
6.5176 4.9092 1.0097
6.5177 5.0066 0.9980
6.5178 5.1055 0.9864
6.5179 5.2059 0.9749
6.5180 5.3078 0.9635
6.5181 5.4114 0.9521
6.5182 5.5166 0.9408
6.5190 5.6242 0.9296
6.5191 5.7330 0.9184
6.5193 5.8436 0.9073
6.5194 5.9561 0.8962
6.5195 6.0706 0.8852
6.5196 6.1872 0.8743
6.5198 6.3059 0.8634
6.5199 6.4269 0.8526
6.5200 6.5502 0.8419
6.5202 6.6759 0.8312
6.5203 6.8041 0.8205
6.5204 6.9349 0.8099
6.5206 7.0684 0.7994
6.5207 7.2048 0.7889
6.5209 7.3441 0.7785
6.5210 7.4864 0.7682
6.5212 7.6320 0.7579
6.5214 7.7808 0.7476
6.5215 7.9331 0.7374
6.5217 8.0891 0.7273
6.5219 8.2488 0.7172
6.5220 8.4125 0.7072
6.5222 8.5803 0.6972
6.5226 8.7526 0.6873
6.5228 8.9294 0.6774
6.5231 9.1109 0.6676
6.5234 9.2974 0.6579
6.5237 9.4891 0.6482
6.5240 9.6863 0.6386
6.5243 9.8892 0.6290
6.5246 10.0983 0.6195
6.5249 10.3136 0.6100
6.5253 10.5357 0.6006
6.5256 10.7648 0.5913
6.5260 11.0013 0.5820
6.5263 11.2457 0.5727
6.5267 11.4984 0.5636
6.5277 11.7611 0.5545
6.5284 12.0325 0.5455
6.5292 12.3137 0.5365
6.5299 12.6054 0.5276
6.5307 12.9083 0.5188
6.5315 13.2231 0.5101
6.5323 13.5505 0.5014
6.5332 13.8913 0.4928
6.5341 14.2466 0.4843
6.5274 14.6001 0.4753
6.5278 14.9854 0.4669
6.5041 -0.6105 2.6082
6.5041 -0.5464 2.5845
6.5041 -0.4825 2.5610
6.5088 -0.4191 2.5397
6.5089 -0.3554 2.5169
6.5090 -0.2919 2.4944
6.5092 -0.2286 2.4722
6.5093 -0.1653 2.4503
6.5094 -0.1022 2.4287
6.5096 -0.0391 2.4073
6.5097 0.0239 2.3862
6.5098 0.0868 2.3654
6.5100 0.1497 2.3448
6.5101 0.2126 2.3245
6.5102 0.2754 2.3045
6.5104 0.3382 2.2847
6.5105 0.4011 2.2651
6.5106 0.4639 2.2458
6.5108 0.5268 2.2267
6.5109 0.5897 2.2078
6.5110 0.6527 2.1892
6.5112 0.7158 2.1707
6.5113 0.7789 2.1525
6.5114 0.8422 2.1346
6.5116 0.9055 2.1168
6.5117 0.9690 2.0992
6.5118 1.0326 2.0818
6.5120 1.0963 2.0647
6.5121 1.1602 2.0477
6.5122 1.2243 2.0310
6.5124 1.2886 2.0144
6.5125 1.3530 1.9980
6.5126 1.4177 1.9818
6.5128 1.4826 1.9658
6.5129 1.5478 1.9500
6.5130 1.6132 1.9343
6.5132 1.6789 1.9188
6.5133 1.7449 1.9035
6.5134 1.8112 1.8884
6.5136 1.8778 1.8734
6.5137 1.9447 1.8586
6.5139 2.0120 1.8440
6.5140 2.0796 1.8296
6.5141 2.1476 1.8153
6.5143 2.2161 1.8011
6.5144 2.2849 1.7871
6.5146 2.3542 1.7733
6.5147 2.4239 1.7597
6.5149 2.4941 1.7461
6.5146 2.5645 1.7327
6.5147 2.6356 1.7195
6.5148 2.7073 1.7064
6.5149 2.7795 1.6935
6.5149 2.8523 1.6807
6.5150 2.9256 1.6681
6.5151 2.9996 1.6556
6.5152 3.0741 1.6432
6.5153 3.1494 1.6310
6.5153 3.2253 1.6190
6.5154 3.3019 1.6071
6.5155 3.3792 1.5953
6.5156 3.4572 1.5837
6.5156 3.5361 1.5722
6.5157 3.6157 1.5608
6.5158 3.6961 1.5496
6.5159 3.7774 1.5386
6.5160 3.8596 1.5276
6.5160 3.9427 1.5169
6.5161 4.0267 1.5062
6.5162 4.1118 1.4957
6.5163 4.1978 1.4853
6.5164 4.2848 1.4751
6.5165 4.3730 1.4650
6.5165 4.4622 1.4551
6.5166 4.5527 1.4453
6.5167 4.6443 1.4356
6.5168 4.7371 1.4261
6.5169 4.8312 1.4167
6.5170 4.9267 1.4074
6.5171 5.0235 1.3983
6.5171 5.1217 1.3894
6.5172 5.2214 1.3806
6.5173 5.3227 1.3720
6.5174 5.4255 1.3635
6.5175 5.5299 1.3551
6.5187 5.6370 1.3471
6.5188 5.7449 1.3391
6.5189 5.8546 1.3312
6.5190 5.9662 1.3235
6.5191 6.0797 1.3159
6.5193 6.1953 1.3085
6.5194 6.3130 1.3013
6.5195 6.4329 1.2943
6.5196 6.5550 1.2874
6.5198 6.6795 1.2807
6.5199 6.8064 1.2741
6.5201 6.9359 1.2678
6.5202 7.0680 1.2616
6.5203 7.2028 1.2557
6.5205 7.3406 1.2499
6.5206 7.4813 1.2444
6.5208 7.6251 1.2390
6.5209 7.7721 1.2339
6.5211 7.9226 1.2289
6.5212 8.0765 1.2243
6.5214 8.2341 1.2198
6.5216 8.3956 1.2156
6.5217 8.5610 1.2116
6.5224 8.7312 1.2080
6.5227 8.9054 1.2045
6.5229 9.0841 1.2014
6.5232 9.2677 1.1985
6.5235 9.4563 1.1959
6.5238 9.6502 1.1936
6.5247 10.2665 1.1888
6.5241 9.8497 1.1917
6.5250 10.4843 1.1879
6.5244 10.0550 1.1901
6.5254 10.7090 1.1873
6.5261 11.1802 1.1875
6.5257 10.9409 1.1872
6.5265 11.4276 1.1882
6.5272 11.6841 1.1895
6.5286 12.2240 1.1934
6.5279 11.9493 1.1912
6.5293 12.5087 1.1962
6.5317 13.4294 1.2080
6.5301 12.8040 1.1995
6.5325 13.7609 1.2132
6.5309 13.1107 1.2034
6.5334 14.1061 1.2191
6.5343 14.4659 1.2258
6.5287 14.8263 1.2322
6.5291 15.2167 1.2404
5.9298 -0.4655 2.6866
5.9794 -0.4107 2.6866
6.0291 -0.3550 2.6866
6.0789 -0.2985 2.6866
6.1288 -0.2412 2.6866
6.1788 -0.1831 2.6866
6.2289 -0.1240 2.6866
6.2790 -0.0642 2.6866
6.3293 -0.0034 2.6866
6.3796 0.0583 2.6866
6.4300 0.1209 2.6866
6.4805 0.1844 2.6866
6.5101 0.2480 2.6780
6.5102 0.3108 2.6574
6.5103 0.3736 2.6371
6.5105 0.4364 2.6172
6.5106 0.4992 2.5974
6.5107 0.5620 2.5780
6.5109 0.6248 2.5588
6.5110 0.6878 2.5399
6.5111 0.7508 2.5213
6.5113 0.8138 2.5029
6.5114 0.8770 2.4847
6.5115 0.9402 2.4669
6.5117 1.0036 2.4492
6.5118 1.0671 2.4318
6.5119 1.1308 2.4146
6.5121 1.1946 2.3977
6.5122 1.2586 2.3810
6.5123 1.3228 2.3645
6.5125 1.3871 2.3483
6.5126 1.4517 2.3323
6.5127 1.5165 2.3165
6.5129 1.5816 2.3009
6.5130 1.6469 2.2856
6.5132 1.7124 2.2704
6.5133 1.7783 2.2555
6.5134 1.8445 2.2408
6.5136 1.9109 2.2263
6.5137 1.9777 2.2119
6.5138 2.0448 2.1978
6.5140 2.1123 2.1840
6.5141 2.1802 2.1703
6.5143 2.2485 2.1568
6.5144 2.3171 2.1435
6.5146 2.3862 2.1304
6.5147 2.4558 2.1175
6.5140 2.5254 2.1045
6.5141 2.5958 2.0920
6.5142 2.6668 2.0796
6.5142 2.7382 2.0675
6.5143 2.8102 2.0556
6.5144 2.8827 2.0438
6.5145 2.9559 2.0322
6.5145 3.0296 2.0209
6.5146 3.1039 2.0097
6.5147 3.1789 1.9987
6.5148 3.2545 1.9879
6.5148 3.3308 1.9773
6.5149 3.4078 1.9669
6.5150 3.4856 1.9566
6.5151 3.5641 1.9466
6.5151 3.6434 1.9367
6.5152 3.7235 1.9271
6.5153 3.8045 1.9176
6.5154 3.8863 1.9084
6.5154 3.9690 1.8993
6.5155 4.0527 1.8904
6.5156 4.1373 1.8818
6.5157 4.2229 1.8733
6.5158 4.3095 1.8650
6.5158 4.3972 1.8569
6.5159 4.4860 1.8491
6.5160 4.5759 1.8414
6.5161 4.6670 1.8340
6.5162 4.7594 1.8267
6.5162 4.8529 1.8197
6.5163 4.9478 1.8129
6.5164 5.0440 1.8063
6.5165 5.1416 1.7999
6.5166 5.2407 1.7937
6.5167 5.3412 1.7878
6.5168 5.4433 1.7821
6.5168 5.5470 1.7767
6.5183 5.6536 1.7718
6.5184 5.7607 1.7669
6.5185 5.8696 1.7621
6.5187 5.9803 1.7577
6.5188 6.0929 1.7535
6.5189 6.2075 1.7495
6.5190 6.3242 1.7459
6.5191 6.4430 1.7425
6.5193 6.5640 1.7394
6.5194 6.6873 1.7365
6.5195 6.8130 1.7340
6.5197 6.9412 1.7318
6.5198 7.0720 1.7299
6.5199 7.2054 1.7283
6.5201 7.3417 1.7271
6.5202 7.4808 1.7262
6.5203 7.6230 1.7256
6.5205 7.7684 1.7255
6.5206 7.9170 1.7257
6.5208 8.0690 1.7262
6.5210 8.2246 1.7272
6.5225 8.8871 1.7357
6.5228 9.0633 1.7390
6.5211 8.3839 1.7286
6.5230 9.2441 1.7427
6.5213 8.5472 1.7305
6.5233 9.4297 1.7470
6.5236 9.6206 1.7518
6.5222 8.7154 1.7329
6.5239 9.8167 1.7572
6.5248 10.4403 1.7770
6.5242 10.0185 1.7632
6.5251 10.6608 1.7850
6.5245 10.2263 1.7698
6.5262 11.3651 1.8132
6.5255 10.8881 1.7936
6.5267 11.6159 1.8242
6.5258 11.1228 1.8030
6.5274 11.8753 1.8362
6.5288 12.4219 1.8629
6.5281 12.1438 1.8490
6.5318 13.6426 1.9291
6.5295 12.7102 1.8777
6.5327 13.9784 1.9487
6.5303 13.0093 1.8937
6.5336 14.3280 1.9697
6.5310 13.3198 1.9108
6.5296 14.6813 1.9906
6.5300 15.0601 2.0145
6.5304 15.4557 2.0400
5.2979 -0.3314 2.6866
5.3386 -0.2816 2.6866
5.3792 -0.2313 2.6866
5.4199 -0.1802 2.6866
5.4605 -0.1284 2.6866
5.5011 -0.0760 2.6866
5.5417 -0.0229 2.6866
5.5822 0.0310 2.6866
5.6227 0.0855 2.6866
5.6631 0.1408 2.6866
5.7035 0.1968 2.6866
5.7438 0.2535 2.6866
5.7840 0.3111 2.6866
5.8242 0.3693 2.6866
5.8644 0.4283 2.6866
5.9044 0.4882 2.6866
5.9444 0.5487 2.6866
5.9842 0.6101 2.6866
6.0240 0.6723 2.6866
6.0637 0.7353 2.6866
6.1033 0.7991 2.6866
6.1428 0.8638 2.6866
6.1822 0.9293 2.6866
6.2214 0.9957 2.6866
6.2605 1.0629 2.6866
6.2995 1.1310 2.6866
6.3384 1.1999 2.6866
6.3771 1.2698 2.6866
6.4156 1.3406 2.6866
6.4540 1.4122 2.6866
6.4922 1.4848 2.6866
6.5127 1.5542 2.6794
6.5129 1.6191 2.6640
6.5130 1.6843 2.6489
6.5131 1.7498 2.6341
6.5133 1.8155 2.6194
6.5134 1.8815 2.6051
6.5136 1.9478 2.5910
6.5137 2.0145 2.5771
6.5138 2.0815 2.5635
6.5140 2.1488 2.5501
6.5141 2.2165 2.5369
6.5142 2.2846 2.5240
6.5144 2.3532 2.5114
6.5145 2.4221 2.4990
6.5147 2.4915 2.4868
6.5134 2.5607 2.4743
6.5135 2.6309 2.4626
6.5136 2.7016 2.4511
6.5136 2.7729 2.4399
6.5137 2.8447 2.4288
6.5138 2.9170 2.4181
6.5139 2.9899 2.4075
6.5139 3.0634 2.3972
6.5140 3.1375 2.3871
6.5141 3.2122 2.3773
6.5142 3.2876 2.3677
6.5142 3.3636 2.3584
6.5143 3.4404 2.3493
6.5144 3.5178 2.3404
6.5145 3.5961 2.3318
6.5145 3.6751 2.3234
6.5146 3.7549 2.3152
6.5147 3.8355 2.3073
6.5147 3.9170 2.2997
6.5148 3.9994 2.2923
6.5149 4.0826 2.2852
6.5150 4.1669 2.2783
6.5150 4.2521 2.2717
6.5151 4.3383 2.2653
6.5152 4.4255 2.2592
6.5153 4.5139 2.2534
6.5154 4.6034 2.2478
6.5154 4.6940 2.2425
6.5155 4.7858 2.2375
6.5156 4.8788 2.2328
6.5157 4.9732 2.2283
6.5157 5.0688 2.2242
6.5158 5.1658 2.2203
6.5159 5.2642 2.2167
6.5160 5.3641 2.2135
6.5161 5.4655 2.2106
6.5162 5.5685 2.2079
6.5180 5.6747 2.2062
6.5181 5.7810 2.2043
6.5182 5.8891 2.2026
6.5183 5.9990 2.2014
6.5184 6.1107 2.2004
6.5185 6.2244 2.1999
6.5186 6.3401 2.1997
6.5188 6.4580 2.1999
6.5189 6.5779 2.2005
6.5190 6.7001 2.2015
6.5191 6.8247 2.2029
6.5192 6.9517 2.2047
6.5194 7.0812 2.2070
6.5195 7.2133 2.2097
6.5196 7.3482 2.2129
6.5198 7.4858 2.2165
6.5199 7.6265 2.2207
6.5201 7.7702 2.2253
6.5202 7.9171 2.2305
6.5204 8.0673 2.2363
6.5205 8.2211 2.2426
6.5207 8.3784 2.2494
6.5208 8.5395 2.2569
6.5221 8.7060 2.2654
6.5223 8.8753 2.2742
6.5226 9.0490 2.2837
6.5229 9.2272 2.2939
6.5231 9.4101 2.3049
6.5234 9.5980 2.3166
6.5237 9.7911 2.3291
6.5240 9.9896 2.3424
6.5243 10.1939 2.3566
6.5246 10.4041 2.3718
6.5249 10.6207 2.3879
6.5253 10.8439 2.4050
6.5256 11.0741 2.4232
6.5260 11.3117 2.4424
6.5263 11.5570 2.4629
6.5269 11.8111 2.4846
6.5276 12.0738 2.5077
6.5282 12.3457 2.5321
6.5289 12.6274 2.5580
6.5297 12.9194 2.5855
6.5304 13.2224 2.6145
6.5312 13.5370 2.6453
6.5320 13.8640 2.6779
6.4707 14.0690 2.6866
6.3854 14.2278 2.6866
6.2974 14.3857 2.6866
6.2067 14.5423 2.6866
6.1132 14.6976 2.6866
4.7804 -0.2197 2.6938
4.8014 -0.1735 2.6866
4.8353 -0.1277 2.6866
4.8690 -0.0813 2.6866
4.9026 -0.0343 2.6866
4.9361 0.0133 2.6866
4.9695 0.0614 2.6866
5.0027 0.1101 2.6866
5.0359 0.1594 2.6866
5.0689 0.2092 2.6866
5.1018 0.2597 2.6866
5.1346 0.3108 2.6866
5.1672 0.3624 2.6866
5.1997 0.4147 2.6866
5.2320 0.4677 2.6866
5.2641 0.5212 2.6866
5.2961 0.5754 2.6866
5.3280 0.6302 2.6866
5.3596 0.6856 2.6866
5.3911 0.7417 2.6866
5.4224 0.7984 2.6866
5.4535 0.8559 2.6866
5.4844 0.9139 2.6866
5.5151 0.9726 2.6866
5.5456 1.0320 2.6866
5.5759 1.0921 2.6866
5.6059 1.1529 2.6866
5.6357 1.2144 2.6866
5.6653 1.2765 2.6866
5.6946 1.3394 2.6866
5.7237 1.4029 2.6866
5.7524 1.4672 2.6866
5.7810 1.5322 2.6866
5.8092 1.5979 2.6866
5.8371 1.6644 2.6866
5.8648 1.7315 2.6866
5.8921 1.7994 2.6866
5.9191 1.8681 2.6866
5.9458 1.9375 2.6866
5.9721 2.0076 2.6866
5.9981 2.0785 2.6866
6.0237 2.1502 2.6866
6.0490 2.2227 2.6866
6.0738 2.2959 2.6866
6.0983 2.3698 2.6866
6.1920 2.6735 2.6866
6.1224 2.4446 2.6866
6.2144 2.7515 2.6866
6.1460 2.5201 2.6866
6.2362 2.8302 2.6866
6.1692 2.5964 2.6866
6.2576 2.9097 2.6866
6.2785 2.9900 2.6866
6.3569 3.3193 2.6866
6.2989 3.0711 2.6866
6.3751 3.4036 2.6866
6.3188 3.1530 2.6866
6.3928 3.4888 2.6866
6.4263 3.6615 2.6866
6.3381 3.2358 2.6866
6.4098 3.5747 2.6866
6.4421 3.7491 2.6866
6.4857 4.0168 2.6866
6.5145 4.3718 2.6785
6.4573 3.8376 2.6866
6.5145 4.4587 2.6744
6.4989 4.1077 2.6866
6.4718 3.9268 2.6866
6.5146 4.5466 2.6705
6.5113 4.1993 2.6866
6.5148 4.7258 2.6639
6.5147 4.6356 2.6670
6.5144 4.2860 2.6830
6.5148 4.8171 2.6611
6.5151 5.0986 2.6547
6.5154 5.4930 2.6515
6.5149 4.9097 2.6586
6.5151 5.1951 2.6534
6.5175 5.5971 2.6525
6.5150 5.0035 2.6565
6.5152 5.2929 2.6524
6.5176 5.7011 2.6531
6.5178 5.9140 2.6556
6.5153 5.3922 2.6517
6.5177 5.8067 2.6541
6.5179 6.0231 2.6574
6.5182 6.3617 2.6658
6.5187 6.8422 2.6838
6.5184 6.4786 2.6695
6.5180 6.1341 2.6598
6.5116 6.9603 2.6866
6.5185 6.5976 2.6738
6.5181 6.2469 2.6625
6.4963 7.0718 2.6866
6.5186 6.7188 2.6785
6.4619 7.2961 2.6866
6.4798 7.1837 2.6866
6.3768 7.7500 2.6866
6.4427 7.4090 2.6866
6.2687 8.2093 2.6866
6.3520 7.8644 2.6866
6.4221 7.5223 2.6866
6.2380 8.3248 2.6866
6.3257 7.9791 2.6866
6.4001 7.6360 2.6866
6.2057 8.4405 2.6866
6.2980 8.0941 2.6866
6.1364 8.6721 2.6866
6.1718 8.5562 2.6866
5.9786 9.1361 2.6866
6.0994 8.7881 2.6866
5.9351 9.2519 2.6866
5.7942 9.5985 2.6866
6.0608 8.9041 2.6866
5.7438 9.7136 2.6866
5.8898 9.3677 2.6866
6.0205 9.0201 2.6866
5.8429 9.4832 2.6866
5.6917 9.8283 2.6866
5.5822 10.0565 2.6866
5.3420 10.5069 2.6866
5.6379 9.9426 2.6866
5.5248 10.1700 2.6866
5.2774 10.6179 2.6866
5.4657 10.2829 2.6866
5.2110 10.7281 2.6866
5.4047 10.3952 2.6866
5.1429 10.8376 2.6866
5.0729 10.9461 2.6866
5.0011 11.0537 2.6866
4.9275 11.1604 2.6866
4.8521 11.2660 2.6866
4.8000 11.4304 2.7008
4.7922 11.7092 2.7417
4.5591 -0.1296 2.8390
4.5893 -0.0859 2.8390
4.6194 -0.0416 2.8390
4.6493 0.0031 2.8390
4.6790 0.0484 2.8390
4.7086 0.0942 2.8390
4.7380 0.1404 2.8390
4.7499 0.1865 2.8286
4.7528 0.2324 2.8132
4.7557 0.2782 2.7981
4.7586 0.3241 2.7832
4.7614 0.3700 2.7686
4.7641 0.4160 2.7542
4.7669 0.4621 2.7401
4.7695 0.5081 2.7263
4.7722 0.5543 2.7126
4.7761 0.6007 2.7000
4.7855 0.6473 2.6907
4.8037 0.6967 2.6866
4.8542 0.7979 2.6866
4.8291 0.7471 2.6866
4.8790 0.8492 2.6866
4.9522 1.0065 2.6866
4.9037 0.9011 2.6866
4.9761 1.0599 2.6866
4.9281 0.9535 2.6866
4.9997 1.1140 2.6866
5.0461 1.2236 2.6866
5.0230 1.1685 2.6866
5.0688 1.2793 2.6866
5.1352 1.4496 2.6866
5.0913 1.3355 2.6866
5.1568 1.5075 2.6866
5.1780 1.5660 2.6866
5.1134 1.3923 2.6866
5.1988 1.6249 2.6866
5.2193 1.6845 2.6866
5.2977 1.9284 2.6866
5.2395 1.7446 2.6866
5.3164 1.9908 2.6866
5.2593 1.8053 2.6866
5.3346 2.0538 2.6866
5.3525 2.1174 2.6866
5.2787 1.8666 2.6866
5.3699 2.1815 2.6866
5.4352 2.4437 2.6866
5.3869 2.2462 2.6866
5.4504 2.5107 2.6866
5.4035 2.3114 2.6866
5.4652 2.5783 2.6866
5.4196 2.3773 2.6866
5.4794 2.6465 2.6866
5.4931 2.7152 2.6866
5.5428 2.9957 2.6866
5.5063 2.7845 2.6866
5.5539 3.0673 2.6866
5.5190 2.8543 2.6866
5.5312 2.9248 2.6866
5.5644 3.1394 2.6866
5.5836 3.2854 2.6866
5.5743 3.2121 2.6866
5.5923 3.3592 2.6866
5.6147 3.5839 2.6866
5.6004 3.4335 2.6866
5.6209 3.6599 2.6866
5.6079 3.5084 2.6866
5.6264 3.7364 2.6866
5.6354 3.8910 2.6866
5.6313 3.8134 2.6866
5.6388 3.9691 2.6866
5.6447 4.2065 2.6866
5.6415 4.0477 2.6866
5.6452 4.2865 2.6866
5.6435 4.1268 2.6866
5.6418 4.5297 2.6866
5.6448 4.3671 2.6866
5.6391 4.6117 2.6866
5.6437 4.4482 2.6866
5.6355 4.6941 2.6866
5.6258 4.8603 2.6866
5.6311 4.7770 2.6866
5.6197 4.9440 2.6866
5.5958 5.1975 2.6866
5.6126 5.0281 2.6866
5.5860 5.2827 2.6866
5.6047 5.1126 2.6866
5.5753 5.3683 2.6866
5.5636 5.4542 2.6866
5.4901 5.8884 2.6866
5.4723 5.9759 2.6866
5.4534 6.0638 2.6866
5.4335 6.1518 2.6866
5.3173 6.5941 2.6866
5.2906 6.6828 2.6866
5.5509 5.5405 2.6866
5.2628 6.7716 2.6866
5.2338 6.8604 2.6866
5.2036 6.9492 2.6866
5.1722 7.0380 2.6866
5.1396 7.1267 2.6866
5.1058 7.2153 2.6866
5.4125 6.2400 2.6866
5.0708 7.3038 2.6866
5.0345 7.3922 2.6866
4.9969 7.4803 2.6866
4.9581 7.5683 2.6866
4.9181 7.6561 2.6866
4.8767 7.7435 2.6866
5.5372 5.6271 2.6866
4.8341 7.8307 2.6866
4.8005 7.9342 2.6923
4.7895 8.0790 2.7118
4.7853 8.2395 2.7362
4.7810 8.4047 2.7618
4.7764 8.5746 2.7886
5.3904 6.3283 2.6866
4.7716 8.7496 2.8167
4.7548 8.9079 2.8390
4.6987 8.9962 2.8390
4.6413 9.0839 2.8390
5.5225 5.7139 2.6866
4.3334 9.5111 2.8390
5.3671 6.4168 2.6866
4.2677 9.5940 2.8390
4.5825 9.1709 2.8390
4.2006 9.6760 2.8390
5.5068 5.8010 2.6866
4.1322 9.7571 2.8390
4.0624 9.8371 2.8390
3.9912 9.9161 2.8390
5.3428 6.5054 2.6866
4.5223 9.2571 2.8390
4.4607 9.3426 2.8390
4.3978 9.4273 2.8390
