ply
format ascii 1.0
element vertex 1346
property float32 x
property float32 y
property float32 z
end_header
-5.6476 4.7679 -2.8409
-6.2590 4.8556 -2.9645
-5.8217 4.8125 -2.8843
-5.9734 4.8348 -2.9151
-6.6942 5.0837 -3.1240
-5.4803 4.7248 -2.7992
-6.1140 4.8450 -2.9393
-6.7575 5.0230 -3.1075
-7.0339 4.5859 -2.9658
-6.8211 4.9623 -3.0911
-6.6626 4.7432 -2.9757
-6.7021 4.2728 -2.7860
-7.8940 4.7003 -3.1455
-6.7148 4.6774 -2.9559
-6.9745 4.3473 -2.8585
-7.9429 4.6209 -3.1210
-6.7671 4.6117 -2.9362
-7.1275 4.0504 -2.7617
-6.8195 4.1549 -2.7558
-7.1099 3.9457 -2.7168
-7.0927 3.8429 -2.6728
-7.0078 4.6716 -2.9974
-7.0863 3.4776 -2.5270
-7.0757 3.7418 -2.6298
-6.7110 2.9655 -2.2655
-7.0043 3.3504 -2.4637
-7.0590 3.6423 -2.5876
-6.6223 2.8475 -2.2053
-6.8982 3.2150 -2.3934
-7.0426 3.5445 -2.5462
-6.5367 2.7336 -2.1473
-8.3559 3.3001 -2.6710
-6.8028 3.0879 -2.3282
-6.6073 2.6860 -2.1410
-6.9017 21.5769 -9.6452
-7.1903 21.6695 -9.6970
-7.2231 21.0067 -9.4108
-7.5663 21.2561 -9.5335
-7.8180 21.2354 -9.5356
-5.3385 5.4363 -2.6794
-5.4595 5.4455 -2.6943
-5.8398 5.4742 -2.7417
-5.5832 5.4548 -2.7096
-5.9729 5.4843 -2.7586
-5.7100 5.4644 -2.7254
-6.1334 5.5164 -2.7870
-6.4760 5.5878 -2.8491
-6.3017 5.5515 -2.8174
-5.5762 4.7124 -2.4142
-6.8324 5.4231 -2.8207
-5.7453 4.7552 -2.4481
-7.2252 5.6155 -2.9364
-5.9217 4.7998 -2.4836
-7.0396 5.3568 -2.8166
-6.2961 4.5915 -2.4420
-7.2914 5.4320 -2.8722
-7.2566 4.8531 -2.6464
-6.4432 4.5991 -2.4607
-7.2951 4.7726 -2.6201
-6.5950 4.6070 -2.4801
-7.3337 4.6926 -2.5941
-6.6794 4.5657 -2.4735
-7.3723 4.6130 -2.5683
-6.9949 3.9012 -2.2589
-7.0615 4.3199 -2.4229
-6.9789 3.8009 -2.2199
-7.0322 3.7390 -2.2033
-7.0444 4.2124 -2.3807
-6.9506 3.6067 -2.1451
-7.0276 4.1069 -2.3393
-6.8719 3.4791 -2.0890
-6.7959 3.3557 -2.0348
-7.0111 4.0032 -2.2987
-6.9169 3.3299 -2.0399
-6.7285 3.0755 -1.9251
-6.8209 3.2003 -1.9814
-6.6395 2.9552 -1.8710
-8.2726 3.3904 -2.2269
-8.2939 3.3035 -2.1986
-6.5535 2.8392 -1.8188
-7.3816 2.8557 -1.9269
-6.5730 2.7704 -1.7966
-7.3252 2.7508 -1.8830
-7.2701 2.6484 -1.8401
-5.9921 21.3810 -8.3221
-6.3125 21.6327 -8.4257
-6.5315 21.5260 -8.3900
-6.8270 21.6653 -8.4504
-7.1345 21.8265 -8.5197
-7.2618 21.4397 -8.3753
-7.3747 21.0331 -8.2232
-7.5022 20.6889 -8.0954
-7.5817 20.2342 -7.9244
-6.5287 12.3723 -4.9093
-6.8657 12.3725 -4.9226
-7.0428 12.3828 -4.9337
-7.3886 12.3786 -4.9464
-7.7673 12.4140 -4.9759
-5.3930 5.3744 -2.2600
-5.5135 5.3830 -2.2702
-5.6367 5.3918 -2.2808
-5.7627 5.4005 -2.2916
-5.8918 5.4095 -2.3027
-6.0240 5.4187 -2.3142
-6.1801 5.4462 -2.3337
-6.3477 5.4801 -2.3564
-5.5105 4.6603 -2.0110
-5.6716 4.6985 -2.0349
-5.8196 4.7224 -2.0530
-5.9728 4.7471 -2.0717
-6.1316 4.7727 -2.0913
-7.2941 5.5600 -2.4462
-7.3864 5.5132 -2.4359
-7.3634 5.3811 -2.3879
-7.3409 5.2519 -2.3411
-6.8771 4.8160 -2.1568
-7.1618 4.9087 -2.2088
-7.3092 4.9024 -2.2168
-7.4158 4.6564 -2.1390
-6.6325 4.3525 -1.9782
-6.9473 4.2657 -1.9705
-6.7866 4.3568 -1.9906
-6.9316 4.1611 -1.9333
-6.9805 4.0029 -1.8825
-7.0649 4.1457 -1.9376
-6.8992 3.8653 -1.8294
-7.9238 4.1332 -1.9967
-6.8209 3.7326 -1.7783
-7.9974 4.0710 -1.9811
-7.8507 4.1950 -2.0123
-7.7309 3.8391 -1.8825
-6.7460 3.1847 -1.5870
-6.8389 3.3120 -1.6369
-6.6564 3.0622 -1.5389
-7.4526 3.1640 -1.6345
-6.5701 2.9440 -1.4926
-7.3943 3.0535 -1.5932
-6.5395 2.8530 -1.4598
-7.2277 2.7374 -1.4754
-7.3374 2.9456 -1.5529
-7.2819 2.8403 -1.5137
-5.8648 22.1396 -7.4104
-5.8994 21.3579 -7.1510
-6.2133 21.6047 -7.2360
-6.4404 21.5377 -7.2160
-6.7104 21.6092 -7.2425
-6.9585 21.6028 -7.2429
-7.1774 21.5049 -7.2128
-7.3969 21.4107 -7.1841
-7.4509 20.8544 -7.0003
-7.5662 20.4954 -6.8827
-7.8936 20.7108 -6.9581
-8.5965 21.8633 -7.3486
-7.0925 12.3672 -4.1909
-5.4478 5.3145 -1.8536
-5.5676 5.3224 -1.8592
-5.6903 5.3305 -1.8650
-5.8159 5.3387 -1.8709
-5.9443 5.3469 -1.8770
-6.0759 5.3553 -1.8832
-6.2275 5.3783 -1.8947
-6.3944 5.4109 -1.9097
-6.5673 5.4447 -1.9252
-6.7458 5.4791 -1.9412
-6.9342 5.5174 -1.9587
-5.8683 4.5738 -1.6271
-6.0203 4.5959 -1.6385
-6.1774 4.6186 -1.6502
-6.3401 4.6420 -1.6624
-6.5090 4.6664 -1.6750
-7.1003 4.9836 -1.7932
-7.0819 4.8658 -1.7553
-7.0638 4.7503 -1.7181
-7.0461 4.6371 -1.6816
-7.2876 4.6926 -1.7065
-7.0141 4.4184 -1.6114
-6.9301 4.2698 -1.5618
-6.8492 4.1266 -1.5141
-6.7712 3.9885 -1.4681
-7.4505 4.2897 -1.5842
-7.4805 4.2088 -1.5597
-7.4671 4.1044 -1.5264
-7.6583 4.1114 -1.5346
-6.9150 3.6247 -1.3582
-6.8234 3.4912 -1.3134
-6.7352 3.3626 -1.2703
-6.6501 3.2386 -1.2287
-6.5680 3.1189 -1.1886
-6.6677 3.0861 -1.1817
-7.4823 3.3741 -1.2983
-7.4074 3.2530 -1.2581
-7.3501 3.1421 -1.2216
-7.2941 3.0338 -1.1861
-7.2394 2.9280 -1.1514
-7.1860 2.8247 -1.1176
-5.5343 22.1309 -6.2450
-5.7844 22.1490 -6.2494
-6.0339 22.1588 -6.2514
-6.1449 21.6745 -6.1140
-6.3907 21.6802 -6.1148
-6.5673 21.4546 -6.0504
-6.7666 21.3124 -6.0095
-7.0946 21.5664 -6.0802
-7.1695 21.0557 -5.9353
-7.6307 21.6709 -6.1077
-7.8016 21.4441 -6.0428
-7.8720 20.9592 -5.9052
-7.9720 20.5757 -5.7961
-5.5020 5.2562 -1.4574
-5.6212 5.2633 -1.4584
-5.7433 5.2706 -1.4594
-5.8682 5.2781 -1.4604
-5.9963 5.2857 -1.4615
-6.1274 5.2934 -1.4625
-6.2749 5.3123 -1.4666
-6.4409 5.3435 -1.4740
-6.6128 5.3757 -1.4817
-6.7910 5.4091 -1.4896
-6.9992 5.4619 -1.5028
-6.7578 5.1662 -1.4202
-6.8199 5.1071 -1.4026
-6.8821 5.0478 -1.3850
-6.2220 4.4693 -1.2250
-6.3834 4.4900 -1.2294
-6.5509 4.5115 -1.2339
-6.7248 4.5338 -1.2386
-6.9052 4.5566 -1.2434
-7.2468 4.6799 -1.2755
-7.2353 4.5718 -1.2444
-7.2239 4.4654 -1.2139
-7.2127 4.3608 -1.1838
-7.2017 4.2577 -1.1542
-7.2778 4.2066 -1.1387
-6.9862 3.9468 -1.0667
-6.8913 3.8042 -1.0265
-6.8000 3.6671 -0.9879
-6.7120 3.5349 -0.9506
-6.6272 3.4076 -0.9147
-6.8062 3.4156 -0.9151
-6.6495 3.2558 -0.8705
-7.5747 3.6172 -0.9651
-7.4230 3.4560 -0.9201
-7.3629 3.3407 -0.8873
-7.3065 3.2293 -0.8557
-7.2514 3.1206 -0.8248
-7.1976 3.0144 -0.7946
-7.1450 2.9107 -0.7651
-6.2879 39.0948 -9.0760
-6.6007 38.5065 -8.9355
-7.0686 38.8311 -9.0066
-7.4001 38.4044 -8.9033
-7.8116 38.4085 -8.8996
-5.3365 21.6408 -5.0024
-5.6071 21.7736 -5.0297
-5.5295 20.5942 -4.7539
-5.9173 21.1682 -4.8828
-6.3430 21.8249 -5.0304
-6.5614 21.7416 -5.0072
-6.7793 21.6584 -4.9838
-7.0431 21.7179 -4.9932
-7.2360 21.5574 -4.9518
-7.1865 20.7050 -4.7515
-7.0987 19.7954 -4.5383
-7.9541 21.4866 -4.9211
-8.0455 21.0693 -4.8204
-8.1552 20.7186 -4.7350
-7.0418 12.3707 -2.7720
-5.5549 5.1990 -1.0687
-5.6735 5.2053 -1.0651
-5.7950 5.2118 -1.0614
-5.9063 5.2070 -1.0552
-6.0129 5.1961 -1.0477
-6.1216 5.1851 -1.0399
-6.2321 5.1738 -1.0320
-6.3449 5.1623 -1.0239
-6.4798 5.1666 -1.0187
-6.5892 5.1482 -1.0089
-6.6712 5.1071 -0.9945
-6.7539 5.0657 -0.9799
-6.8634 5.0429 -0.9688
-6.9832 5.0259 -0.9586
-7.1053 5.0084 -0.9481
-7.1159 4.9119 -0.9226
-7.0721 4.7798 -0.8905
-6.5897 4.3601 -0.8054
-6.7616 4.3791 -0.8017
-7.3059 4.6306 -0.8399
-7.3383 4.5509 -0.8174
-7.3099 4.4348 -0.7884
-6.9620 4.1311 -0.7265
-6.8674 3.9846 -0.6929
-6.7763 3.8437 -0.6605
-6.6886 3.7080 -0.6292
-6.8589 3.7154 -0.6222
-6.6980 3.5441 -0.5853
-6.5460 3.3824 -0.5504
-7.6019 3.8346 -0.6143
-7.4595 3.6720 -0.5785
-7.3564 3.5327 -0.5468
-7.3064 3.4215 -0.5197
-7.2575 3.3129 -0.4932
-7.2091 3.2065 -0.4672
-7.1561 3.1000 -0.4414
-7.1044 2.9959 -0.4161
-37.3179 12.4286 -1.2825
-37.8910 12.2132 -1.1901
-37.8979 11.8118 -1.0788
-37.9049 11.4128 -0.9679
-5.8154 39.2263 -7.1854
-6.0626 38.2129 -6.9934
-6.5317 38.6290 -7.0627
-6.9556 38.7379 -7.0753
-7.2924 38.3691 -7.0002
-7.5071 37.4227 -6.8196
-8.1954 38.8067 -7.0631
-5.2362 21.5308 -3.9027
-5.4902 21.6182 -3.9126
-5.7458 21.7003 -3.9213
-5.6107 20.3542 -3.6719
-6.3857 22.2822 -4.0128
-6.3853 21.4578 -3.8574
-6.6150 21.4336 -3.8457
-6.9195 21.6409 -3.8753
-7.2036 21.7677 -3.8901
-7.3383 21.4454 -3.8244
-7.0736 20.0095 -3.5604
-7.9642 21.8246 -3.8745
-8.1371 21.6180 -3.8287
-8.2690 21.3134 -3.7655
-8.4480 21.1397 -3.7253
-8.6254 20.9675 -3.6851
-7.0922 12.3607 -2.0787
-5.7812 4.9979 -0.6393
-5.8827 4.9857 -0.6283
-5.9859 4.9732 -0.6170
-6.0909 4.9604 -0.6054
-6.1977 4.9472 -0.5935
-6.3064 4.9338 -0.5813
-6.4005 4.9073 -0.5672
-6.4780 4.8670 -0.5514
-6.5562 4.8262 -0.5353
-6.6350 4.7851 -0.5190
-6.7145 4.7435 -0.5024
-6.7946 4.7015 -0.4856
-6.8755 4.6590 -0.4685
-6.9571 4.6161 -0.4511
-7.0462 4.5770 -0.4339
-7.0352 4.4731 -0.4105
-6.9370 4.3165 -0.3826
-6.8426 4.1660 -0.3556
-6.7519 4.0213 -0.3297
-6.6644 3.8821 -0.3046
-6.7467 3.8428 -0.2874
-6.5907 3.6697 -0.2605
-7.3007 3.9727 -0.2662
-7.2871 3.8742 -0.2436
-7.2325 3.7557 -0.2200
-7.1842 3.6428 -0.1970
-7.1371 3.5324 -0.1745
-7.0910 3.4246 -0.1524
-7.0459 3.3191 -0.1307
-37.4815 14.6499 0.0620
-37.8535 14.3757 0.1701
-37.8607 13.9620 0.2772
-37.8678 13.5511 0.3840
-21.5532 7.4792 0.2791
-21.5540 7.2474 0.3395
-21.5548 7.0171 0.3998
-21.4783 6.7640 0.4583
-5.2704 38.7481 -5.2378
-5.5318 37.8242 -5.1046
-6.1089 39.0323 -5.2585
-6.4870 38.8915 -5.2298
-6.7841 38.3023 -5.1404
-7.2177 38.4990 -5.1558
-7.5064 37.9359 -5.0690
-7.9543 38.1864 -5.0904
-7.3707 30.7299 -4.0640
-5.4686 21.8338 -2.8791
-5.7165 21.8918 -2.8779
-5.9519 21.8948 -2.8691
-5.7792 20.4495 -2.6707
-6.4195 21.8772 -2.8471
-6.4151 21.0801 -2.7333
-6.7412 21.3823 -2.7619
-7.1518 21.9189 -2.8200
-6.9875 20.7117 -2.6536
-7.5434 21.6440 -2.7610
-7.7292 21.4850 -2.7284
-7.9136 21.3274 -2.6957
-8.0656 21.0900 -2.6528
-8.1623 20.7216 -2.5932
-8.2571 20.3650 -2.5352
-36.2252 29.5357 -1.3709
-36.2357 28.9635 -1.2577
-6.0572 4.7461 -0.1914
-6.1605 4.7313 -0.1757
-6.2655 4.7161 -0.1596
-6.3725 4.7006 -0.1431
-6.4815 4.6848 -0.1261
-6.5925 4.6686 -0.1086
-6.5204 4.5235 -0.0882
-6.5961 4.4821 -0.0699
-6.9387 4.6175 -0.0534
-7.0379 4.5860 -0.0338
-7.2181 4.6047 -0.0139
-6.9642 4.3488 0.0064
-6.7942 4.1520 0.0255
-6.6341 3.9668 0.0436
-7.2445 4.2375 0.0680
-7.1553 4.0932 0.0871
-7.1079 3.9757 0.1062
-7.0615 3.8609 0.1251
-7.0163 3.7488 0.1436
-6.9720 3.6393 0.1617
-6.9286 3.5322 0.1796
-21.5411 10.7219 0.6171
-21.5420 10.4650 0.6755
-21.5429 10.2106 0.7337
-21.5438 9.9584 0.7917
-21.5447 9.7086 0.8496
-21.5455 9.4609 0.9074
-21.5464 9.2154 0.9650
-21.5473 8.9719 1.0225
-21.5481 8.7304 1.0799
-21.5490 8.4907 1.1373
-21.5498 8.2529 1.1945
-21.5506 8.0169 1.2517
-21.5514 7.7825 1.3089
-21.5523 7.5497 1.3660
-21.5531 7.3186 1.4230
-21.5539 7.0889 1.4801
-5.2236 38.9291 -3.4116
-5.6301 39.0237 -3.4090
-5.8727 38.0379 -3.3115
-6.3672 38.6976 -3.3565
-6.7709 38.7537 -3.3482
-7.0619 38.1875 -3.2854
-7.6396 39.1425 -3.3525
-7.9560 38.7229 -3.3009
-8.2540 38.2510 -3.2443
-5.5360 22.4113 -1.8692
-5.5876 21.6973 -1.7984
-5.8231 21.7215 -1.7887
-6.0602 21.7455 -1.7784
-6.0169 20.7944 -1.6885
-6.5072 21.6853 -1.7476
-6.7963 21.8629 -1.7481
-6.8548 21.3076 -1.6896
-7.2012 21.6500 -1.7020
-7.3590 21.4175 -1.6686
-7.5426 21.2677 -1.6413
-7.7248 21.1189 -1.6138
-7.9367 21.0537 -1.5923
-8.0348 20.6946 -1.5483
-7.0393 12.3657 -0.7304
-35.1231 35.5037 -0.2459
-35.2289 34.9292 -0.1444
-35.2403 34.2719 -0.0431
-21.5167 18.9953 0.2747
-21.5180 18.6307 0.3335
-21.5193 18.2722 0.3918
-21.5205 17.9196 0.4498
-21.5218 17.5727 0.5074
-21.4432 17.1675 0.5625
-21.4406 16.8297 0.6190
-21.5291 16.5672 0.6781
-21.5303 16.2411 0.7344
-6.8310 5.0506 0.2507
-21.5326 15.6031 0.8460
-6.3238 4.4905 0.2647
-6.4288 4.4729 0.2856
-6.5357 4.4548 0.3070
-6.6447 4.4364 0.3290
-6.7557 4.4175 0.3516
-7.1120 4.5537 0.3881
-6.5202 4.0873 0.3723
-7.0270 4.3117 0.4188
-6.9817 4.1924 0.4336
-6.9373 4.0759 0.4482
-6.8938 3.9621 0.4625
-6.8514 3.8509 0.4767
-21.4528 11.7892 1.5460
-21.4633 11.5290 1.6000
-21.5383 11.3052 1.6590
-21.5392 11.0443 1.7123
-21.5401 10.7859 1.7657
-21.5410 10.5300 1.8190
-21.5419 10.2765 1.8723
-21.5428 10.0254 1.9256
-21.5437 9.7764 1.9789
-21.5446 9.5296 2.0322
-21.5454 9.2849 2.0856
-21.5463 9.0422 2.1390
-21.5471 8.8015 2.1924
-21.5480 8.5626 2.2459
-21.5488 8.3255 2.2995
-21.5497 8.0901 2.3531
-21.5505 7.8564 2.4069
-21.5513 7.6243 2.4607
-21.5521 7.3937 2.5147
-5.6159 39.4610 -1.5850
-5.8990 38.7351 -1.5418
-6.1874 38.1235 -1.5027
-6.6775 38.7478 -1.5113
-7.0388 38.5897 -1.4882
-7.3775 38.3240 -1.4601
-7.7847 38.4160 -1.4448
-7.9924 37.5548 -1.3930
-5.6262 22.1547 -0.7700
-5.8507 22.1323 -0.7548
-6.0758 22.1095 -0.7390
-6.3014 22.0863 -0.7226
-6.5131 22.0132 -0.7039
-6.5592 21.4009 -0.6680
-6.9329 21.8586 -0.6648
-7.0896 21.6203 -0.6397
-7.2373 21.3663 -0.6139
-7.3822 21.1162 -0.5880
-7.5143 20.8413 -0.5612
-7.8905 21.2355 -0.5517
-7.0794 12.3494 -0.0543
-21.3906 32.7600 0.1999
-21.4763 32.2089 0.2585
-21.4787 31.5495 0.3157
-21.4810 30.9087 0.3721
-21.4833 30.2855 0.4279
-21.4855 29.6790 0.4830
-21.4876 29.0886 0.5376
-21.4897 28.5134 0.5916
-21.4917 27.9529 0.6451
-21.4103 27.3000 0.6954
-21.4965 26.8741 0.7507
-21.4984 26.3536 0.8028
-21.5002 25.8453 0.8545
-21.5020 25.3486 0.9059
-21.5038 24.8632 0.9568
-21.5055 24.3885 1.0074
-21.5071 23.9242 1.0578
-21.5088 23.4697 1.1078
-21.5104 23.0248 1.1575
-21.4195 22.4918 1.2018
-21.4300 22.0758 1.2513
-21.5060 21.7340 1.3046
-21.5074 21.3236 1.3534
-21.5089 20.9210 1.4019
-21.5103 20.5259 1.4503
-21.5117 20.1381 1.4985
-21.5131 19.7571 1.5466
-21.5144 19.3829 1.5946
-21.5157 19.0151 1.6424
-21.5170 18.6535 1.6901
-21.5183 18.2979 1.7377
-21.5196 17.9481 1.7852
-21.5208 17.6039 1.8326
-21.4423 17.2010 1.8730
-21.4397 16.8657 1.9198
-21.5282 16.6057 1.9749
-21.5293 16.2818 2.0221
-21.5305 15.9626 2.0694
-21.5316 15.6480 2.1166
-21.5327 15.3377 2.1638
-21.5338 15.0316 2.2110
-21.5349 14.7296 2.2582
-21.5359 14.4316 2.3054
-21.5370 14.1373 2.3527
-7.0671 4.5434 0.7875
-7.1213 4.4831 0.8092
-21.5401 13.2760 2.4949
-21.5411 12.9957 2.5424
-21.5421 12.7186 2.5900
-21.9372 12.6724 2.6859
-21.5475 12.1756 2.6858
-21.1711 11.6990 2.6858
-20.8069 11.2411 2.6858
-20.4541 10.8007 2.6858
-20.1122 10.3771 2.6858
-19.7807 9.9695 2.6858
-19.6403 9.6658 2.7108
-19.6328 9.4314 2.7540
-19.6254 9.1995 2.7973
-19.6009 8.9620 2.8382
-19.2979 8.6028 2.8382
-19.0030 8.2558 2.8382
-18.7160 7.9207 2.8382
-18.4364 7.5966 2.8382
-18.1639 7.2833 2.8382
-17.8983 6.9802 2.8382
-17.6392 6.6867 2.8382
-17.3864 6.4027 2.8382
-17.1396 6.1275 2.8382
-6.1849 38.6393 0.2975
-6.5614 38.6057 0.3159
-6.9504 38.6378 0.3360
-7.3777 30.7149 0.3813
-6.4967 21.5021 0.3715
-6.9874 21.6171 0.4144
-7.3203 21.9252 0.4422
-21.3532 43.4887 1.6605
-21.4401 42.6302 1.6961
-21.4437 41.6406 1.7254
-21.4472 40.6871 1.7549
-21.4505 39.7675 1.7847
-21.4538 38.8799 1.8147
-21.3715 37.8711 1.8375
-21.4578 37.1899 1.8751
-21.4607 36.3881 1.9057
-21.4635 35.6120 1.9365
-21.4663 34.8600 1.9675
-21.4689 34.1311 1.9986
-21.4715 33.4239 2.0300
-21.3899 32.6093 2.0535
-21.4757 32.0697 2.0932
-21.4780 31.4218 2.1251
-21.4803 30.7917 2.1572
-21.4826 30.1787 2.1895
-21.4847 29.5818 2.2220
-21.4869 29.0005 2.2546
-21.4889 28.4340 2.2875
-21.4084 27.7745 2.3116
-21.4095 27.2367 2.3445
-21.4957 26.8179 2.3871
-21.4975 26.3043 2.4207
-21.4994 25.8026 2.4544
-21.5011 25.3123 2.4883
-21.5029 24.8328 2.5224
-21.5046 24.3638 2.5567
-21.5062 23.9048 2.5912
-21.5079 23.4555 2.6258
-21.7123 23.2326 2.6858
-21.4320 22.5014 2.6858
-21.1571 21.7955 2.6858
-20.8877 21.1141 2.6858
-20.6237 20.4561 2.6858
-20.3649 19.8204 2.6858
-20.1111 19.2062 2.6858
-19.8622 18.6123 2.6858
-19.6350 18.0536 2.6881
-19.6196 17.6998 2.7192
-19.6143 17.3616 2.7519
-19.6091 17.0290 2.7847
-19.6037 16.7019 2.8177
-19.5116 16.3077 2.8382
-19.2809 15.8078 2.8382
-19.0542 15.3233 2.8382
-18.8316 14.8535 2.8382
-18.6128 14.3979 2.8382
-18.3978 13.9559 2.8382
-18.1864 13.5270 2.8382
-17.9787 13.1107 2.8382
-17.7744 12.7065 2.8382
-17.5735 12.3138 2.8382
-17.3758 11.9325 2.8382
-17.1814 11.5620 2.8382
-16.9902 11.2018 2.8382
-7.0431 4.5488 1.1897
-7.0803 4.4787 1.2093
-7.2239 4.4747 1.2476
-16.2548 9.8579 2.8382
-16.0779 9.5444 2.8382
-15.9038 9.2393 2.8382
-15.7323 8.9422 2.8382
-15.5633 8.6530 2.8382
-15.3968 8.3712 2.8382
-15.2328 8.0968 2.8382
-15.0711 7.8294 2.8382
-14.9117 7.5688 2.8382
-14.7546 7.3148 2.8382
-14.5996 7.0672 2.8382
-14.4469 6.8257 2.8382
-14.2962 6.5901 2.8382
-14.1476 6.3605 2.8382
-14.0009 6.1363 2.8382
-13.8563 5.9176 2.8382
-13.7135 5.7041 2.8382
-13.5726 5.4957 2.8382
-13.4335 5.2922 2.8382
-13.2963 5.0935 2.8382
-13.1607 4.8995 2.8382
-6.8425 38.5772 2.1585
-10.4961 48.4055 2.8382
-10.8381 47.7875 2.8382
-11.1668 47.1569 2.8382
-11.4821 46.5151 2.8382
-11.7840 45.8632 2.8382
-12.0726 45.2027 2.8382
-12.3480 44.5349 2.8382
-12.6102 43.8606 2.8382
-12.8594 43.1813 2.8382
-13.0958 42.4978 2.8382
-13.3195 41.8113 2.8382
-7.0875 21.5404 1.4867
-13.7298 40.4332 2.8382
-13.9168 39.7433 2.8382
-14.0922 39.0543 2.8382
-14.2561 38.3665 2.8382
-14.4088 37.6811 2.8382
-14.5507 36.9985 2.8382
-14.6820 36.3194 2.8382
-14.8030 35.6445 2.8382
-14.9141 34.9744 2.8382
-15.0156 34.3094 2.8382
-15.1078 33.6502 2.8382
-15.1910 32.9971 2.8382
-15.2655 32.3505 2.8382
-15.3316 31.7109 2.8382
-15.3898 31.0786 2.8382
-15.4401 30.4535 2.8382
-15.4830 29.8364 2.8382
-15.5188 29.2272 2.8382
-15.5477 28.6261 2.8382
-15.5700 28.0334 2.8382
-7.0281 12.3774 1.2798
-15.5962 26.8735 2.8382
-15.6005 26.3066 2.8382
-15.5994 25.7484 2.8382
-15.5930 25.1989 2.8382
-15.5816 24.6583 2.8382
-15.5655 24.1266 2.8382
-15.5449 23.6038 2.8382
-15.5200 23.0898 2.8382
-15.4910 22.5847 2.8382
-15.4581 22.0883 2.8382
-15.4215 21.6006 2.8382
-15.3815 21.1216 2.8382
-15.3382 20.6513 2.8382
-15.2918 20.1895 2.8382
-15.2424 19.7362 2.8382
-15.1902 19.2911 2.8382
-15.1355 18.8545 2.8382
-15.0782 18.4259 2.8382
-15.0186 18.0054 2.8382
-14.9568 17.5929 2.8382
-14.8930 17.1883 2.8382
-14.8272 16.7914 2.8382
-14.7597 16.4021 2.8382
-14.6904 16.0203 2.8382
-14.6195 15.6460 2.8382
-14.5472 15.2789 2.8382
-14.4735 14.9187 2.8382
-14.3985 14.5657 2.8382
-14.3223 14.2196 2.8382
-14.2450 13.8802 2.8382
-14.1667 13.5475 2.8382
-14.0875 13.2213 2.8382
-14.0074 12.9016 2.8382
-13.9265 12.5880 2.8382
-13.8449 12.2806 2.8382
-13.7626 11.9793 2.8382
-13.6797 11.6838 2.8382
-13.5963 11.3942 2.8382
-13.5124 11.1102 2.8382
-13.4281 10.8318 2.8382
-13.3433 10.5589 2.8382
-13.2583 10.2913 2.8382
-13.1729 10.0289 2.8382
-13.0873 9.7717 2.8382
-13.0015 9.5194 2.8382
-12.9156 9.2721 2.8382
-12.8295 9.0296 2.8382
-12.7433 8.7918 2.8382
-12.6570 8.5586 2.8382
-12.5707 8.3299 2.8382
-7.0631 4.5858 1.6057
-6.9979 4.4509 1.6020
-7.1342 4.4443 1.6446
-7.2775 4.4396 1.6895
-12.1396 7.2507 2.8382
-12.0536 7.0471 2.8382
-11.9678 6.8474 2.8382
-11.8821 6.6515 2.8382
-11.7966 6.4593 2.8382
-11.7112 6.2707 2.8382
-11.6261 6.0857 2.8382
-11.5412 5.9042 2.8382
-11.4565 5.7260 2.8382
-11.3720 5.5512 2.8382
-11.2878 5.3797 2.8382
-11.2039 5.2113 2.8382
-11.1202 5.0461 2.8382
-11.0369 4.8839 2.8382
-10.9538 4.7248 2.8382
-10.8710 4.5685 2.8382
-10.7885 4.4151 2.8382
-10.7064 4.2646 2.8382
-10.6246 4.1167 2.8382
3.0920 28.4815 2.8382
2.8334 28.5950 2.8382
2.5722 28.6988 2.8382
2.3088 28.7929 2.8382
2.0433 28.8769 2.8382
1.7759 28.9507 2.8382
1.5069 29.0143 2.8382
1.2365 29.0676 2.8382
0.9650 29.1103 2.8382
0.6926 29.1426 2.8382
0.4195 29.1643 2.8382
0.1461 29.1752 2.8382
-0.1275 29.1756 2.8382
-0.4009 29.1653 2.8382
-0.6740 29.1444 2.8382
-0.9465 29.1129 2.8382
-1.2180 29.0708 2.8382
-1.4885 29.0183 2.8382
-1.7576 28.9554 2.8382
-2.0251 28.8822 2.8382
-2.2908 28.7989 2.8382
-2.5544 28.7056 2.8382
-2.8157 28.6024 2.8382
-3.0745 28.4896 2.8382
-3.3305 28.3673 2.8382
-3.5836 28.2357 2.8382
-3.8337 28.0950 2.8382
-4.0803 27.9455 2.8382
-4.3236 27.7873 2.8382
-4.5631 27.6209 2.8382
-4.7988 27.4463 2.8382
-5.0306 27.2638 2.8382
-5.2582 27.0738 2.8382
-5.4816 26.8766 2.8382
-5.6399 26.3884 2.8080
-5.6580 25.3112 2.7149
-5.7961 24.8347 2.6858
-5.9904 24.6233 2.6858
-6.1801 24.4062 2.6858
-6.3652 24.1840 2.6858
-6.5457 23.9568 2.6858
-6.7215 23.7250 2.6858
-6.8926 23.4888 2.6858
-7.0589 23.2485 2.6858
-7.2204 23.0044 2.6858
-6.9582 21.4645 2.5333
-7.1782 21.4569 2.5606
-7.6761 22.2519 2.6858
-7.8183 21.9953 2.6858
-7.9558 21.7362 2.6858
-8.0884 21.4749 2.6858
-8.2163 21.2116 2.6858
-8.3394 20.9466 2.6858
-8.4579 20.6800 2.6858
-8.5717 20.4122 2.6858
-8.6808 20.1433 2.6858
-8.7854 19.8737 2.6858
-8.8855 19.6033 2.6858
-8.9811 19.3326 2.6858
-9.0723 19.0617 2.6858
-9.6789 19.8568 2.8382
-9.7663 19.5705 2.8382
-9.8491 19.2846 2.8382
-9.9277 18.9990 2.8382
-10.0019 18.7142 2.8382
-10.0720 18.4302 2.8382
-10.1379 18.1471 2.8382
-7.0536 12.3543 1.9627
-10.2578 17.5843 2.8382
-10.3120 17.3049 2.8382
-10.3623 17.0270 2.8382
-10.4090 16.7506 2.8382
-10.4520 16.4759 2.8382
-10.4916 16.2031 2.8382
-10.5277 15.9321 2.8382
-10.5605 15.6631 2.8382
-10.5901 15.3961 2.8382
-10.6165 15.1313 2.8382
-10.6398 14.8686 2.8382
-10.6601 14.6082 2.8382
-10.6775 14.3501 2.8382
-10.6921 14.0944 2.8382
-10.7039 13.8411 2.8382
-10.7132 13.5903 2.8382
-10.7198 13.3420 2.8382
-10.7239 13.0962 2.8382
-10.7256 12.8529 2.8382
-10.7249 12.6123 2.8382
-10.7220 12.3743 2.8382
-10.7169 12.1389 2.8382
-10.7096 11.9062 2.8382
-10.7003 11.6761 2.8382
-10.6890 11.4487 2.8382
-10.6758 11.2240 2.8382
-10.6607 11.0020 2.8382
-10.6439 10.7827 2.8382
-10.6253 10.5661 2.8382
-10.6051 10.3522 2.8382
-10.5832 10.1409 2.8382
-10.5598 9.9323 2.8382
-10.5349 9.7264 2.8382
-10.5086 9.5232 2.8382
-10.4809 9.3226 2.8382
-10.4519 9.1246 2.8382
-10.4216 8.9293 2.8382
-10.3901 8.7365 2.8382
-10.3574 8.5464 2.8382
-10.3235 8.3589 2.8382
-10.2886 8.1738 2.8382
-10.2527 7.9913 2.8382
-10.2157 7.8114 2.8382
-10.1778 7.6339 2.8382
-10.1389 7.4588 2.8382
-10.0992 7.2863 2.8382
-10.0587 7.1161 2.8382
-10.0173 6.9484 2.8382
-9.9752 6.7829 2.8382
-9.9323 6.6199 2.8382
-7.0877 4.6295 2.0343
-7.0095 4.4862 2.0209
-7.0447 4.4171 2.0403
-7.1807 4.4100 2.0894
-7.3222 4.4038 2.1407
-9.1427 5.3843 2.6858
-9.0981 5.2443 2.6858
-9.0531 5.1069 2.6858
-8.9153 4.7064 2.6858
-9.0076 4.9715 2.6858
-8.8685 4.5768 2.6858
-8.9616 4.8380 2.6858
-8.8215 4.4491 2.6858
-8.7263 4.1992 2.6858
-8.6782 4.0770 2.6858
-8.7740 4.3232 2.6858
-8.6299 3.9566 2.6858
-8.5813 3.8379 2.6858
-8.5325 3.7210 2.6858
-8.4834 3.6058 2.6858
-8.4341 3.4923 2.6858
-8.3846 3.3804 2.6858
2.0640 19.2907 2.8382
1.8895 19.3481 2.8382
1.7138 19.4006 2.8382
1.5370 19.4480 2.8382
1.3592 19.4903 2.8382
1.1806 19.5274 2.8382
1.0012 19.5593 2.8382
0.8212 19.5860 2.8382
0.6406 19.6074 2.8382
0.4597 19.6236 2.8382
0.2784 19.6344 2.8382
0.0969 19.6399 2.8382
-0.0846 19.6401 2.8382
-0.2660 19.6350 2.8382
-0.4473 19.6245 2.8382
-0.6283 19.6087 2.8382
-0.8089 19.5876 2.8382
-0.9890 19.5613 2.8382
-1.1684 19.5297 2.8382
-1.3471 19.4929 2.8382
-1.5249 19.4510 2.8382
-1.7018 19.4039 2.8382
-1.8775 19.3518 2.8382
-2.0521 19.2947 2.8382
-2.2254 19.2327 2.8382
-2.3973 19.1659 2.8382
-2.5677 19.0942 2.8382
-2.7365 19.0179 2.8382
-2.9037 18.9369 2.8382
-3.0690 18.8515 2.8382
-3.2325 18.7615 2.8382
-3.3941 18.6673 2.8382
-3.5536 18.5688 2.8382
-3.7111 18.4662 2.8382
-3.8663 18.3596 2.8382
-4.0193 18.2491 2.8382
-4.1700 18.1348 2.8382
-4.3184 18.0168 2.8382
-4.4643 17.8952 2.8382
-4.6077 17.7703 2.8382
-4.7485 17.6419 2.8382
-4.8868 17.5104 2.8382
-5.0225 17.3758 2.8382
-5.1555 17.2383 2.8382
-5.2858 17.0979 2.8382
-5.4133 16.9548 2.8382
-5.5381 16.8091 2.8382
-5.6582 16.6554 2.8373
-5.6682 16.1934 2.7837
-5.6777 15.7531 2.7333
-5.6865 15.3331 2.6858
-5.7912 15.1847 2.6858
-5.8932 15.0347 2.6858
-5.9925 14.8830 2.6858
-6.0890 14.7298 2.6858
-6.1829 14.5752 2.6858
-6.2740 14.4193 2.6858
-6.3625 14.2622 2.6858
-6.4482 14.1039 2.6858
-6.5313 13.9447 2.6858
-6.6117 13.7846 2.6858
-6.6894 13.6237 2.6858
-6.7644 13.4621 2.6858
-6.8369 13.2999 2.6858
-6.9068 13.1372 2.6858
-6.9740 12.9741 2.6858
-7.0388 12.8106 2.6858
-7.1010 12.6469 2.6858
-7.0803 12.3429 2.6557
-7.2179 12.3190 2.6858
-7.2727 12.1550 2.6858
-7.3251 11.9910 2.6858
-7.3751 11.8272 2.6858
-7.4227 11.6636 2.6858
-7.4681 11.5002 2.6858
-7.5111 11.3372 2.6858
-7.5520 11.1746 2.6858
-7.5906 11.0124 2.6858
-7.6270 10.8507 2.6858
-7.6614 10.6895 2.6858
-7.6936 10.5290 2.6858
-7.7238 10.3692 2.6858
-7.7519 10.2099 2.6858
-7.7781 10.0516 2.6858
-7.8023 9.8939 2.6858
-7.8247 9.7371 2.6858
-7.8451 9.5812 2.6858
-7.8638 9.4262 2.6858
-7.8807 9.2721 2.6858
-7.8958 9.1190 2.6858
-7.9092 8.9669 2.6858
-7.9209 8.8158 2.6858
-7.9310 8.6658 2.6858
-7.9394 8.5169 2.6858
-7.9463 8.3691 2.6858
-7.9517 8.2223 2.6858
-7.9557 8.0768 2.6858
-7.9581 7.9325 2.6858
-7.9591 7.7892 2.6858
-7.9571 7.5064 2.6858
-7.9588 7.6472 2.6858
-7.9541 7.3668 2.6858
-7.9375 6.9556 2.6858
-7.9498 7.2285 2.6858
-7.9296 6.8210 2.6858
-7.9443 7.0914 2.6858
-7.9205 6.6877 2.6858
-7.8990 6.4250 2.6858
-7.9103 6.5558 2.6858
-7.8436 5.9149 2.6858
-7.8867 6.2955 2.6858
-7.8273 5.7906 2.6858
-7.8733 6.1674 2.6858
-7.8101 5.6676 2.6858
-7.7920 5.5459 2.6858
-7.8589 6.0405 2.6858
-7.7731 5.4255 2.6858
-7.7533 5.3064 2.6858
-7.0375 4.5365 2.4582
-7.7327 5.1885 2.6858
-6.9617 4.3976 2.4390
-7.1163 4.6805 2.4786
-7.0819 4.3828 2.4887
-7.3565 4.3675 2.6021
-7.2173 4.3752 2.5445
-7.5677 4.3991 2.6858
-7.5415 4.2913 2.6858
-7.4872 4.0795 2.6858
-7.5146 4.1848 2.6858
-7.4592 3.9755 2.6858
-7.3719 3.6704 2.6858
-7.4306 3.8726 2.6858
-7.3417 3.5712 2.6858
-7.3111 3.4731 2.6858
-7.4015 3.7709 2.6858
-7.2801 3.3761 2.6858
-7.2486 3.2804 2.6858
-7.2166 3.1857 2.6858
-7.1843 3.0922 2.6858
-7.1515 2.9999 2.6858
1.5323 14.5370 2.8382
1.4020 14.5726 2.8382
1.2710 14.6050 2.8382
1.1395 14.6344 2.8382
1.0073 14.6605 2.8382
0.8746 14.6835 2.8382
0.7415 14.7032 2.8382
0.6080 14.7196 2.8382
0.4743 14.7329 2.8382
0.3402 14.7428 2.8382
0.2060 14.7495 2.8382
0.0717 14.7529 2.8382
-0.0626 14.7530 2.8382
-0.1969 14.7499 2.8382
-0.3311 14.7434 2.8382
-0.4651 14.7336 2.8382
-0.5989 14.7206 2.8382
-0.7324 14.7044 2.8382
-0.8656 14.6849 2.8382
-0.9983 14.6622 2.8382
-1.1305 14.6362 2.8382
-1.2621 14.6071 2.8382
-1.3931 14.5749 2.8382
-1.5234 14.5395 2.8382
-1.6530 14.5010 2.8382
-1.7817 14.4594 2.8382
-1.9096 14.4149 2.8382
-2.0365 14.3673 2.8382
-2.1625 14.3168 2.8382
-2.2874 14.2634 2.8382
-2.4112 14.2072 2.8382
-2.5338 14.1481 2.8382
-2.6552 14.0863 2.8382
-3.1280 13.8125 2.8382
-2.7754 14.0217 2.8382
-3.2427 13.7377 2.8382
-2.8943 13.9546 2.8382
-3.3559 13.6604 2.8382
-3.0119 13.8848 2.8382
-3.4677 13.5809 2.8382
-3.5778 13.4990 2.8382
-4.0023 13.1497 2.8382
-3.6864 13.4148 2.8382
-4.1042 13.0572 2.8382
-3.7934 13.3285 2.8382
-4.2044 12.9628 2.8382
-3.8987 13.2401 2.8382
-4.3028 12.8666 2.8382
-4.3995 12.7686 2.8382
-4.7679 12.3601 2.8382
-4.4943 12.6689 2.8382
-4.8553 12.2542 2.8382
-4.5873 12.5675 2.8382
-4.9410 12.1470 2.8382
-4.6785 12.4646 2.8382
-5.0247 12.0384 2.8382
-5.1065 11.9285 2.8382
-5.4149 11.4779 2.8382
-5.1865 11.8175 2.8382
-5.4872 11.3628 2.8382
-5.2645 11.7057 2.8382
-5.5576 11.2467 2.8382
-5.3406 11.5921 2.8382
-5.6732 10.9745 2.8284
-5.6262 11.1300 2.8382
-5.6786 10.7449 2.7993
-5.6933 10.0976 2.7201
-5.6837 10.5224 2.7716
-5.6978 9.8946 2.6963
-5.6886 10.3067 2.7452
-5.7282 9.7416 2.6858
-5.8279 9.5124 2.6858
-5.7789 9.6274 2.6858
-5.8752 9.3972 2.6858
-6.0070 9.0507 2.6858
-5.9208 9.2818 2.6858
-6.1598 8.5880 2.6858
-6.0476 8.9350 2.6858
-5.9648 9.1663 2.6858
-6.1940 8.4725 2.6858
-6.0866 8.8193 2.6858
-6.2874 8.1268 2.6858
-6.2267 8.3570 2.6858
-6.2578 8.2418 2.6858
-6.1240 8.7036 2.6858
-6.3155 8.0120 2.6858
-6.3911 7.6694 2.6858
-6.4723 7.2178 2.6858
-6.3422 7.8975 2.6858
-6.4135 7.5559 2.6858
-6.4345 7.4428 2.6858
-6.4892 7.1060 2.6858
-6.3674 7.7833 2.6858
-6.4541 7.3301 2.6858
-6.5323 6.7736 2.6858
-6.5049 6.9947 2.6858
-6.5725 6.3382 2.6858
-6.5192 6.8839 2.6858
-6.5442 6.6639 2.6858
-6.5797 6.2309 2.6858
-6.5857 6.1242 2.6858
-6.5548 6.5547 2.6858
-6.5944 5.9128 2.6858
-6.5906 6.0182 2.6858
-6.5643 6.4462 2.6858
-6.5994 5.4983 2.6858
-6.5972 5.8081 2.6858
-6.5887 5.0954 2.6858
-6.5981 5.3964 2.6858
-6.5989 5.7041 2.6858
-6.5837 4.9966 2.6858
-6.5959 5.2954 2.6858
-6.5996 5.6008 2.6858
-6.5927 5.1950 2.6858
-6.5779 4.8985 2.6858
-6.5255 4.3265 2.6858
-6.5636 4.7047 2.6858
-6.5712 4.8012 2.6858
-6.5141 4.2340 2.6858
-6.5553 4.6089 2.6858
-6.4755 3.9611 2.6858
-6.5020 4.1422 2.6858
-6.4891 4.0513 2.6858
-6.4613 3.8718 2.6858
-6.5462 4.5140 2.6858
-6.4147 3.6087 2.6858
-6.4464 3.7833 2.6858
-6.5362 4.4199 2.6858
-6.3980 3.5226 2.6858
-6.4309 3.6956 2.6858
-6.3441 3.2693 2.6858
-6.3806 3.4374 2.6858
-6.3251 3.1864 2.6858
-6.3626 3.3529 2.6858
-6.3055 3.1044 2.6858
-6.2853 3.0232 2.6858
-6.2647 2.9427 2.6858
-6.2436 2.8631 2.6858
-6.2220 2.7842 2.6858
-6.1999 2.7062 2.6858
1.2062 11.6218 2.8382
1.1033 11.6464 2.8382
1.0000 11.6689 2.8382
0.8962 11.6892 2.8382
0.7921 11.7072 2.8382
0.6876 11.7231 2.8382
0.5829 11.7367 2.8382
0.4779 11.7480 2.8382
0.3727 11.7572 2.8382
0.2674 11.7640 2.8382
0.1619 11.7686 2.8382
0.0564 11.7710 2.8382
-0.0492 11.7711 2.8382
-0.1547 11.7689 2.8382
-0.2602 11.7644 2.8382
-0.3655 11.7577 2.8382
-0.4707 11.7487 2.8382
-0.5757 11.7375 2.8382
-0.6805 11.7241 2.8382
-0.7850 11.7083 2.8382
-0.8891 11.6904 2.8382
-0.9929 11.6703 2.8382
-1.0963 11.6480 2.8382
-1.1992 11.6235 2.8382
-1.3016 11.5969 2.8382
-1.4035 11.5681 2.8382
-1.5048 11.5372 2.8382
-1.6055 11.5042 2.8382
-1.7056 11.4691 2.8382
-1.8050 11.4320 2.8382
-1.9036 11.3928 2.8382
-2.0015 11.3517 2.8382
-2.0985 11.3086 2.8382
-2.1948 11.2636 2.8382
-2.2902 11.2166 2.8382
-2.3846 11.1678 2.8382
-2.4782 11.1171 2.8382
-2.5708 11.0646 2.8382
-2.6624 11.0104 2.8382
-2.7529 10.9544 2.8382
-2.8425 10.8967 2.8382
-2.9309 10.8373 2.8382
-3.0183 10.7763 2.8382
-3.1045 10.7137 2.8382
-3.1896 10.6496 2.8382
-3.2735 10.5840 2.8382
-3.3563 10.5169 2.8382
-3.4378 10.4483 2.8382
-3.5181 10.3784 2.8382
-3.5971 10.3071 2.8382
-3.6749 10.2345 2.8382
-3.7514 10.1606 2.8382
-3.8267 10.0855 2.8382
-3.9006 10.0093 2.8382
-3.9732 9.9319 2.8382
-4.0445 9.8533 2.8382
-4.1144 9.7737 2.8382
-4.1830 9.6931 2.8382
-4.2503 9.6116 2.8382
-4.3161 9.5291 2.8382
-4.3807 9.4457 2.8382
-4.4438 9.3615 2.8382
-4.5056 9.2764 2.8382
-4.5660 9.1905 2.8382
-4.6250 9.1040 2.8382
-4.6826 9.0167 2.8382
-4.7389 8.9288 2.8382
-4.7938 8.8403 2.8382
-4.8473 8.7512 2.8382
-4.8994 8.6615 2.8382
-4.9501 8.5714 2.8382
-4.9995 8.4808 2.8382
-5.0475 8.3897 2.8382
-5.2260 8.0220 2.8382
-5.0942 8.2983 2.8382
-5.2673 7.9296 2.8382
-5.3072 7.8365 2.8382
-5.1395 8.2065 2.8382
-5.3459 7.7434 2.8382
-5.1834 8.1144 2.8382
-5.3832 7.6501 2.8382
-5.4192 7.5568 2.8382
-5.5196 7.2762 2.8382
-5.4540 7.4633 2.8382
-5.4874 7.3697 2.8382
-5.5506 7.1826 2.8382
-5.6360 6.9018 2.8382
-5.5803 7.0890 2.8382
-5.6621 6.8085 2.8382
-5.6087 6.9954 2.8382
-5.6821 6.7095 2.8358
-5.6842 6.5914 2.8251
-5.6861 6.4758 2.8150
-5.6930 6.0330 2.7802
-5.6880 6.3616 2.8054
-5.6945 5.9273 2.7728
-5.6959 5.8234 2.7660
-5.6898 6.2504 2.7965
-5.6972 5.7212 2.7596
-5.6984 5.6207 2.7538
-5.6914 6.1406 2.7880
-5.6995 5.5219 2.7484
-5.7006 5.4246 2.7434
-5.7024 5.2347 2.7349
-5.7015 5.3289 2.7390
-5.7053 4.8717 2.7229
-5.7033 5.1419 2.7313
-5.7059 4.7842 2.7208
-5.7040 5.0505 2.7281
-5.7063 4.6980 2.7192
-5.7067 4.6129 2.7179
-5.7047 4.9605 2.7253
-5.7071 4.5289 2.7170
-5.7079 4.2038 2.7170
-5.7074 4.4461 2.7165
-5.7076 4.3643 2.7163
-5.7079 4.1251 2.7178
-5.7079 4.0473 2.7190
-5.7078 4.2836 2.7165
-5.7079 3.9704 2.7205
-5.7077 3.8944 2.7223
-5.7067 3.5988 2.7326
-5.7049 3.3153 2.7476
-5.7076 3.8192 2.7244
-5.7063 3.5268 2.7359
-5.7023 3.0427 2.7672
-5.7043 3.2463 2.7521
-5.7015 2.9761 2.7728
-5.7073 3.7449 2.7268
-5.7007 2.9100 2.7787
-5.7071 3.6715 2.7295
-5.6998 2.8445 2.7848
-5.7037 3.1778 2.7569
-5.7030 3.1099 2.7619
-5.7059 3.4557 2.7395
-5.7054 3.3852 2.7434
-5.6989 2.7796 2.7912
-5.6979 2.7152 2.7979
-5.6969 2.6513 2.8048
-5.6959 2.5878 2.8120
