ply
format ascii 1.0
element vertex 2186
property float32 x
property float32 y
property float32 z
end_header
5.6426 -7.8180 0.5589
6.5000 -4.7873 -0.0487
6.5006 -4.4117 -0.1205
6.5022 -3.9700 -0.2081
6.5008 -4.3210 -0.1382
6.5002 -4.6914 -0.0668
6.5024 -3.8848 -0.2254
6.5009 -4.2315 -0.1558
6.5003 -4.5969 -0.0848
6.5026 -3.8007 -0.2426
6.5011 -4.1431 -0.1733
6.5028 -3.7174 -0.2598
6.5005 -4.5037 -0.1027
6.5020 -4.0562 -0.1907
6.5030 -3.6351 -0.2769
6.5042 -3.1591 -0.3786
6.5032 -3.5537 -0.2939
6.5051 -2.7828 -0.4624
6.5043 -3.0825 -0.3954
6.5053 -2.7094 -0.4792
6.5034 -3.4732 -0.3109
6.5045 -3.0066 -0.4122
6.5047 -2.9313 -0.4289
6.5054 -2.6366 -0.4959
6.5036 -3.3935 -0.3279
6.5049 -2.8567 -0.4457
6.5056 -2.5644 -0.5126
6.5060 -2.4217 -0.5460
6.5058 -2.4928 -0.5293
6.5038 -3.3146 -0.3448
6.5061 -2.3511 -0.5627
6.5068 -2.0733 -0.6298
6.5040 -3.2365 -0.3617
6.5063 -2.2809 -0.5795
6.5070 -2.0049 -0.6466
6.5065 -2.2113 -0.5962
6.5072 -1.9369 -0.6634
6.5077 -1.7353 -0.7141
6.5067 -2.1421 -0.6130
6.5073 -1.8694 -0.6803
6.5078 -1.6687 -0.7311
6.5085 -1.4056 -0.7994
6.5075 -1.8021 -0.6972
6.5086 -1.3404 -0.8166
6.5080 -1.6025 -0.7481
6.5088 -1.2756 -0.8338
6.5107 -1.0825 -0.8862
6.5081 -1.5366 -0.7651
6.5089 -1.2109 -0.8512
6.5107 -1.0184 -0.9037
6.5083 -1.4709 -0.7822
6.5091 -1.1465 -0.8686
6.5107 -0.9545 -0.9213
6.5110 -0.4480 -1.0650
6.5108 -0.8907 -0.9390
6.5108 -0.7637 -0.9745
6.5110 -0.3851 -1.0834
6.5108 -0.8271 -0.9567
6.5108 -0.7004 -0.9924
6.5110 -0.3222 -1.1019
6.5111 -0.1337 -1.1582
6.5111 -0.2594 -1.1206
6.5109 -0.6371 -1.0104
6.5112 -0.0709 -1.1771
6.5111 -0.1965 -1.1393
6.5112 -0.0080 -1.1962
6.5109 -0.5740 -1.0285
6.5113 0.1807 -1.2544
6.5112 0.0548 -1.2155
6.5109 -0.5109 -1.0467
6.5113 0.2438 -1.2740
6.5113 0.1178 -1.2348
6.5114 0.3069 -1.2938
6.5115 0.4969 -1.3542
6.5117 0.8166 -1.4582
6.5114 0.3701 -1.3138
6.5117 0.8810 -1.4795
6.5115 0.5605 -1.3746
6.5114 0.4335 -1.3339
6.5117 0.9457 -1.5011
6.5118 1.1413 -1.5670
6.5115 0.6243 -1.3952
6.5118 1.0107 -1.5228
6.5119 1.2070 -1.5894
6.5118 1.0759 -1.5448
6.5116 0.6882 -1.4160
6.5119 1.2731 -1.6120
6.5120 1.4731 -1.6813
6.5120 1.3394 -1.6349
6.5116 0.7523 -1.4370
6.5121 1.5404 -1.7049
6.5120 1.4061 -1.6580
6.5121 1.6082 -1.7288
6.5111 2.1653 -1.9296
6.5123 1.8138 -1.8020
6.5122 1.6763 -1.7529
6.5113 2.2373 -1.9562
6.5122 1.7448 -1.7773
6.5115 2.3098 -1.9832
6.5105 1.8827 -1.8265
6.5120 2.5311 -2.0662
6.5116 2.3830 -2.0105
6.5121 2.6062 -2.0946
6.5107 1.9526 -1.8518
6.5118 2.4567 -2.0381
6.5123 2.6819 -2.1234
6.5128 2.9135 -2.2124
6.5108 2.0230 -1.8774
6.5125 2.7584 -2.1526
6.5130 2.9923 -2.2429
6.5126 2.8356 -2.1823
6.5110 2.0939 -1.9034
6.5132 3.0719 -2.2739
6.5134 3.1523 -2.3054
6.5136 3.2336 -2.3374
6.5137 3.3159 -2.3699
6.5139 3.3991 -2.4028
6.5141 3.4832 -2.4364
6.5143 3.5685 -2.4705
6.5145 3.6547 -2.5051
6.5147 3.7421 -2.5404
7.3559 -17.6913 2.6475
7.5695 -17.7027 2.6387
4.8728 -11.0875 1.6459
5.0266 -11.1338 1.6457
5.1640 -11.1396 1.6393
5.3010 -11.1419 1.6321
5.4394 -11.1443 1.6248
5.5791 -11.1468 1.6171
5.7202 -11.1492 1.6093
5.8627 -11.1517 1.6012
5.9977 -11.1374 1.5904
6.1755 -11.1987 1.5902
6.2728 -11.1119 1.5687
6.4868 -11.2284 1.5756
6.4871 -10.9753 1.5304
6.4874 -10.7307 1.4867
6.1926 -10.0167 1.3785
6.2214 -9.8433 1.3452
6.2250 -9.6358 1.3074
6.2285 -9.4345 1.2706
6.2319 -9.2390 1.2347
5.3672 -7.7893 1.0326
5.5129 -7.8335 1.0299
5.6332 -7.8385 1.0217
5.7532 -7.8405 1.0129
5.8750 -7.8427 1.0038
5.9986 -7.8448 0.9945
6.1140 -7.8341 0.9832
6.2155 -7.8041 0.9694
6.4972 -7.9946 0.9824
6.4959 -7.0926 0.8088
6.4977 -7.8360 0.9521
6.4962 -6.9543 0.7818
6.4981 -7.6812 0.9225
6.4964 -6.8191 0.7552
6.4985 -7.5300 0.8934
6.4966 -6.6866 0.7290
6.4968 -6.5569 0.7032
6.4990 -7.3822 0.8649
6.4970 -6.4298 0.6779
6.4973 -6.3051 0.6529
6.4994 -7.2379 0.8369
6.4975 -6.1829 0.6283
6.4981 -5.8298 0.5565
6.4977 -6.0630 0.6040
6.4979 -5.9454 0.5801
6.4982 -5.7164 0.5332
6.4990 -5.2817 0.4428
6.4984 -5.6049 0.5102
6.4992 -5.1775 0.4209
6.4993 -5.0750 0.3991
6.4986 -5.4954 0.4874
6.4995 -4.9740 0.3777
6.4988 -5.3876 0.4650
6.4997 -4.8745 0.3564
6.5006 -4.3074 0.2330
6.4998 -4.7766 0.3354
6.5008 -4.2173 0.2131
6.5000 -4.6801 0.3145
6.5009 -4.1284 0.1933
6.5002 -4.5850 0.2939
6.5018 -4.0411 0.1736
6.5003 -4.4912 0.2734
6.5020 -3.9544 0.1541
6.5022 -3.8688 0.1348
6.5005 -4.3987 0.2531
6.5024 -3.7842 0.1155
6.5026 -3.7006 0.0964
6.5032 -3.4552 0.0397
6.5028 -3.6179 0.0774
6.5034 -3.3752 0.0210
6.5030 -3.5361 0.0585
6.5042 -3.0630 -0.0528
6.5036 -3.2960 0.0025
6.5043 -2.9868 -0.0711
6.5038 -3.2176 -0.0160
6.5045 -2.9113 -0.0892
6.5040 -3.1399 -0.0345
6.5047 -2.8364 -0.1074
6.5049 -2.7622 -0.1254
6.5051 -2.6886 -0.1434
6.5060 -2.3292 -0.2327
6.5053 -2.6156 -0.1614
6.5061 -2.2589 -0.2505
6.5054 -2.5432 -0.1793
6.5063 -2.1891 -0.2682
6.5065 -2.1197 -0.2859
6.5056 -2.4713 -0.1971
6.5066 -2.0507 -0.3036
6.5058 -2.4000 -0.2150
6.5068 -1.9822 -0.3212
6.5070 -1.9141 -0.3389
6.5076 -1.6453 -0.4094
6.5072 -1.8464 -0.3565
6.5078 -1.5790 -0.4270
6.5073 -1.7790 -0.3741
6.5080 -1.5129 -0.4447
6.5075 -1.7120 -0.3918
6.5085 -1.3165 -0.4977
6.5081 -1.4472 -0.4623
6.5086 -1.2515 -0.5154
6.5083 -1.3817 -0.4800
6.5088 -1.1868 -0.5331
6.5089 -1.1223 -0.5508
6.5101 -0.9939 -0.5866
6.5101 -1.0581 -0.5687
6.5102 -0.9300 -0.6044
6.5103 -0.6756 -0.6763
6.5102 -0.8662 -0.6223
6.5103 -0.6124 -0.6944
6.5102 -0.8025 -0.6403
6.5104 -0.5492 -0.7126
6.5104 -0.4861 -0.7308
6.5103 -0.7390 -0.6583
6.5104 -0.4231 -0.7491
6.5105 -0.3601 -0.7675
6.5106 -0.0459 -0.8605
6.5105 -0.2972 -0.7859
6.5107 0.0170 -0.8794
6.5107 0.0799 -0.8983
6.5105 -0.2344 -0.8044
6.5107 0.1428 -0.9174
6.5108 0.2058 -0.9366
6.5108 0.2688 -0.9558
6.5106 -0.1715 -0.8230
6.5108 0.3319 -0.9752
6.5106 -0.1087 -0.8417
6.5109 0.3951 -0.9948
6.5109 0.4584 -1.0144
6.5110 0.5854 -1.0540
6.5109 0.5219 -1.0341
6.5110 0.6492 -1.0741
6.5111 0.9058 -1.1556
6.5112 0.9704 -1.1764
6.5110 0.7130 -1.0942
6.5112 1.0353 -1.1973
6.5113 1.1004 -1.2185
6.5111 0.7771 -1.1146
6.5113 1.1658 -1.2397
6.5111 0.8413 -1.1350
6.5113 1.2314 -1.2612
6.5114 1.2974 -1.2829
6.5115 1.5644 -1.3715
6.5114 1.3636 -1.3047
6.5116 1.6320 -1.3941
6.5114 1.4302 -1.3268
6.5115 1.4971 -1.3490
6.5116 1.7000 -1.4170
6.5105 1.9062 -1.4869
6.5116 1.7684 -1.4402
6.5106 1.9760 -1.5107
6.5103 1.8369 -1.4632
6.5108 2.0462 -1.5349
6.5109 2.1169 -1.5593
6.5113 2.2600 -1.6090
6.5111 2.1882 -1.5840
6.5114 2.3324 -1.6342
6.5121 2.6279 -1.7384
6.5123 2.7034 -1.7653
6.5116 2.4053 -1.6598
6.5124 2.7796 -1.7925
6.5126 2.8566 -1.8201
6.5118 2.4789 -1.6857
6.5128 2.9343 -1.8480
6.5119 2.5531 -1.7119
6.5130 3.0128 -1.8764
6.5139 3.4180 -2.0242
6.5131 3.0921 -1.9051
6.5133 3.1722 -1.9342
6.5141 3.5018 -2.0551
6.5135 3.2532 -1.9638
6.5143 3.5866 -2.0865
6.5137 3.3351 -1.9938
6.5144 3.6725 -2.1183
6.5146 3.7594 -2.1507
6.5148 3.8475 -2.1836
5.6229 -13.3280 2.6857
4.8552 -11.1901 2.2505
4.9454 -11.0888 2.2257
6.1432 -13.4079 2.6857
5.2202 -11.0955 2.2178
5.3565 -11.0924 2.2123
5.4960 -11.0933 2.2074
5.6376 -11.0958 2.2027
5.7806 -11.0983 2.1979
5.9252 -11.1008 2.1929
6.0712 -11.1033 2.1877
6.2218 -11.1110 2.1834
6.4872 -11.3160 2.2176
6.4875 -11.0569 2.1606
6.4878 -10.8067 2.1055
6.1948 -10.0873 1.9594
6.2204 -9.9043 1.9179
6.2240 -9.6925 1.8708
6.2276 -9.4872 1.8251
6.2311 -9.2880 1.7806
5.3510 -7.8058 1.4912
5.4563 -7.7909 1.4829
5.5922 -7.8172 1.4823
5.7129 -7.8193 1.4769
5.8353 -7.8214 1.4713
5.9596 -7.8235 1.4656
6.0857 -7.8257 1.4597
6.2069 -7.8192 1.4521
6.3243 -7.8060 1.4430
6.4973 -7.8579 1.4457
6.4977 -7.7009 1.4099
6.4981 -7.5477 1.3748
6.4986 -7.3981 1.3405
6.4990 -7.2518 1.3069
6.4957 -7.1049 1.2733
6.4959 -6.9650 1.2410
6.4962 -6.8282 1.2093
6.4964 -6.6942 1.1782
6.4966 -6.5631 1.1477
6.4968 -6.4346 1.1177
6.4970 -6.3087 1.0882
6.4972 -6.1852 1.0593
6.4975 -6.0641 1.0308
6.4977 -5.9453 1.0028
6.4979 -5.8287 0.9753
6.4980 -5.7143 0.9481
6.4982 -5.6018 0.9214
6.4984 -5.4913 0.8950
6.4986 -5.3827 0.8691
6.4988 -5.2759 0.8435
6.4990 -5.1709 0.8183
6.4991 -5.0676 0.7933
6.4993 -4.9659 0.7688
6.4995 -4.8657 0.7445
6.4997 -4.7671 0.7205
6.4998 -4.6699 0.6968
6.5000 -4.5742 0.6734
6.5002 -4.4798 0.6503
6.5003 -4.3867 0.6274
6.5005 -4.2949 0.6047
6.5006 -4.2043 0.5823
6.5013 -4.1153 0.5602
6.5015 -4.0270 0.5382
6.5018 -3.9399 0.5165
6.5020 -3.8539 0.4949
6.5022 -3.7688 0.4736
6.5024 -3.6848 0.4524
6.5026 -3.6017 0.4314
6.5028 -3.5196 0.4106
6.5030 -3.4383 0.3899
6.5032 -3.3579 0.3694
6.5034 -3.2784 0.3491
6.5036 -3.1996 0.3289
6.5038 -3.1217 0.3088
6.5040 -3.0445 0.2889
6.5042 -2.9680 0.2691
6.5043 -2.8922 0.2494
6.5045 -2.8171 0.2298
6.5047 -2.7426 0.2104
6.5049 -2.6688 0.1910
6.5051 -2.5956 0.1718
6.5053 -2.5230 0.1526
6.5054 -2.4509 0.1335
6.5056 -2.3793 0.1146
6.5058 -2.3083 0.0957
6.5060 -2.2378 0.0768
6.5061 -2.1678 0.0581
6.5063 -2.0983 0.0394
6.5065 -2.0292 0.0207
6.5066 -1.9605 0.0022
6.5068 -1.8922 -0.0164
6.5070 -1.8243 -0.0348
6.5071 -1.7569 -0.0533
6.5073 -1.6897 -0.0716
6.5075 -1.6229 -0.0900
6.5085 -1.2285 -0.1995
6.5076 -1.5565 -0.1083
6.5086 -1.1637 -0.2177
6.5078 -1.4903 -0.1266
6.5095 -1.0992 -0.2360
6.5080 -1.4245 -0.1449
6.5096 -1.0348 -0.2541
6.5081 -1.3589 -0.1631
6.5096 -0.9705 -0.2723
6.5083 -1.2936 -0.1813
6.5096 -0.9065 -0.2905
6.5098 -0.5886 -0.3817
6.5097 -0.8426 -0.3087
6.5097 -0.7789 -0.3269
6.5098 -0.5254 -0.4000
6.5097 -0.7154 -0.3452
6.5099 -0.4623 -0.4183
6.5098 -0.6519 -0.3634
6.5099 -0.3993 -0.4367
6.5100 -0.2734 -0.4735
6.5099 -0.3363 -0.4551
6.5100 -0.2105 -0.4920
6.5100 -0.1476 -0.5105
6.5101 0.0409 -0.5664
6.5101 -0.0848 -0.5291
6.5102 0.1038 -0.5852
6.5101 -0.0219 -0.5477
6.5102 0.1667 -0.6040
6.5103 0.3558 -0.6609
6.5103 0.4190 -0.6801
6.5102 0.2297 -0.6229
6.5103 0.2927 -0.6419
6.5104 0.4823 -0.6993
6.5104 0.5457 -0.7186
6.5105 0.6729 -0.7575
6.5104 0.6092 -0.7380
6.5105 0.7367 -0.7771
6.5106 0.9939 -0.8567
6.5105 0.8007 -0.7969
6.5107 1.0587 -0.8769
6.5107 1.1237 -0.8973
6.5106 0.8649 -0.8167
6.5107 1.1891 -0.9178
6.5106 0.9293 -0.8367
6.5108 1.2546 -0.9384
6.5108 1.3205 -0.9591
6.5110 1.6546 -1.0653
6.5110 1.7225 -1.0871
6.5108 1.3866 -0.9800
6.5111 1.7907 -1.1090
6.5109 1.4531 -1.0011
6.5103 1.8592 -1.1310
6.5109 1.5199 -1.0223
6.5104 1.9284 -1.1534
6.5110 1.5871 -1.0438
6.5106 1.9980 -1.1760
6.5107 2.0681 -1.1987
6.5114 2.3536 -1.2921
6.5109 2.1387 -1.2217
6.5115 2.4263 -1.3161
6.5111 2.2098 -1.2450
6.5117 2.4997 -1.3403
6.5112 2.2814 -1.2684
6.5122 2.7235 -1.4145
6.5119 2.5736 -1.3648
6.5124 2.7995 -1.4399
6.5120 2.6483 -1.3895
6.5126 2.8762 -1.4655
6.5131 3.1108 -1.5443
6.5127 2.9536 -1.4914
6.5133 3.1907 -1.5712
6.5129 3.0318 -1.5177
6.5135 3.2714 -1.5985
6.5136 3.3529 -1.6262
6.5138 3.4354 -1.6542
6.5140 3.5189 -1.6827
6.5142 3.6033 -1.7115
6.5144 3.6888 -1.7407
6.5146 3.7753 -1.7704
6.5148 3.8629 -1.8005
6.5150 3.9516 -1.8311
4.7217 -11.0291 2.8069
4.7356 -10.7551 2.7353
4.7829 -10.5673 2.6857
4.9176 -10.5749 2.6857
5.0538 -10.5827 2.6857
5.1915 -10.5908 2.6857
5.3308 -10.5991 2.6857
5.4718 -10.6078 2.6857
5.6145 -10.6167 2.6857
5.7590 -10.6258 2.6857
5.9053 -10.6353 2.6857
6.0536 -10.6451 2.6857
6.2040 -10.6552 2.6857
6.3564 -10.6656 2.6857
6.1712 -10.1191 2.5455
5.7043 -9.1430 2.2976
6.4889 -10.1690 2.5527
5.7549 -8.8198 2.2116
5.8428 -8.7589 2.1938
5.3769 -7.8860 1.9729
5.4282 -7.7904 1.9466
5.5799 -7.8375 1.9560
5.7018 -7.8397 1.9540
5.8256 -7.8418 1.9520
5.9511 -7.8440 1.9499
6.0787 -7.8462 1.9477
6.2331 -7.8800 1.9533
6.3033 -7.8056 1.9320
6.4968 -7.8815 1.9478
6.4973 -7.7223 1.9055
6.4977 -7.5669 1.8641
6.4982 -7.4153 1.8238
6.4986 -7.2671 1.7842
6.4954 -7.1185 1.7447
6.4957 -6.9770 1.7068
6.4959 -6.8385 1.6698
6.4962 -6.7029 1.6335
6.4964 -6.5703 1.5980
6.4966 -6.4404 1.5632
6.4968 -6.3132 1.5290
6.4970 -6.1884 1.4955
6.4972 -6.0662 1.4626
6.4975 -5.9462 1.4303
6.4977 -5.8285 1.3986
6.4979 -5.7130 1.3674
6.4980 -5.5995 1.3368
6.4982 -5.4881 1.3067
6.4984 -5.3786 1.2770
6.4986 -5.2709 1.2478
6.4988 -5.1651 1.2191
6.4990 -5.0609 1.1909
6.4991 -4.9585 1.1630
6.4993 -4.8576 1.1356
6.4995 -4.7583 1.1085
6.4997 -4.6604 1.0818
6.4998 -4.5641 1.0555
6.5000 -4.4691 1.0295
6.5001 -4.3754 1.0039
6.5003 -4.2830 0.9786
6.5005 -4.1919 0.9536
6.5011 -4.1023 0.9290
6.5013 -4.0136 0.9046
6.5015 -3.9260 0.8805
6.5017 -3.8395 0.8567
6.5020 -3.7540 0.8331
6.5022 -3.6696 0.8098
6.5024 -3.5861 0.7867
6.5026 -3.5036 0.7639
6.5028 -3.4220 0.7412
6.5030 -3.3412 0.7188
6.5032 -3.2613 0.6966
6.5034 -3.1823 0.6746
6.5036 -3.1040 0.6528
6.5038 -3.0265 0.6312
6.5040 -2.9498 0.6098
6.5041 -2.8737 0.5885
6.5043 -2.7983 0.5674
6.5045 -2.7236 0.5465
6.5047 -2.6496 0.5257
6.5049 -2.5761 0.5051
6.5051 -2.5033 0.4846
6.5052 -2.4310 0.4642
6.5054 -2.3592 0.4440
6.5056 -2.2880 0.4239
6.5058 -2.2174 0.4039
6.5059 -2.1472 0.3840
6.5061 -2.0774 0.3643
6.5063 -2.0082 0.3446
6.5065 -1.9393 0.3250
6.5066 -1.8709 0.3056
6.5068 -1.8029 0.2862
6.5070 -1.7353 0.2669
6.5071 -1.6680 0.2477
6.5073 -1.6011 0.2286
6.5075 -1.5345 0.2095
6.5076 -1.4683 0.1905
6.5078 -1.4023 0.1716
6.5080 -1.3366 0.1527
6.5081 -1.2712 0.1338
6.5083 -1.2061 0.1151
6.5085 -1.1412 0.0963
6.5090 -1.0765 0.0776
6.5090 -1.0120 0.0590
6.5091 -0.9478 0.0404
6.5091 -0.8837 0.0218
6.5091 -0.8198 0.0032
6.5092 -0.7560 -0.0153
6.5092 -0.6924 -0.0338
6.5092 -0.6289 -0.0523
6.5093 -0.5656 -0.0708
6.5093 -0.5023 -0.0893
6.5093 -0.4392 -0.1078
6.5094 -0.3761 -0.1263
6.5094 -0.3131 -0.1448
6.5094 -0.2502 -0.1633
6.5095 -0.1873 -0.1818
6.5095 -0.1244 -0.2003
6.5095 -0.0615 -0.2188
6.5096 0.0013 -0.2374
6.5096 0.0641 -0.2560
6.5096 0.1270 -0.2746
6.5097 0.1899 -0.2933
6.5097 0.2529 -0.3120
6.5097 0.3159 -0.3307
6.5098 0.3790 -0.3495
6.5098 0.4421 -0.3683
6.5098 0.5054 -0.3872
6.5099 0.5688 -0.4061
6.5099 0.6322 -0.4251
6.5099 0.6959 -0.4442
6.5100 0.7597 -0.4633
6.5100 0.8236 -0.4825
6.5100 0.8877 -0.5018
6.5101 0.9521 -0.5212
6.5101 1.0166 -0.5406
6.5101 1.0813 -0.5602
6.5102 1.1463 -0.5798
6.5102 1.2115 -0.5995
6.5102 1.2770 -0.6194
6.5103 1.3428 -0.6393
6.5103 1.4088 -0.6594
6.5103 1.4752 -0.6796
6.5104 1.5419 -0.6999
6.5104 1.6089 -0.7203
6.5104 1.6763 -0.7409
6.5105 1.7441 -0.7616
6.5105 1.8122 -0.7824
6.5102 1.8807 -0.8034
6.5104 1.9497 -0.8246
6.5105 2.0192 -0.8459
6.5107 2.0891 -0.8674
6.5109 2.1595 -0.8891
6.5110 2.2304 -0.9109
6.5112 2.3019 -0.9330
6.5113 2.3739 -0.9552
6.5115 2.4464 -0.9777
6.5117 2.5196 -1.0003
6.5118 2.5933 -1.0232
6.5120 2.6677 -1.0463
6.5122 2.7428 -1.0696
6.5123 2.8185 -1.0931
6.5125 2.8949 -1.1169
6.5127 2.9721 -1.1410
6.5129 3.0500 -1.1653
6.5130 3.1287 -1.1899
6.5132 3.2082 -1.2148
6.5134 3.2885 -1.2399
6.5136 3.3698 -1.2654
6.5138 3.4519 -1.2912
6.5140 3.5350 -1.3173
6.5141 3.6190 -1.3437
6.5143 3.7040 -1.3705
6.5145 3.7901 -1.3976
6.5147 3.8773 -1.4251
6.5149 3.9656 -1.4529
6.5151 4.0550 -1.4812
3.9922 -9.1878 2.8381
4.1054 -9.1861 2.8381
4.2196 -9.1843 2.8381
4.3347 -9.1824 2.8381
4.4508 -9.1805 2.8381
4.5679 -9.1785 2.8381
4.6861 -9.1765 2.8381
4.7291 -9.0288 2.7930
4.7410 -8.8281 2.7316
4.7764 -8.6776 2.6857
4.8926 -8.6754 2.6857
5.0100 -8.6732 2.6857
5.1286 -8.6709 2.6857
5.2485 -8.6685 2.6857
5.3698 -8.6661 2.6857
5.4924 -8.6636 2.6857
5.6164 -8.6610 2.6857
5.7419 -8.6584 2.6857
5.3510 -7.8919 2.4487
5.3993 -7.7899 2.4179
6.1276 -8.6500 2.6857
6.2594 -8.6470 2.6857
6.3930 -8.6440 2.6857
6.4944 -8.5959 2.6717
6.4949 -8.4165 2.6169
6.2317 -7.9072 2.4595
6.2814 -7.8052 2.4288
6.4964 -7.9061 2.4611
6.4969 -7.7446 2.4119
6.4973 -7.5870 2.3638
6.4978 -7.4333 2.3169
6.4982 -7.2832 2.2712
6.4952 -7.1329 2.2254
6.4954 -6.9895 2.1817
6.4957 -6.8494 2.1390
6.4959 -6.7123 2.0972
6.4962 -6.5781 2.0564
6.4964 -6.4468 2.0164
6.4966 -6.3182 1.9773
6.4968 -6.1922 1.9390
6.4970 -6.0686 1.9014
6.4972 -5.9475 1.8646
6.4975 -5.8287 1.8285
6.4977 -5.7121 1.7931
6.4979 -5.5976 1.7583
6.4980 -5.4852 1.7242
6.4982 -5.3747 1.6907
6.4984 -5.2662 1.6577
6.4986 -5.1595 1.6254
6.4988 -5.0545 1.5936
6.4990 -4.9513 1.5623
6.4991 -4.8497 1.5315
6.4993 -4.7497 1.5012
6.4995 -4.6512 1.4714
6.4997 -4.5541 1.4420
6.4998 -4.4585 1.4131
6.5000 -4.3643 1.3845
6.5001 -4.2713 1.3564
6.5003 -4.1797 1.3287
6.5009 -4.0895 1.3015
6.5011 -4.0003 1.2746
6.5013 -3.9122 1.2480
6.5015 -3.8253 1.2217
6.5017 -3.7394 1.1958
6.5020 -3.6545 1.1702
6.5022 -3.5707 1.1449
6.5024 -3.4878 1.1199
6.5026 -3.4058 1.0952
6.5028 -3.3247 1.0708
6.5030 -3.2445 1.0467
6.5032 -3.1651 1.0228
6.5034 -3.0865 0.9991
6.5036 -3.0087 0.9757
6.5038 -2.9317 0.9526
6.5040 -2.8553 0.9296
6.5041 -2.7797 0.9069
6.5043 -2.7048 0.8844
6.5045 -2.6305 0.8621
6.5047 -2.5568 0.8400
6.5049 -2.4837 0.8181
6.5051 -2.4112 0.7964
6.5052 -2.3393 0.7748
6.5054 -2.2679 0.7534
6.5056 -2.1970 0.7322
6.5058 -2.1267 0.7112
6.5059 -2.0568 0.6902
6.5061 -1.9874 0.6695
6.5063 -1.9184 0.6489
6.5065 -1.8498 0.6284
6.5066 -1.7817 0.6080
6.5068 -1.7139 0.5878
6.5070 -1.6465 0.5677
6.5071 -1.5795 0.5477
6.5073 -1.5128 0.5278
6.5075 -1.4464 0.5080
6.5076 -1.3804 0.4883
6.5078 -1.3146 0.4687
6.5080 -1.2491 0.4492
6.5081 -1.1839 0.4298
6.5084 -1.1189 0.4105
6.5085 -1.0541 0.3912
6.5085 -0.9896 0.3721
6.5085 -0.9252 0.3529
6.5086 -0.8611 0.3339
6.5086 -0.7971 0.3149
6.5086 -0.7333 0.2960
6.5087 -0.6696 0.2771
6.5087 -0.6061 0.2583
6.5087 -0.5427 0.2395
6.5088 -0.4795 0.2207
6.5088 -0.4163 0.2020
6.5088 -0.3532 0.1834
6.5089 -0.2902 0.1647
6.5089 -0.2272 0.1461
6.5089 -0.1643 0.1275
6.5090 -0.1014 0.1089
6.5090 -0.0386 0.0904
6.5090 0.0242 0.0718
6.5091 0.0871 0.0533
6.5091 0.1499 0.0347
6.5091 0.2128 0.0162
6.5092 0.2758 -0.0024
6.5092 0.3388 -0.0209
6.5092 0.4018 -0.0395
6.5093 0.4649 -0.0581
6.5093 0.5282 -0.0767
6.5093 0.5915 -0.0953
6.5094 0.6549 -0.1139
6.5094 0.7185 -0.1326
6.5094 0.7823 -0.1513
6.5095 0.8461 -0.1701
6.5095 0.9102 -0.1889
6.5095 0.9745 -0.2077
6.5096 1.0389 -0.2266
6.5096 1.1036 -0.2456
6.5096 1.1685 -0.2646
6.5097 1.2336 -0.2836
6.5097 1.2990 -0.3028
6.5097 1.3647 -0.3220
6.5098 1.4306 -0.3413
6.5098 1.4969 -0.3606
6.5098 1.5634 -0.3801
6.5099 1.6303 -0.3996
6.5099 1.6976 -0.4193
6.5099 1.7653 -0.4390
6.5100 1.8332 -0.4588
6.5102 1.9017 -0.4788
6.5104 1.9706 -0.4989
6.5105 2.0399 -0.5191
6.5107 2.1097 -0.5394
6.5108 2.1799 -0.5598
6.5110 2.2507 -0.5804
6.5111 2.3219 -0.6011
6.5113 2.3937 -0.6220
6.5115 2.4661 -0.6430
6.5116 2.5390 -0.6642
6.5118 2.6125 -0.6856
6.5120 2.6867 -0.7071
6.5121 2.7615 -0.7288
6.5123 2.8369 -0.7507
6.5125 2.9131 -0.7727
6.5126 2.9900 -0.7950
6.5128 3.0676 -0.8175
6.5130 3.1460 -0.8402
6.5132 3.2252 -0.8631
6.5133 3.3052 -0.8863
6.5135 3.3861 -0.9097
6.5137 3.4679 -0.9333
6.5139 3.5505 -0.9572
6.5141 3.6342 -0.9814
6.5143 3.7188 -1.0058
6.5145 3.8045 -1.0305
6.5147 3.8912 -1.0555
6.5149 3.9790 -1.0809
6.5151 4.0679 -1.1065
6.5153 4.1580 -1.1325
3.4298 -7.7754 2.8381
3.5250 -7.7690 2.8381
3.6209 -7.7624 2.8381
3.7174 -7.7555 2.8381
3.8146 -7.7485 2.8381
3.9124 -7.7412 2.8381
4.0110 -7.7338 2.8381
4.1102 -7.7261 2.8381
4.2103 -7.7181 2.8381
4.3111 -7.7100 2.8381
4.4126 -7.7017 2.8381
4.5150 -7.6931 2.8381
4.6183 -7.6842 2.8381
4.7224 -7.6751 2.8381
4.7346 -7.5183 2.7835
4.7449 -7.3637 2.7296
4.7697 -7.2358 2.6857
4.8718 -7.2262 2.6857
4.9749 -7.2164 2.6857
5.0790 -7.2064 2.6857
5.1841 -7.1960 2.6857
5.2903 -7.1854 2.6857
5.3975 -7.1745 2.6857
5.5059 -7.1634 2.6857
5.6155 -7.1519 2.6857
5.7262 -7.1402 2.6857
5.8383 -7.1281 2.6857
5.9515 -7.1158 2.6857
6.0661 -7.1031 2.6857
6.1821 -7.0900 2.6857
6.2994 -7.0767 2.6857
6.4182 -7.0630 2.6857
6.4952 -7.0023 2.6679
6.4954 -6.8604 2.6192
6.4957 -6.7217 2.5716
6.4959 -6.5860 2.5252
6.4962 -6.4532 2.4797
6.4964 -6.3232 2.4353
6.4966 -6.1958 2.3919
6.4968 -6.0710 2.3494
6.4970 -5.9487 2.3078
6.4972 -5.8287 2.2670
6.4974 -5.7110 2.2271
6.4977 -5.5955 2.1880
6.4979 -5.4821 2.1496
6.4980 -5.3707 2.1120
6.4982 -5.2613 2.0751
6.4984 -5.1537 2.0389
6.4986 -5.0479 2.0033
6.4988 -4.9439 1.9684
6.4990 -4.8416 1.9341
6.4991 -4.7408 1.9003
6.4993 -4.6416 1.8672
6.4995 -4.5440 1.8346
6.4997 -4.4477 1.8025
6.4998 -4.3529 1.7710
6.5000 -4.2594 1.7399
6.5001 -4.1672 1.7093
6.5006 -4.0764 1.6793
6.5009 -3.9867 1.6497
6.5011 -3.8982 1.6205
6.5013 -3.8108 1.5917
6.5015 -3.7245 1.5633
6.5017 -3.6392 1.5353
6.5019 -3.5549 1.5077
6.5022 -3.4716 1.4804
6.5024 -3.3893 1.4535
6.5026 -3.3079 1.4270
6.5028 -3.2273 1.4007
6.5030 -3.1476 1.3749
6.5032 -3.0687 1.3493
6.5034 -2.9906 1.3240
6.5036 -2.9133 1.2990
6.5038 -2.8367 1.2743
6.5039 -2.7608 1.2498
6.5041 -2.6856 1.2257
6.5043 -2.6111 1.2018
6.5045 -2.5372 1.1781
6.5047 -2.4639 1.1547
6.5049 -2.3912 1.1315
6.5051 -2.3191 1.1085
6.5052 -2.2475 1.0857
6.5054 -2.1765 1.0632
6.5056 -2.1059 1.0409
6.5058 -2.0359 1.0187
6.5059 -1.9663 0.9968
6.5061 -1.8972 0.9750
6.5063 -1.8285 0.9534
6.5065 -1.7602 0.9320
6.5066 -1.6923 0.9108
6.5068 -1.6248 0.8897
6.5070 -1.5576 0.8688
6.5071 -1.4909 0.8480
6.5073 -1.4244 0.8273
6.5075 -1.3582 0.8068
6.5076 -1.2924 0.7865
6.5078 -1.2268 0.7662
6.5079 -1.1614 0.7461
6.5079 -1.0963 0.7261
6.5079 -1.0315 0.7062
6.5080 -0.9669 0.6864
6.5080 -0.9025 0.6667
6.5080 -0.8383 0.6472
6.5081 -0.7743 0.6277
6.5081 -0.7104 0.6083
6.5081 -0.6467 0.5890
6.5082 -0.5832 0.5698
6.5082 -0.5198 0.5506
6.5082 -0.4565 0.5316
6.5083 -0.3933 0.5126
6.5083 -0.3302 0.4937
6.5083 -0.2671 0.4748
6.5084 -0.2042 0.4560
6.5084 -0.1413 0.4372
6.5084 -0.0784 0.4186
6.5085 -0.0156 0.3999
6.5085 0.0473 0.3813
6.5085 0.1101 0.3627
6.5086 0.1729 0.3442
6.5086 0.2358 0.3257
6.5086 0.2987 0.3073
6.5087 0.3617 0.2888
6.5087 0.4247 0.2704
6.5087 0.4878 0.2520
6.5088 0.5510 0.2336
6.5088 0.6143 0.2153
6.5088 0.6777 0.1969
6.5089 0.7412 0.1785
6.5089 0.8049 0.1602
6.5089 0.8687 0.1418
6.5090 0.9327 0.1234
6.5090 0.9969 0.1050
6.5090 1.0613 0.0866
6.5091 1.1258 0.0682
6.5091 1.1906 0.0498
6.5091 1.2557 0.0313
6.5092 1.3210 0.0128
6.5092 1.3866 -0.0058
6.5092 1.4524 -0.0243
6.5092 1.5185 -0.0430
6.5093 1.5850 -0.0616
6.5093 1.6518 -0.0804
6.5093 1.7189 -0.0991
6.5094 1.7864 -0.1180
6.5094 1.8543 -0.1369
6.5102 1.9228 -0.1559
6.5103 1.9915 -0.1749
6.5105 2.0606 -0.1940
6.5106 2.1302 -0.2132
6.5108 2.2003 -0.2325
6.5109 2.2709 -0.2519
6.5111 2.3419 -0.2714
6.5113 2.4135 -0.2910
6.5114 2.4856 -0.3107
6.5116 2.5584 -0.3305
6.5118 2.6317 -0.3504
6.5119 2.7056 -0.3705
6.5121 2.7801 -0.3906
6.5123 2.8553 -0.4109
6.5124 2.9312 -0.4314
6.5126 3.0078 -0.4520
6.5128 3.0851 -0.4727
6.5129 3.1632 -0.4937
6.5131 3.2421 -0.5147
6.5133 3.3218 -0.5360
6.5135 3.4024 -0.5574
6.5137 3.4837 -0.5790
6.5138 3.5661 -0.6008
6.5140 3.6493 -0.6229
6.5142 3.7335 -0.6451
6.5144 3.8187 -0.6675
6.5146 3.9050 -0.6902
6.5148 3.9923 -0.7131
6.5150 4.0808 -0.7363
6.5152 4.1704 -0.7597
6.5154 4.2612 -0.7833
3.0042 -6.7068 2.8381
3.0863 -6.6979 2.8381
3.1689 -6.6887 2.8381
3.2518 -6.6793 2.8381
3.3352 -6.6695 2.8381
3.4191 -6.6595 2.8381
3.5035 -6.6492 2.8381
3.5883 -6.6386 2.8381
3.6737 -6.6278 2.8381
3.7596 -6.6166 2.8381
3.8460 -6.6051 2.8381
3.9330 -6.5934 2.8381
4.0206 -6.5813 2.8381
4.1087 -6.5688 2.8381
4.1975 -6.5561 2.8381
4.2869 -6.5431 2.8381
4.3769 -6.5297 2.8381
4.4676 -6.5160 2.8381
4.5590 -6.5019 2.8381
4.6511 -6.4874 2.8381
4.7287 -6.4520 2.8290
4.7381 -6.3250 2.7798
4.7473 -6.2011 2.7320
4.7643 -6.0906 2.6899
4.8476 -6.0656 2.6857
4.9392 -6.0498 2.6857
5.0315 -6.0336 2.6857
5.1247 -6.0171 2.6857
5.2187 -6.0001 2.6857
5.3137 -5.9827 2.6857
5.4095 -5.9649 2.6857
5.5062 -5.9467 2.6857
5.6040 -5.9281 2.6857
5.7027 -5.9090 2.6857
5.8024 -5.8895 2.6857
5.9031 -5.8695 2.6857
6.0050 -5.8490 2.6857
6.1079 -5.8281 2.6857
6.2120 -5.8066 2.6857
6.3172 -5.7847 2.6857
6.4237 -5.7622 2.6857
6.4972 -5.7093 2.6717
6.4974 -5.5927 2.6279
6.4977 -5.4783 2.5851
6.4978 -5.3660 2.5431
6.4980 -5.2556 2.5020
6.4982 -5.1472 2.4616
6.4984 -5.0406 2.4221
6.4986 -4.9358 2.3833
6.4988 -4.8327 2.3452
6.4990 -4.7312 2.3079
6.4991 -4.6314 2.2712
6.4993 -4.5330 2.2352
6.4995 -4.4362 2.1998
6.4997 -4.3407 2.1650
6.4998 -4.2467 2.1308
6.5000 -4.1539 2.0972
6.5004 -4.0626 2.0643
6.5006 -3.9724 2.0317
6.5009 -3.8834 1.9997
6.5011 -3.7956 1.9683
6.5013 -3.7088 1.9372
6.5015 -3.6231 1.9067
6.5017 -3.5384 1.8766
6.5019 -3.4548 1.8470
6.5022 -3.3721 1.8177
6.5024 -3.2903 1.7889
6.5026 -3.2094 1.7605
6.5028 -3.1294 1.7325
6.5030 -3.0502 1.7048
6.5032 -2.9718 1.6775
6.5034 -2.8942 1.6506
6.5036 -2.8174 1.6240
6.5037 -2.7412 1.5977
6.5039 -2.6658 1.5718
6.5041 -2.5910 1.5461
6.5043 -2.5169 1.5208
6.5045 -2.4434 1.4958
6.5047 -2.3705 1.4710
6.5049 -2.2982 1.4465
6.5050 -2.2265 1.4223
6.5052 -2.1553 1.3984
6.5054 -2.0845 1.3747
6.5056 -2.0143 1.3512
6.5058 -1.9446 1.3280
6.5059 -1.8753 1.3050
6.5061 -1.8065 1.2822
6.5063 -1.7381 1.2597
6.5065 -1.6701 1.2373
6.5066 -1.6025 1.2152
6.5068 -1.5352 1.1932
6.5070 -1.4683 1.1715
6.5071 -1.4017 1.1499
6.5073 -1.3355 1.1285
6.5075 -1.2695 1.1073
6.5076 -1.2039 1.0862
6.5073 -1.1384 1.0653
6.5074 -1.0732 1.0445
6.5074 -1.0083 1.0239
6.5074 -0.9437 1.0035
6.5075 -0.8792 0.9831
6.5075 -0.8150 0.9630
6.5075 -0.7509 0.9429
6.5076 -0.6870 0.9230
6.5076 -0.6233 0.9032
6.5076 -0.5597 0.8835
6.5077 -0.4963 0.8640
6.5077 -0.4330 0.8445
6.5077 -0.3698 0.8252
6.5078 -0.3066 0.8060
6.5078 -0.2436 0.7868
6.5078 -0.1807 0.7678
6.5079 -0.1177 0.7488
6.5079 -0.0549 0.7299
6.5079 0.0080 0.7111
6.5080 0.0708 0.6924
6.5080 0.1336 0.6738
6.5080 0.1964 0.6552
6.5081 0.2593 0.6367
6.5081 0.3222 0.6183
6.5081 0.3851 0.5999
6.5082 0.4481 0.5816
6.5082 0.5111 0.5633
6.5082 0.5743 0.5450
6.5083 0.6375 0.5269
6.5083 0.7008 0.5087
6.5083 0.7643 0.4906
6.5084 0.8279 0.4725
6.5084 0.8917 0.4545
6.5084 0.9556 0.4365
6.5085 1.0197 0.4185
6.5085 1.0840 0.4005
6.5085 1.1485 0.3825
6.5086 1.2132 0.3646
6.5086 1.2782 0.3466
6.5086 1.3434 0.3287
6.5086 1.4088 0.3108
6.5087 1.4746 0.2928
6.5087 1.5406 0.2749
6.5087 1.6069 0.2569
6.5088 1.6736 0.2389
6.5088 1.7406 0.2210
6.5088 1.8079 0.2030
6.5089 1.8757 0.1849
6.5101 1.9441 0.1669
6.5103 2.0127 0.1488
6.5104 2.0817 0.1307
6.5106 2.1511 0.1125
6.5108 2.2210 0.0943
6.5109 2.2914 0.0760
6.5111 2.3623 0.0577
6.5112 2.4337 0.0393
6.5114 2.5056 0.0209
6.5116 2.5781 0.0023
6.5117 2.6512 -0.0162
6.5119 2.7248 -0.0349
6.5120 2.7991 -0.0536
6.5122 2.8741 -0.0725
6.5124 2.9497 -0.0914
6.5126 3.0260 -0.1104
6.5127 3.1031 -0.1295
6.5129 3.1809 -0.1487
6.5131 3.2594 -0.1680
6.5132 3.3388 -0.1875
6.5134 3.4190 -0.2071
6.5136 3.5000 -0.2268
6.5138 3.5819 -0.2466
6.5140 3.6648 -0.2666
6.5142 3.7486 -0.2867
6.5143 3.8334 -0.3070
6.5145 3.9192 -0.3274
6.5147 4.0061 -0.3480
6.5149 4.0940 -0.3688
6.5151 4.1831 -0.3898
6.5153 4.2734 -0.4109
6.5155 4.3649 -0.4323
2.6697 -5.8668 2.8381
2.7418 -5.8566 2.8381
2.8141 -5.8461 2.8381
2.8867 -5.8353 2.8381
2.9597 -5.8242 2.8381
3.0329 -5.8127 2.8381
3.1066 -5.8010 2.8381
3.1805 -5.7889 2.8381
3.2548 -5.7766 2.8381
3.3295 -5.7639 2.8381
3.4046 -5.7508 2.8381
3.4800 -5.7374 2.8381
3.5558 -5.7237 2.8381
3.6321 -5.7096 2.8381
3.7087 -5.6952 2.8381
3.7858 -5.6804 2.8381
3.8634 -5.6653 2.8381
3.9414 -5.6498 2.8381
4.0198 -5.6339 2.8381
4.0988 -5.6176 2.8381
4.1782 -5.6010 2.8381
4.2582 -5.5840 2.8381
4.3386 -5.5665 2.8381
4.4196 -5.5487 2.8381
4.5012 -5.5304 2.8381
4.5833 -5.5117 2.8381
4.6659 -5.4926 2.8381
4.7314 -5.4526 2.8275
4.7398 -5.3479 2.7833
4.7481 -5.2454 2.7403
4.7575 -5.1473 2.6990
4.8153 -5.1010 2.6857
4.8971 -5.0804 2.6857
4.9796 -5.0593 2.6857
5.0627 -5.0377 2.6857
5.1465 -5.0156 2.6857
5.2311 -4.9931 2.6857
5.3163 -4.9700 2.6857
5.4023 -4.9465 2.6857
5.4891 -4.9224 2.6857
5.5766 -4.8978 2.6857
5.6649 -4.8727 2.6857
5.7541 -4.8470 2.6857
5.8441 -4.8208 2.6857
5.9350 -4.7939 2.6857
6.0267 -4.7666 2.6857
6.1194 -4.7385 2.6857
6.2130 -4.7099 2.6857
6.3076 -4.6807 2.6857
6.4031 -4.6508 2.6857
6.4990 -4.6198 2.6854
6.4991 -4.5208 2.6458
6.4993 -4.4233 2.6068
6.4995 -4.3273 2.5686
6.4997 -4.2327 2.5311
6.4998 -4.1394 2.4943
6.5002 -4.0475 2.4581
6.5004 -3.9568 2.4226
6.5006 -3.8674 2.3876
6.5008 -3.7791 2.3533
6.5011 -3.6919 2.3195
6.5013 -3.6058 2.2862
6.5015 -3.5207 2.2535
6.5017 -3.4367 2.2213
6.5019 -3.3536 2.1896
6.5021 -3.2715 2.1584
6.5024 -3.1903 2.1276
6.5026 -3.1100 2.0973
6.5028 -3.0305 2.0675
6.5030 -2.9519 2.0380
6.5032 -2.8740 2.0090
6.5034 -2.7969 1.9804
6.5036 -2.7205 1.9522
6.5037 -2.6448 1.9244
6.5039 -2.5698 1.8969
6.5041 -2.4955 1.8698
6.5043 -2.4218 1.8430
6.5045 -2.3487 1.8166
6.5047 -2.2762 1.7905
6.5049 -2.2043 1.7647
6.5050 -2.1329 1.7392
6.5052 -2.0621 1.7141
6.5054 -1.9917 1.6892
6.5056 -1.9219 1.6646
6.5058 -1.8524 1.6403
6.5059 -1.7835 1.6162
6.5061 -1.7150 1.5925
6.5063 -1.6468 1.5689
6.5064 -1.5791 1.5456
6.5066 -1.5117 1.5226
6.5068 -1.4447 1.4998
6.5070 -1.3781 1.4772
6.5071 -1.3117 1.4548
6.5073 -1.2457 1.4327
6.5075 -1.1800 1.4107
6.5068 -1.1143 1.3888
6.5068 -1.0491 1.3672
6.5069 -0.9842 1.3458
6.5069 -0.9195 1.3246
6.5069 -0.8550 1.3036
6.5070 -0.7907 1.2827
6.5070 -0.7266 1.2621
6.5070 -0.6627 1.2416
6.5071 -0.5989 1.2212
6.5071 -0.5353 1.2010
6.5071 -0.4719 1.1810
6.5072 -0.4085 1.1611
6.5072 -0.3453 1.1413
6.5072 -0.2822 1.1217
6.5073 -0.2192 1.1022
6.5073 -0.1562 1.0828
6.5073 -0.0933 1.0636
6.5074 -0.0304 1.0445
6.5074 0.0324 1.0255
6.5074 0.0952 1.0066
6.5075 0.1580 0.9878
6.5075 0.2208 0.9691
6.5075 0.2836 0.9505
6.5076 0.3464 0.9320
6.5076 0.4093 0.9136
6.5076 0.4723 0.8953
6.5077 0.5353 0.8771
6.5077 0.5984 0.8590
6.5077 0.6615 0.8409
6.5078 0.7248 0.8229
6.5078 0.7882 0.8050
6.5078 0.8518 0.7872
6.5079 0.9155 0.7694
6.5079 0.9793 0.7517
6.5079 1.0434 0.7340
6.5079 1.1076 0.7164
6.5080 1.1720 0.6988
6.5080 1.2366 0.6813
6.5080 1.3015 0.6638
6.5081 1.3666 0.6464
6.5081 1.4319 0.6290
6.5081 1.4975 0.6116
6.5082 1.5634 0.5943
6.5082 1.6297 0.5770
6.5082 1.6962 0.5597
6.5083 1.7630 0.5424
6.5083 1.8303 0.5252
6.5100 1.8983 0.5081
6.5101 1.9663 0.4909
6.5103 2.0347 0.4737
6.5104 2.1035 0.4565
6.5106 2.1728 0.4393
6.5107 2.2425 0.4220
6.5109 2.3127 0.4048
6.5110 2.3834 0.3876
6.5112 2.4546 0.3703
6.5114 2.5263 0.3531
6.5115 2.5986 0.3358
6.5117 2.6715 0.3185
6.5118 2.7449 0.3011
6.5120 2.8189 0.2837
6.5122 2.8936 0.2663
6.5123 2.9690 0.2489
6.5125 3.0450 0.2314
6.5127 3.1218 0.2138
6.5128 3.1993 0.1962
6.5130 3.2775 0.1785
6.5132 3.3565 0.1608
6.5134 3.4364 0.1430
6.5136 3.5171 0.1251
6.5137 3.5986 0.1072
6.5139 3.6811 0.0891
6.5141 3.7645 0.0710
6.5143 3.8489 0.0528
6.5145 3.9343 0.0345
6.5147 4.0207 0.0161
6.5149 4.1082 -0.0024
6.5151 4.1968 -0.0211
6.5153 4.2865 -0.0398
6.5155 4.3774 -0.0587
6.5157 4.4696 -0.0777
2.3988 -5.1864 2.8381
2.4629 -5.1756 2.8381
2.5271 -5.1645 2.8381
2.5916 -5.1530 2.8381
2.6563 -5.1413 2.8381
2.7212 -5.1292 2.8381
2.7864 -5.1168 2.8381
2.8518 -5.1040 2.8381
2.9174 -5.0909 2.8381
2.9833 -5.0775 2.8381
3.0495 -5.0637 2.8381
3.1160 -5.0496 2.8381
3.1827 -5.0352 2.8381
3.2497 -5.0203 2.8381
3.3170 -5.0052 2.8381
3.3846 -4.9896 2.8381
3.4525 -4.9737 2.8381
3.5207 -4.9575 2.8381
3.5893 -4.9408 2.8381
3.6582 -4.9237 2.8381
3.7274 -4.9063 2.8381
3.7970 -4.8885 2.8381
3.8669 -4.8703 2.8381
3.9372 -4.8517 2.8381
4.0079 -4.8326 2.8381
4.0790 -4.8131 2.8381
4.1504 -4.7933 2.8381
4.2223 -4.7729 2.8381
4.2946 -4.7522 2.8381
4.3673 -4.7310 2.8381
4.4404 -4.7094 2.8381
4.5140 -4.6873 2.8381
4.5880 -4.6647 2.8381
4.6625 -4.6417 2.8381
4.7321 -4.6129 2.8349
4.7397 -4.5242 2.7949
4.7471 -4.4371 2.7558
4.7544 -4.3516 2.7176
4.7724 -4.2778 2.6862
4.8449 -4.2517 2.6857
4.9187 -4.2265 2.6857
4.9931 -4.2008 2.6857
5.0681 -4.1746 2.6857
5.1435 -4.1479 2.6857
5.2196 -4.1206 2.6857
5.2962 -4.0927 2.6857
5.3734 -4.0643 2.6857
5.4513 -4.0353 2.6857
5.5297 -4.0057 2.6857
5.6088 -3.9755 2.6857
5.6886 -3.9447 2.6857
5.7690 -3.9133 2.6857
5.8500 -3.8813 2.6857
5.9318 -3.8485 2.6857
6.0143 -3.8152 2.6857
6.0976 -3.7811 2.6857
6.1815 -3.7463 2.6857
6.2663 -3.7109 2.6857
6.3518 -3.6747 2.6857
6.4382 -3.6377 2.6857
6.5011 -3.5867 2.6757
6.5013 -3.5013 2.6402
6.5015 -3.4169 2.6053
6.5017 -3.3335 2.5709
6.5019 -3.2511 2.5371
6.5021 -3.1695 2.5039
6.5023 -3.0889 2.4712
6.5026 -3.0092 2.4390
6.5028 -2.9302 2.4073
6.5030 -2.8521 2.3760
6.5032 -2.7747 2.3453
6.5033 -2.6981 2.3150
6.5035 -2.6223 2.2851
6.5037 -2.5470 2.2557
6.5039 -2.4725 2.2266
6.5041 -2.3986 2.1980
6.5043 -2.3254 2.1698
6.5045 -2.2527 2.1420
6.5047 -2.1806 2.1145
6.5049 -2.1091 2.0874
6.5050 -2.0380 2.0607
6.5052 -1.9676 2.0343
6.5054 -1.8975 2.0082
6.5056 -1.8280 1.9825
6.5057 -1.7589 1.9570
6.5059 -1.6903 1.9319
6.5061 -1.6221 1.9071
6.5063 -1.5542 1.8826
6.5064 -1.4868 1.8583
6.5066 -1.4197 1.8344
6.5068 -1.3530 1.8107
6.5069 -1.2865 1.7872
6.5071 -1.2205 1.7641
6.5062 -1.1544 1.7408
6.5062 -1.0889 1.7181
6.5063 -1.0236 1.6956
6.5063 -0.9587 1.6734
6.5063 -0.8939 1.6514
6.5064 -0.8294 1.6296
6.5064 -0.7650 1.6080
6.5064 -0.7009 1.5866
6.5065 -0.6370 1.5654
6.5065 -0.5732 1.5444
6.5066 -0.5096 1.5236
6.5066 -0.4461 1.5030
6.5066 -0.3828 1.4826
6.5067 -0.3196 1.4623
6.5067 -0.2564 1.4423
6.5067 -0.1934 1.4224
6.5068 -0.1305 1.4026
6.5068 -0.0676 1.3830
6.5068 -0.0047 1.3636
6.5069 0.0581 1.3443
6.5069 0.1209 1.3252
6.5069 0.1836 1.3062
6.5070 0.2464 1.2873
6.5070 0.3092 1.2686
6.5070 0.3720 1.2500
6.5071 0.4348 1.2315
6.5071 0.4977 1.2132
6.5071 0.5607 1.1950
6.5072 0.6237 1.1769
6.5072 0.6869 1.1589
6.5072 0.7501 1.1410
6.5073 0.8134 1.1232
6.5073 0.8769 1.1055
6.5073 0.9405 1.0879
6.5073 1.0043 1.0704
6.5074 1.0682 1.0530
6.5074 1.1323 1.0357
6.5074 1.1967 1.0185
6.5075 1.2612 1.0013
6.5075 1.3259 0.9843
6.5075 1.3909 0.9673
6.5076 1.4562 0.9504
6.5076 1.5217 0.9335
6.5076 1.5875 0.9167
6.5076 1.6536 0.9000
6.5077 1.7200 0.8834
6.5077 1.7867 0.8668
6.5077 1.8537 0.8502
6.5099 1.9218 0.8340
6.5101 1.9897 0.8176
6.5102 2.0579 0.8012
6.5104 2.1266 0.7848
6.5105 2.1957 0.7685
6.5107 2.2652 0.7523
6.5108 2.3352 0.7360
6.5110 2.4057 0.7198
6.5112 2.4767 0.7036
6.5113 2.5482 0.6875
6.5115 2.6203 0.6713
6.5116 2.6929 0.6552
6.5118 2.7661 0.6391
6.5120 2.8399 0.6230
6.5121 2.9144 0.6069
6.5123 2.9895 0.5909
6.5125 3.0652 0.5748
6.5126 3.1417 0.5587
6.5128 3.2189 0.5426
6.5130 3.2968 0.5266
6.5132 3.3755 0.5105
6.5133 3.4551 0.4943
6.5135 3.5354 0.4782
6.5137 3.6166 0.4621
6.5139 3.6987 0.4459
6.5141 3.7817 0.4297
6.5142 3.8656 0.4134
6.5144 3.9506 0.3972
6.5146 4.0366 0.3808
6.5148 4.1236 0.3645
6.5150 4.2117 0.3481
6.5152 4.3009 0.3316
6.5154 4.3913 0.3151
6.5156 4.4830 0.2985
6.5158 4.5758 0.2819
2.1741 -4.6220 2.8381
2.2316 -4.6109 2.8381
2.2893 -4.5996 2.8381
2.3471 -4.5879 2.8381
2.4051 -4.5759 2.8381
2.4632 -4.5635 2.8381
2.5216 -4.5509 2.8381
2.5801 -4.5379 2.8381
2.6387 -4.5246 2.8381
2.6976 -4.5109 2.8381
2.7566 -4.4969 2.8381
2.8158 -4.4826 2.8381
2.8753 -4.4679 2.8381
2.9349 -4.4529 2.8381
2.9947 -4.4374 2.8381
3.0548 -4.4217 2.8381
3.1150 -4.4056 2.8381
3.1755 -4.3891 2.8381
3.2362 -4.3723 2.8381
3.2971 -4.3551 2.8381
3.3583 -4.3375 2.8381
3.4197 -4.3194 2.8381
3.4813 -4.3011 2.8381
3.5432 -4.2823 2.8381
3.6054 -4.2631 2.8381
3.6678 -4.2436 2.8381
3.7305 -4.2236 2.8381
3.7935 -4.2032 2.8381
3.8567 -4.1823 2.8381
3.9203 -4.1611 2.8381
3.9841 -4.1394 2.8381
4.0483 -4.1173 2.8381
4.1127 -4.0947 2.8381
4.1775 -4.0717 2.8381
4.2425 -4.0482 2.8381
4.3080 -4.0242 2.8381
4.3737 -3.9998 2.8381
4.4398 -3.9749 2.8381
4.5062 -3.9495 2.8381
4.5730 -3.9236 2.8381
4.6401 -3.8973 2.8381
4.7076 -3.8703 2.8381
4.7376 -3.8124 2.8155
4.7444 -3.7367 2.7798
4.7511 -3.6621 2.7448
4.7576 -3.5885 2.7105
4.7798 -3.5277 2.6857
4.8460 -3.4992 2.6857
4.9125 -3.4701 2.6857
4.9795 -3.4405 2.6857
5.0469 -3.4103 2.6857
5.1147 -3.3796 2.6857
5.1829 -3.3483 2.6857
5.2516 -3.3164 2.6857
5.3208 -3.2838 2.6857
5.3904 -3.2507 2.6857
5.4605 -3.2169 2.6857
5.5311 -3.1825 2.6857
5.6022 -3.1475 2.6857
5.6738 -3.1117 2.6857
5.7459 -3.0754 2.6857
5.8186 -3.0383 2.6857
5.8917 -3.0005 2.6857
5.9655 -2.9620 2.6857
6.0397 -2.9228 2.6857
6.1146 -2.8829 2.6857
6.1901 -2.8422 2.6857
6.2661 -2.8007 2.6857
6.3428 -2.7584 2.6857
6.4200 -2.7153 2.6857
6.4980 -2.6714 2.6857
6.5033 -2.5975 2.6558
6.5035 -2.5221 2.6243
6.5037 -2.4474 2.5932
6.5039 -2.3734 2.5626
6.5041 -2.2999 2.5325
6.5043 -2.2271 2.5028
6.5045 -2.1548 2.4735
6.5047 -2.0832 2.4447
6.5049 -2.0120 2.4162
6.5050 -1.9414 2.3882
6.5052 -1.8713 2.3605
6.5054 -1.8016 2.3333
6.5056 -1.7324 2.3063
6.5057 -1.6637 2.2798
6.5059 -1.5954 2.2536
6.5061 -1.5274 2.2277
6.5063 -1.4599 2.2022
6.5064 -1.3927 2.1770
6.5066 -1.3259 2.1521
6.5068 -1.2595 2.1275
6.5069 -1.1933 2.1032
6.5056 -1.1271 2.0787
6.5056 -1.0616 2.0549
6.5057 -0.9963 2.0315
6.5057 -0.9313 2.0083
6.5058 -0.8665 1.9853
6.5058 -0.8019 1.9626
6.5058 -0.7376 1.9402
6.5059 -0.6734 1.9180
6.5059 -0.6095 1.8961
6.5060 -0.5457 1.8744
6.5060 -0.4821 1.8529
6.5060 -0.4186 1.8317
6.5061 -0.3553 1.8107
6.5061 -0.2920 1.7898
6.5061 -0.2289 1.7692
6.5062 -0.1659 1.7488
6.5062 -0.1030 1.7286
6.5062 -0.0401 1.7086
6.5063 0.0227 1.6888
6.5063 0.0855 1.6692
6.5063 0.1483 1.6497
6.5064 0.2110 1.6305
6.5064 0.2737 1.6114
6.5064 0.3365 1.5924
6.5065 0.3992 1.5737
6.5065 0.4620 1.5551
6.5065 0.5249 1.5366
6.5066 0.5878 1.5183
6.5066 0.6508 1.5002
6.5066 0.7138 1.4822
6.5067 0.7770 1.4643
6.5067 0.8403 1.4466
6.5067 0.9037 1.4290
6.5068 0.9672 1.4116
6.5068 1.0309 1.3943
6.5068 1.0948 1.3771
6.5069 1.1588 1.3600
6.5069 1.2230 1.3431
6.5069 1.2874 1.3262
6.5069 1.3521 1.3095
6.5070 1.4170 1.2929
6.5070 1.4821 1.2764
6.5070 1.5475 1.2600
6.5071 1.6131 1.2438
6.5071 1.6791 1.2276
6.5071 1.7454 1.2115
6.5071 1.8120 1.1955
6.5072 1.8789 1.1796
6.5099 1.9470 1.1642
6.5100 2.0147 1.1485
6.5102 2.0828 1.1329
6.5103 2.1513 1.1174
6.5105 2.2202 1.1019
6.5107 2.2896 1.0865
6.5108 2.3594 1.0712
6.5110 2.4297 1.0559
6.5111 2.5005 1.0408
6.5113 2.5718 1.0257
6.5114 2.6437 1.0106
6.5116 2.7161 0.9956
6.5118 2.7890 0.9807
6.5119 2.8626 0.9658
6.5121 2.9368 0.9510
6.5123 3.0116 0.9363
6.5124 3.0871 0.9215
6.5126 3.1633 0.9069
6.5128 3.2402 0.8923
6.5129 3.3179 0.8777
6.5131 3.3962 0.8632
6.5133 3.4754 0.8487
6.5135 3.5554 0.8342
6.5136 3.6363 0.8198
6.5138 3.7180 0.8054
6.5140 3.8006 0.7910
6.5142 3.8842 0.7766
6.5144 3.9687 0.7623
6.5146 4.0542 0.7480
6.5148 4.1408 0.7337
6.5150 4.2284 0.7195
6.5151 4.3172 0.7052
6.5153 4.4071 0.6910
6.5155 4.4982 0.6767
6.5158 4.5905 0.6625
6.5160 4.6841 0.6483
1.9838 -4.1442 2.8381
2.0359 -4.1331 2.8381
2.0881 -4.1218 2.8381
2.1404 -4.1101 2.8381
2.1928 -4.0981 2.8381
2.2454 -4.0858 2.8381
2.2980 -4.0732 2.8381
2.3508 -4.0603 2.8381
2.4037 -4.0470 2.8381
2.4567 -4.0334 2.8381
2.5099 -4.0195 2.8381
2.5632 -4.0052 2.8381
2.6166 -3.9906 2.8381
2.6701 -3.9756 2.8381
2.7238 -3.9603 2.8381
2.7777 -3.9447 2.8381
2.8317 -3.9287 2.8381
2.8858 -3.9124 2.8381
2.9401 -3.8956 2.8381
2.9946 -3.8786 2.8381
3.0492 -3.8612 2.8381
3.1040 -3.8433 2.8381
3.1589 -3.8252 2.8381
3.2140 -3.8066 2.8381
3.2693 -3.7877 2.8381
3.3248 -3.7683 2.8381
3.3805 -3.7486 2.8381
3.4363 -3.7285 2.8381
3.4923 -3.7080 2.8381
3.5486 -3.6871 2.8381
3.6050 -3.6658 2.8381
3.6616 -3.6440 2.8381
3.7185 -3.6218 2.8381
3.7755 -3.5993 2.8381
3.8327 -3.5762 2.8381
3.8902 -3.5528 2.8381
3.9479 -3.5289 2.8381
4.0058 -3.5045 2.8381
4.0640 -3.4797 2.8381
4.1224 -3.4544 2.8381
4.1810 -3.4287 2.8381
4.2398 -3.4025 2.8381
4.2989 -3.3758 2.8381
4.3583 -3.3487 2.8381
4.4179 -3.3209 2.8381
4.4778 -3.2928 2.8381
4.5379 -3.2641 2.8381
4.5983 -3.2349 2.8381
4.6590 -3.2052 2.8381
4.7200 -3.1749 2.8381
4.7397 -3.1168 2.8134
4.7458 -3.0505 2.7812
4.7518 -2.9849 2.7497
4.7577 -2.9201 2.7186
4.7701 -2.8600 2.6919
4.8185 -2.8217 2.6857
4.8782 -2.7893 2.6857
4.9382 -2.7564 2.6857
4.9985 -2.7228 2.6857
5.0591 -2.6887 2.6857
5.1200 -2.6540 2.6857
5.1812 -2.6187 2.6857
5.2428 -2.5827 2.6857
5.3047 -2.5462 2.6857
5.3670 -2.5090 2.6857
5.4296 -2.4711 2.6857
5.4926 -2.4326 2.6857
5.5559 -2.3934 2.6857
5.6196 -2.3535 2.6857
5.6837 -2.3129 2.6857
5.7481 -2.2717 2.6857
5.8130 -2.2297 2.6857
5.8782 -2.1870 2.6857
5.9438 -2.1435 2.6857
6.0098 -2.0992 2.6857
6.0763 -2.0542 2.6857
6.1432 -2.0084 2.6857
6.2105 -1.9617 2.6857
6.2782 -1.9143 2.6857
6.3464 -1.8660 2.6857
6.4150 -1.8169 2.6857
6.4841 -1.7669 2.6857
6.5054 -1.7034 2.6659
6.5056 -1.6346 2.6378
6.5057 -1.5662 2.6101
6.5059 -1.4982 2.5828
6.5061 -1.4306 2.5558
6.5063 -1.3634 2.5293
6.5064 -1.2965 2.5030
6.5066 -1.2300 2.4772
6.5050 -1.1634 2.4510
6.5050 -1.0975 2.4258
6.5051 -1.0319 2.4009
6.5051 -0.9666 2.3763
6.5051 -0.9015 2.3521
6.5052 -0.8367 2.3281
6.5052 -0.7721 2.3045
6.5053 -0.7078 2.2812
6.5053 -0.6436 2.2581
6.5053 -0.5797 2.2353
6.5054 -0.5159 2.2128
6.5054 -0.4523 2.1906
6.5055 -0.3888 2.1686
6.5055 -0.3255 2.1469
6.5055 -0.2623 2.1255
6.5056 -0.1992 2.1043
6.5056 -0.1362 2.0833
6.5056 -0.0733 2.0626
6.5057 -0.0104 2.0421
6.5057 0.0524 2.0218
6.5057 0.1151 2.0018
6.5058 0.1778 1.9819
6.5058 0.2405 1.9623
6.5058 0.3032 1.9429
6.5059 0.3659 1.9237
6.5059 0.4286 1.9047
6.5059 0.4914 1.8859
6.5060 0.5542 1.8673
6.5060 0.6170 1.8488
6.5060 0.6799 1.8306
6.5061 0.7429 1.8125
6.5061 0.8060 1.7947
6.5061 0.8692 1.7769
6.5062 0.9326 1.7594
6.5062 0.9960 1.7420
6.5062 1.0596 1.7248
6.5063 1.1234 1.7078
6.5063 1.1873 1.6909
6.5063 1.2514 1.6742
6.5063 1.3158 1.6576
6.5064 1.3803 1.6412
6.5064 1.4451 1.6249
6.5064 1.5101 1.6088
6.5065 1.5754 1.5928
6.5065 1.6409 1.5769
6.5065 1.7067 1.5612
6.5065 1.7729 1.5456
6.5066 1.8393 1.5302
6.5097 1.9070 1.5156
6.5099 1.9742 1.5004
6.5100 2.0418 1.4854
6.5102 2.1097 1.4705
6.5103 2.1781 1.4557
6.5105 2.2468 1.4410
6.5106 2.3160 1.4264
6.5108 2.3857 1.4120
6.5109 2.4558 1.3976
6.5111 2.5264 1.3834
6.5113 2.5975 1.3693
6.5114 2.6691 1.3553
6.5116 2.7413 1.3413
6.5117 2.8141 1.3275
6.5119 2.8874 1.3138
6.5121 2.9614 1.3002
6.5122 3.0359 1.2867
6.5124 3.1112 1.2733
6.5126 3.1871 1.2600
6.5127 3.2637 1.2468
6.5132 3.4980 1.2077
6.5129 3.3410 1.2337
6.5134 3.5777 1.1948
6.5131 3.4191 1.2206
6.5136 3.6582 1.1820
6.5141 3.9050 1.1442
6.5138 3.7395 1.1694
6.5143 3.9891 1.1318
6.5140 3.8218 1.1568
6.5145 4.0742 1.1194
6.5147 4.1603 1.1071
6.5149 4.2475 1.0949
6.5151 4.3358 1.0828
6.5153 4.4252 1.0708
6.5155 4.5157 1.0588
6.5157 4.6075 1.0469
6.5159 4.7006 1.0351
6.5161 4.7949 1.0233
1.8200 -3.7330 2.8381
1.8675 -3.7221 2.8381
1.9151 -3.7108 2.8381
1.9627 -3.6993 2.8381
2.0104 -3.6875 2.8381
2.0582 -3.6754 2.8381
2.1061 -3.6630 2.8381
2.1540 -3.6502 2.8381
2.2020 -3.6372 2.8381
2.2502 -3.6238 2.8381
2.2984 -3.6101 2.8381
2.3466 -3.5961 2.8381
2.3950 -3.5817 2.8381
2.4435 -3.5671 2.8381
2.4921 -3.5521 2.8381
2.5407 -3.5367 2.8381
2.5895 -3.5210 2.8381
2.6383 -3.5050 2.8381
2.6873 -3.4886 2.8381
2.7364 -3.4719 2.8381
2.7856 -3.4549 2.8381
2.8348 -3.4375 2.8381
2.8842 -3.4197 2.8381
2.9338 -3.4016 2.8381
2.9834 -3.3831 2.8381
3.0331 -3.3643 2.8381
3.0830 -3.3451 2.8381
3.1330 -3.3255 2.8381
3.1831 -3.3055 2.8381
3.2333 -3.2851 2.8381
3.2837 -3.2644 2.8381
3.3342 -3.2433 2.8381
3.3848 -3.2217 2.8381
3.4356 -3.1998 2.8381
3.4865 -3.1774 2.8381
3.5375 -3.1547 2.8381
3.5887 -3.1315 2.8381
3.6400 -3.1080 2.8381
3.6915 -3.0840 2.8381
3.7431 -3.0595 2.8381
3.7948 -3.0347 2.8381
3.8468 -3.0094 2.8381
3.8988 -2.9837 2.8381
3.9511 -2.9575 2.8381
4.0035 -2.9308 2.8381
4.0560 -2.9037 2.8381
4.1087 -2.8762 2.8381
4.1616 -2.8481 2.8381
4.2147 -2.8196 2.8381
4.2679 -2.7906 2.8381
4.3213 -2.7611 2.8381
4.3749 -2.7311 2.8381
4.4287 -2.7006 2.8381
4.4826 -2.6696 2.8381
4.5367 -2.6381 2.8381
4.5910 -2.6061 2.8381
4.6455 -2.5735 2.8381
4.7002 -2.5404 2.8381
4.7384 -2.4979 2.8281
4.7440 -2.4384 2.7990
4.7494 -2.3795 2.7704
4.7548 -2.3212 2.7422
4.7600 -2.2634 2.7145
4.7723 -2.2091 2.6913
4.8155 -2.1697 2.6857
4.8688 -2.1340 2.6857
4.9223 -2.0977 2.6857
4.9760 -2.0609 2.6857
5.0299 -2.0234 2.6857
5.0841 -1.9853 2.6857
5.1384 -1.9467 2.6857
5.1930 -1.9073 2.6857
5.2478 -1.8674 2.6857
5.3028 -1.8268 2.6857
5.3580 -1.7855 2.6857
5.4135 -1.7437 2.6857
5.4692 -1.7011 2.6857
5.5251 -1.6578 2.6857
5.5813 -1.6138 2.6857
5.6377 -1.5691 2.6857
5.6943 -1.5237 2.6857
5.7512 -1.4776 2.6857
5.8083 -1.4307 2.6857
5.8657 -1.3830 2.6857
5.9233 -1.3347 2.6857
5.9812 -1.2854 2.6857
6.0394 -1.2355 2.6857
6.0978 -1.1847 2.6857
6.1565 -1.1331 2.6857
6.2154 -1.0806 2.6857
6.2746 -1.0273 2.6857
6.3341 -0.9731 2.6857
6.3938 -0.9181 2.6857
6.4539 -0.8621 2.6857
6.5046 -0.8041 2.6817
6.5046 -0.7395 2.6570
6.5047 -0.6751 2.6327
6.5047 -0.6110 2.6087
6.5047 -0.5471 2.5849
6.5048 -0.4833 2.5616
6.5048 -0.4197 2.5385
6.5049 -0.3562 2.5157
6.5049 -0.2929 2.4932
6.5049 -0.2297 2.4711
6.5050 -0.1667 2.4492
6.5050 -0.1037 2.4275
6.5051 -0.0408 2.4062
6.5051 0.0220 2.3851
6.5051 0.0847 2.3643
6.5052 0.1475 2.3438
6.5052 0.2101 2.3235
6.5052 0.2728 2.3035
6.5053 0.3354 2.2837
6.5053 0.3981 2.2641
6.5053 0.4607 2.2448
6.5054 0.5234 2.2257
6.5054 0.5861 2.2069
6.5054 0.6489 2.1882
6.5055 0.7118 2.1698
6.5055 0.7747 2.1516
6.5055 0.8377 2.1337
6.5056 0.9008 2.1159
6.5056 0.9641 2.0983
6.5056 1.0274 2.0810
6.5057 1.0909 2.0638
6.5057 1.1546 2.0469
6.5057 1.2185 2.0301
6.5057 1.2825 2.0136
6.5058 1.3467 1.9972
6.5058 1.4111 1.9810
6.5058 1.4758 1.9650
6.5059 1.5407 1.9492
6.5059 1.6059 1.9335
6.5059 1.6713 1.9180
6.5059 1.7370 1.9027
6.5060 1.8030 1.8876
6.5060 1.8693 1.8727
6.5097 1.9370 1.8589
6.5099 2.0041 1.8443
6.5100 2.0715 1.8299
6.5101 2.1393 1.8156
6.5103 2.2075 1.8015
6.5105 2.2761 1.7876
6.5106 2.3451 1.7738
6.5108 2.4146 1.7601
6.5109 2.4845 1.7466
6.5111 2.5549 1.7333
6.5112 2.6258 1.7201
6.5114 2.6972 1.7071
6.5115 2.7692 1.6942
6.5117 2.8417 1.6814
6.5119 2.9149 1.6689
6.5120 2.9886 1.6564
6.5122 3.0629 1.6441
6.5124 3.1379 1.6319
6.5125 3.2135 1.6199
6.5127 3.2899 1.6080
6.5134 3.6026 1.5620
6.5129 3.3669 1.5963
6.5136 3.6828 1.5508
6.5130 3.4447 1.5847
6.5137 3.7638 1.5397
6.5132 3.5233 1.5733
6.5139 3.8457 1.5288
6.5143 4.0122 1.5075
6.5141 3.9285 1.5181
6.5145 4.0969 1.4970
6.5147 4.1827 1.4867
6.5149 4.2694 1.4764
6.5150 4.3572 1.4664
6.5152 4.4461 1.4565
6.5154 4.5362 1.4467
6.5156 4.6275 1.4370
6.5158 4.7200 1.4275
6.5160 4.8137 1.4182
6.5163 4.9088 1.4090
1.6770 -3.3737 2.8381
1.7205 -3.3631 2.8381
1.7640 -3.3521 2.8381
1.8076 -3.3409 2.8381
1.8513 -3.3294 2.8381
1.8950 -3.3175 2.8381
1.9387 -3.3054 2.8381
1.9825 -3.2930 2.8381
2.0264 -3.2802 2.8381
2.0703 -3.2672 2.8381
2.1142 -3.2538 2.8381
2.1583 -3.2402 2.8381
2.2023 -3.2262 2.8381
2.2465 -3.2119 2.8381
2.2907 -3.1973 2.8381
2.3349 -3.1824 2.8381
2.3792 -3.1671 2.8381
2.4236 -3.1516 2.8381
2.4680 -3.1357 2.8381
2.5126 -3.1194 2.8381
2.5571 -3.1029 2.8381
2.6018 -3.0860 2.8381
2.6465 -3.0688 2.8381
2.6913 -3.0512 2.8381
2.7361 -3.0333 2.8381
2.7810 -3.0150 2.8381
2.8260 -2.9964 2.8381
2.8711 -2.9775 2.8381
2.9163 -2.9582 2.8381
2.9615 -2.9385 2.8381
3.0068 -2.9185 2.8381
3.0522 -2.8981 2.8381
3.0976 -2.8773 2.8381
3.1432 -2.8561 2.8381
3.1888 -2.8346 2.8381
3.2345 -2.8127 2.8381
3.2803 -2.7905 2.8381
3.3261 -2.7678 2.8381
3.3721 -2.7447 2.8381
3.4181 -2.7212 2.8381
3.4643 -2.6974 2.8381
3.5105 -2.6731 2.8381
3.5568 -2.6484 2.8381
3.6032 -2.6233 2.8381
3.6497 -2.5979 2.8381
3.6963 -2.5719 2.8381
3.7430 -2.5456 2.8381
3.7898 -2.5188 2.8381
3.8366 -2.4916 2.8381
3.8836 -2.4639 2.8381
3.9307 -2.4358 2.8381
3.9778 -2.4072 2.8381
4.0251 -2.3782 2.8381
4.0724 -2.3487 2.8381
4.1199 -2.3188 2.8381
4.1675 -2.2884 2.8381
4.2151 -2.2575 2.8381
4.2629 -2.2261 2.8381
4.3108 -2.1942 2.8381
4.3588 -2.1618 2.8381
4.4069 -2.1289 2.8381
4.4550 -2.0956 2.8381
4.5033 -2.0617 2.8381
4.5518 -2.0273 2.8381
4.6003 -1.9923 2.8381
4.6489 -1.9568 2.8381
4.6976 -1.9208 2.8381
4.7389 -1.8813 2.8336
4.7439 -1.8273 2.8076
4.7487 -1.7737 2.7820
4.7535 -1.7205 2.7568
4.7582 -1.6676 2.7320
4.7629 -1.6151 2.7077
4.7765 -1.5668 2.6887
4.8181 -1.5257 2.6857
4.8651 -1.4867 2.6857
4.9123 -1.4471 2.6857
4.9596 -1.4070 2.6857
5.0070 -1.3662 2.6857
5.0545 -1.3248 2.6857
5.1021 -1.2828 2.6857
5.1498 -1.2402 2.6857
5.1976 -1.1969 2.6857
5.2455 -1.1530 2.6857
5.2935 -1.1085 2.6857
5.3417 -1.0633 2.6857
5.3899 -1.0174 2.6857
5.4383 -0.9708 2.6857
5.4867 -0.9236 2.6857
5.5353 -0.8756 2.6857
5.5840 -0.8270 2.6857
5.6327 -0.7776 2.6857
5.6816 -0.7275 2.6857
5.7306 -0.6766 2.6857
5.7797 -0.6251 2.6857
5.8288 -0.5727 2.6857
5.8781 -0.5196 2.6857
5.9275 -0.4657 2.6857
5.9770 -0.4110 2.6857
6.0265 -0.3555 2.6857
6.0762 -0.2992 2.6857
6.1260 -0.2420 2.6857
6.1758 -0.1841 2.6857
6.2258 -0.1252 2.6857
6.2758 -0.0655 2.6857
6.3259 -0.0049 2.6857
6.3761 0.0566 2.6857
6.4264 0.1190 2.6857
6.4767 0.1823 2.6857
6.5046 0.2457 2.6764
6.5046 0.3083 2.6559
6.5047 0.3709 2.6356
6.5047 0.4334 2.6156
6.5047 0.4960 2.5959
6.5048 0.5586 2.5765
6.5048 0.6213 2.5573
6.5048 0.6840 2.5385
6.5049 0.7468 2.5198
6.5049 0.8096 2.5014
6.5049 0.8725 2.4833
6.5050 0.9356 2.4654
6.5050 0.9987 2.4478
6.5050 1.0620 2.4304
6.5051 1.1254 2.4132
6.5051 1.1890 2.3963
6.5051 1.2528 2.3796
6.5051 1.3167 2.3631
6.5052 1.3808 2.3469
6.5052 1.4451 2.3309
