ply
format ascii 1.0
element vertex 2064
property float32 x
property float32 y
property float32 z
end_header
-7.1738 -10.4210 0.7808
-21.7002 -29.0269 1.9956
-21.9261 -33.9425 2.6858
-21.7119 -32.2099 2.4597
-21.7025 -29.6283 2.0846
-21.1044 -33.3832 2.6858
-21.7145 -32.9037 2.5588
-19.2290 -33.2336 2.8382
-20.3239 -32.8567 2.6858
-16.0826 -31.2410 2.8382
-18.5457 -32.7911 2.8382
-15.5252 -30.9014 2.8382
-17.8914 -32.3721 2.8382
-19.7491 -32.6384 2.7089
-17.2641 -31.9750 2.8382
-14.9880 -30.5786 2.8382
-19.7325 -33.3448 2.8082
-14.4696 -30.2717 2.8382
-16.6617 -31.5985 2.8382
-13.4847 -29.7016 2.8382
-13.9689 -29.9797 2.8382
-11.2780 -28.4967 2.8382
-13.0160 -29.4369 2.8382
-10.8736 -28.2885 2.8382
-12.5619 -29.1846 2.8382
-8.8541 -26.0686 2.6858
-10.4798 -28.0899 2.8382
-12.1214 -28.9442 2.8382
-8.5163 -25.9134 2.6858
-8.1860 -25.7654 2.6858
-10.0961 -27.9005 2.8382
-11.6936 -28.7152 2.8382
-7.8628 -25.6245 2.6858
-7.2358 -25.3626 2.6858
-9.1998 -26.2314 2.6858
-7.5461 -25.4903 2.6858
-6.9314 -25.2411 2.6858
-6.6325 -25.1256 2.6858
-5.7877 -24.9064 2.6959
-4.6520 -25.7573 2.8356
-6.3389 -25.0161 2.6858
-5.7691 -25.9934 2.8242
-4.3747 -25.6784 2.8350
-6.0502 -24.9120 2.6858
-4.1007 -25.6044 2.8343
-5.5054 -26.0240 2.8376
-3.2959 -25.4104 2.8324
-3.8297 -25.5351 2.8337
-5.2170 -25.9299 2.8369
-3.0326 -25.3546 2.8318
-3.5615 -25.4705 2.8330
-4.9326 -25.8410 2.8363
-2.7715 -25.3033 2.8312
-1.9994 -25.1746 2.8294
-2.5124 -25.2562 2.8306
-0.7390 -25.0415 2.8264
-1.7451 -25.1400 2.8288
-2.2551 -25.2134 2.8300
-1.4921 -25.1094 2.8282
-0.4893 -25.0268 2.8258
0.5067 -25.0062 2.8234
-1.2402 -25.0829 2.8276
-0.2401 -25.0158 2.8252
0.7559 -25.0107 2.8228
-0.9892 -25.0602 2.8270
0.0089 -25.0088 2.8246
1.0054 -25.0191 2.8222
1.7581 -25.0678 2.8204
0.2578 -25.0056 2.8240
2.0108 -25.0919 2.8198
1.2555 -25.0315 2.8216
3.0358 -25.2288 2.8174
2.2648 -25.1200 2.8192
1.5064 -25.0477 2.8210
3.2964 -25.2734 2.8167
2.5201 -25.1522 2.8186
4.3622 -25.4953 2.8142
3.5592 -25.3223 2.8161
2.7771 -25.1884 2.8180
4.6355 -25.5620 2.8135
3.8242 -25.3755 2.8155
4.9119 -25.6336 2.8129
5.7626 -25.8775 2.8108
4.0918 -25.4331 2.8148
6.0541 -25.9691 2.8101
5.1917 -25.7098 2.8122
6.3500 -26.0660 2.8094
5.4752 -25.7911 2.8115
6.6379 -26.1184 2.8033
6.9156 -26.1230 2.7916
7.1972 -26.1366 2.7802
7.4798 -26.1476 2.7680
7.7644 -26.1593 2.7553
8.0531 -26.1786 2.7429
-38.5278 -14.3905 -1.2286
-38.3955 -14.7627 -1.1194
-38.4029 -15.1905 -1.0143
-38.4104 -15.6219 -0.9090
-38.4180 -16.0569 -0.8033
-38.4256 -16.4957 -0.6973
-38.4333 -16.9384 -0.5908
-38.1083 -17.2347 -0.4798
-37.8750 -17.5699 -0.3710
-38.6810 -18.3982 -0.2704
-37.7725 -18.4140 -0.1577
-36.8976 -18.4292 -0.0496
-36.0661 -18.4501 0.0541
-36.0329 -18.8733 0.1570
-36.0404 -19.3222 0.2605
-21.9560 -12.0451 0.2221
-21.5568 -12.0981 0.2807
-21.5578 -12.3737 0.3437
-21.5597 -12.6530 0.4072
-21.6438 -12.9850 0.4728
-21.6449 -13.2716 0.5374
-21.6459 -13.5618 0.6024
-21.6470 -13.8558 0.6679
-21.6481 -14.1535 0.7339
-21.6492 -14.4552 0.8004
-21.6503 -14.7610 0.8675
-21.6514 -15.0710 0.9352
-21.6525 -15.3855 1.0035
-21.6537 -15.7045 1.0724
-21.6549 -16.0282 1.1420
-21.6561 -16.3567 1.2123
-21.6573 -16.6904 1.2833
-21.6585 -17.0292 1.3550
-21.5738 -17.3046 1.4219
-21.5750 -17.6531 1.4950
-21.6604 -18.0777 1.5750
-21.6617 -18.4395 1.6501
-21.6630 -18.8077 1.7262
-21.6644 -19.1823 1.8032
-21.6658 -19.5637 1.8812
-21.6672 -19.9522 1.9603
-21.6686 -20.3480 2.0404
-21.6701 -20.7514 2.1218
-21.6716 -21.1627 2.2043
-21.6731 -21.5823 2.2880
-21.6747 -22.0103 2.3731
-21.6763 -22.4473 2.4595
-21.5938 -22.8047 2.5375
-22.0843 -23.7855 2.6859
-21.3493 -23.4509 2.6858
-20.6507 -23.1356 2.6858
-19.9848 -22.8370 2.6858
-19.7200 -22.9861 2.7373
-19.7050 -23.4308 2.8239
-18.6024 -23.0245 2.8382
-18.0376 -22.7807 2.8382
-19.1910 -23.2807 2.8382
-17.4952 -22.5486 2.8382
-15.9875 -21.9147 2.8382
-16.9735 -22.3273 2.8382
-15.5208 -21.7221 2.8382
-16.4714 -22.1162 2.8382
-15.0701 -21.5381 2.8382
-13.8052 -21.0323 2.8382
-7.1431 -10.4268 1.3853
-13.4099 -20.8778 2.8382
-14.2131 -21.1936 2.8382
-13.0264 -20.7297 2.8382
-11.9413 -20.3208 2.8382
-12.6543 -20.5877 2.8382
-12.2928 -20.4515 2.8382
-11.5994 -20.1954 2.8382
-10.3173 -19.7414 2.8382
-11.2665 -20.0750 2.8382
-10.0161 -19.6389 2.8382
-10.9421 -19.9593 2.8382
-10.6259 -19.8482 2.8382
-9.1998 -18.4912 2.6858
-8.4006 -18.2324 2.6858
-8.9276 -18.4014 2.6858
-8.1453 -18.1528 2.6858
-8.6613 -18.3152 2.6858
-7.8951 -18.0763 2.6858
-7.1729 -17.8642 2.6858
-7.6498 -18.0027 2.6858
-6.9408 -17.7990 2.6858
-7.4091 -17.9321 2.6858
-6.7127 -17.7363 2.6858
-6.0505 -17.5632 2.6858
-6.4884 -17.6762 2.6858
-5.8366 -17.5101 2.6858
-6.2677 -17.6185 2.6858
-5.7612 -17.8796 2.7505
-5.2930 -18.2951 2.8372
-5.7253 -18.3981 2.8382
-5.0810 -18.2468 2.8367
-5.5077 -18.3455 2.8377
-4.8717 -18.2006 2.8361
-4.2584 -18.0741 2.8347
-4.6650 -18.1564 2.8357
-4.0585 -18.0358 2.8342
-4.4606 -18.1143 2.8352
-3.8605 -17.9994 2.8337
-3.2783 -17.9052 2.8330
-3.6645 -17.9647 2.8333
-3.0879 -17.8794 2.8331
-3.4702 -17.9324 2.8329
-2.8988 -17.8549 2.8332
-2.3388 -17.7883 2.8329
-2.7110 -17.8314 2.8331
-2.1543 -17.7687 2.8327
-2.5243 -17.8092 2.8330
-1.9707 -17.7504 2.8325
-1.4251 -17.7032 2.8316
-1.7881 -17.7334 2.8322
-1.2447 -17.6899 2.8312
-1.6062 -17.7177 2.8319
-1.0648 -17.6779 2.8308
-0.5279 -17.6491 2.8293
-0.8854 -17.6671 2.8303
-0.3496 -17.6418 2.8287
-0.7065 -17.6575 2.8298
-0.1715 -17.6354 2.8280
0.3619 -17.6229 2.8256
0.5398 -17.6210 2.8247
0.0064 -17.6301 2.8272
0.7177 -17.6203 2.8238
0.1842 -17.6259 2.8264
0.8958 -17.6206 2.8228
1.2532 -17.6299 2.8215
1.0742 -17.6231 2.8219
1.4326 -17.6381 2.8210
1.6127 -17.6478 2.8206
2.1574 -17.6859 2.8193
1.7934 -17.6590 2.8202
2.3403 -17.7016 2.8189
2.5245 -17.7188 2.8184
1.9749 -17.6717 2.8197
2.7098 -17.7377 2.8180
3.0839 -17.7800 2.8171
2.8962 -17.7580 2.8175
3.2730 -17.8036 2.8166
3.4635 -17.8289 2.8162
3.6555 -17.8558 2.8157
3.8493 -17.8844 2.8153
4.0447 -17.9148 2.8148
4.2421 -17.9469 2.8143
4.4414 -17.9808 2.8138
4.6428 -18.0166 2.8134
4.8465 -18.0542 2.8129
5.0524 -18.0938 2.8124
5.2608 -18.1354 2.8119
5.4719 -18.1789 2.8114
5.6856 -18.2245 2.8109
-21.6252 -7.7720 0.3444
-21.6260 -8.0087 0.4072
-21.6269 -8.2472 0.4703
-21.6277 -8.4876 0.5337
-21.6286 -8.7299 0.5974
-21.6295 -8.9742 0.6615
-21.6304 -9.2206 0.7259
-21.6313 -9.4691 0.7906
-21.6322 -9.7199 0.8558
-21.6331 -9.9730 0.9213
-21.6340 -10.2285 0.9872
-21.6349 -10.4864 1.0536
-21.6359 -10.7470 1.1205
-21.6368 -11.0102 1.1878
-21.6378 -11.2761 1.2556
-21.6388 -11.5449 1.3239
-21.6397 -11.8167 1.3928
-21.5604 -12.0466 1.4568
-21.5569 -12.3210 1.5263
-21.5588 -12.6017 1.5967
-21.6429 -12.9349 1.6742
-21.6439 -13.2230 1.7461
-21.6450 -13.5148 1.8188
-21.6460 -13.8103 1.8921
-21.6471 -14.1097 1.9662
-21.6482 -14.4132 2.0411
-21.6493 -14.7208 2.1168
-21.6505 -15.0328 2.1933
-21.6516 -15.3492 2.2707
-21.6528 -15.6703 2.3490
-21.6539 -15.9962 2.4283
-21.6551 -16.3271 2.5085
-21.6563 -16.6631 2.5898
-21.7690 -17.0919 2.6858
-21.1111 -16.9126 2.6858
-20.4837 -16.7425 2.6858
-19.8845 -16.5810 2.6858
-19.7040 -16.7614 2.7404
-19.6903 -17.0862 2.8186
-19.2716 -17.0580 2.8382
-18.7382 -16.9177 2.8382
-18.2258 -16.7838 2.8382
-17.7329 -16.6559 2.8382
-17.2585 -16.5336 2.8382
-16.8013 -16.4167 2.8382
-16.3603 -16.3047 2.8382
-15.9346 -16.1974 2.8382
-15.5233 -16.0945 2.8382
-15.1255 -15.9958 2.8382
-14.7405 -15.9011 2.8382
-14.3676 -15.8102 2.8382
-14.0061 -15.7228 2.8382
-13.6554 -15.6388 2.8382
-13.3150 -15.5580 2.8382
-12.9843 -15.4803 2.8382
-12.6628 -15.4055 2.8382
-12.3500 -15.3334 2.8382
-12.0456 -15.2640 2.8382
-11.7491 -15.1971 2.8382
-11.4601 -15.1326 2.8382
-11.1783 -15.0704 2.8382
-10.9032 -15.0104 2.8382
-10.6347 -14.9526 2.8382
-7.1948 -10.3331 1.9687
-7.1270 -10.4572 1.9996
-9.8653 -14.7908 2.8382
-9.1034 -13.9491 2.6858
-8.8761 -13.9031 2.6858
-8.6535 -13.8588 2.6858
-8.4353 -13.8160 2.6858
-8.2214 -13.7746 2.6858
-8.0116 -13.7346 2.6858
-7.8056 -13.6960 2.6858
-7.6034 -13.6586 2.6858
-7.4048 -13.6226 2.6858
-7.2096 -13.5877 2.6858
-7.0177 -13.5541 2.6858
-6.8290 -13.5216 2.6858
-6.6432 -13.4901 2.6858
-6.4604 -13.4598 2.6858
-6.2803 -13.4305 2.6858
-6.1029 -13.4022 2.6858
-5.9280 -13.3749 2.6858
-5.7604 -13.3599 2.6881
-5.7486 -13.7124 2.7643
-5.7250 -14.0532 2.8382
-5.5498 -14.0282 2.8382
-5.3769 -14.0042 2.8382
-5.2060 -13.9810 2.8382
-5.0371 -13.9586 2.8382
-4.8701 -13.9371 2.8382
-4.7050 -13.9165 2.8382
-4.5416 -13.8966 2.8382
-4.3798 -13.8775 2.8382
-4.2196 -13.8592 2.8382
-4.0610 -13.8417 2.8382
-3.9038 -13.8248 2.8382
-3.7480 -13.8087 2.8382
-3.5935 -13.7934 2.8382
-3.4403 -13.7787 2.8382
-3.2882 -13.7647 2.8382
-3.1373 -13.7513 2.8382
-2.9875 -13.7387 2.8382
-2.8387 -13.7267 2.8382
-2.6908 -13.7153 2.8382
-2.5438 -13.7046 2.8382
-2.3977 -13.6945 2.8382
-2.2523 -13.6850 2.8382
-0.9097 -5.9028 1.2250
-0.8476 -5.8993 1.2250
-0.7858 -5.8960 1.2250
-0.7242 -5.8929 1.2250
-0.4800 -5.8832 1.2250
-0.6629 -5.8901 1.2250
-0.4194 -5.8814 1.2250
-0.6017 -5.8876 1.2250
-0.3590 -5.8799 1.2250
-0.5408 -5.8853 1.2250
-0.2986 -5.8785 1.2250
-0.1782 -5.8766 1.2250
-0.2383 -5.8775 1.2250
-0.1180 -5.8760 1.2250
-0.0579 -5.8757 1.2250
0.1223 -5.8761 1.2250
0.0021 -5.8756 1.2250
0.1825 -5.8767 1.2250
0.0622 -5.8757 1.2250
0.2426 -5.8775 1.2250
0.4238 -5.8815 1.2250
0.3029 -5.8786 1.2250
0.4844 -5.8833 1.2250
0.3633 -5.8799 1.2250
0.5452 -5.8854 1.2250
0.7286 -5.8931 1.2250
0.6061 -5.8877 1.2250
0.7902 -5.8962 1.2250
0.6672 -5.8903 1.2250
0.8520 -5.8995 1.2250
2.4081 -13.6952 2.8382
0.9142 -5.9030 1.2250
2.5543 -13.7053 2.8382
2.2627 -13.6856 2.8382
2.7013 -13.7161 2.8382
2.8493 -13.7275 2.8382
2.9982 -13.7395 2.8382
3.1481 -13.7523 2.8382
3.2991 -13.7657 2.8382
3.4512 -13.7797 2.8382
3.6045 -13.7944 2.8382
3.7591 -13.8098 2.8382
3.9150 -13.8260 2.8382
4.0723 -13.8429 2.8382
4.2310 -13.8605 2.8382
4.3913 -13.8789 2.8382
-21.5311 -7.4367 1.3646
-21.6242 -7.7041 1.4369
-21.6251 -7.9415 1.5039
-21.6259 -8.1807 1.5712
-21.6268 -8.4217 1.6390
-21.6277 -8.6647 1.7073
-21.6285 -8.9098 1.7761
-21.6294 -9.1570 1.8454
-21.6303 -9.4064 1.9152
-21.6312 -9.6580 1.9855
-21.6321 -9.9120 2.0564
-21.6331 -10.1684 2.1280
-21.6340 -10.4273 2.2001
-21.6349 -10.6889 2.2729
-21.6359 -10.9532 2.3463
-21.6368 -11.2202 2.4204
-21.6378 -11.4902 2.4952
-21.6388 -11.7632 2.5708
-21.9563 -12.2154 2.6859
-21.3352 -12.1446 2.6858
-20.7425 -12.0776 2.6858
-20.1758 -12.0138 2.6858
-19.7049 -11.9965 2.6956
-19.6880 -12.2525 2.7665
-19.6716 -12.5117 2.8382
-19.1656 -12.4559 2.8382
-18.6793 -12.4027 2.8382
-18.2113 -12.3516 2.8382
-17.7605 -12.3028 2.8382
-17.3260 -12.2560 2.8382
-16.9066 -12.2111 2.8382
-16.5017 -12.1681 2.8382
-16.1104 -12.1268 2.8382
-15.7319 -12.0870 2.8382
-15.3655 -12.0489 2.8382
-15.0105 -12.0122 2.8382
-14.6664 -11.9768 2.8382
-14.3326 -11.9428 2.8382
-14.0085 -11.9100 2.8382
-13.6938 -11.8784 2.8382
-13.3878 -11.8479 2.8382
-13.0902 -11.8185 2.8382
-12.8006 -11.7902 2.8382
-12.5186 -11.7628 2.8382
-12.2439 -11.7363 2.8382
-11.9760 -11.7108 2.8382
-11.7147 -11.6861 2.8382
-11.4598 -11.6622 2.8382
-11.2108 -11.6391 2.8382
-10.9676 -11.6168 2.8382
-10.7299 -11.5951 2.8382
-10.4974 -11.5742 2.8382
-10.2700 -11.5540 2.8382
-10.0473 -11.5343 2.8382
-9.8294 -11.5153 2.8382
-9.0995 -10.8796 2.6858
-8.9014 -10.8627 2.6858
-8.7072 -10.8464 2.6858
-8.5166 -10.8305 2.6858
-8.3297 -10.8152 2.6858
-8.1461 -10.8003 2.6858
-7.9659 -10.7858 2.6858
-7.7887 -10.7718 2.6858
-7.2471 -10.2390 2.5562
-7.1791 -10.3635 2.5905
-7.1104 -10.4894 2.6250
-7.0409 -10.6167 2.6600
-6.9463 -10.7079 2.6858
-6.7857 -10.6963 2.6858
-6.6275 -10.6851 2.6858
-6.4716 -10.6741 2.6858
-6.3179 -10.6635 2.6858
-6.1664 -10.6532 2.6858
-6.0169 -10.6432 2.6858
-5.8694 -10.6335 2.6858
-5.7520 -10.6764 2.6990
-5.7418 -10.9226 2.7637
-5.7313 -11.1779 2.8306
-5.5985 -11.1990 2.8382
-5.4521 -11.1903 2.8382
-5.3073 -11.1818 2.8382
-5.1641 -11.1736 2.8382
-5.0225 -11.1657 2.8382
-4.8823 -11.1581 2.8382
-4.7436 -11.1507 2.8382
-4.6063 -11.1435 2.8382
-4.4703 -11.1366 2.8382
-4.3356 -11.1299 2.8382
-4.2021 -11.1234 2.8382
-4.0698 -11.1172 2.8382
-3.9386 -11.1112 2.8382
-3.8085 -11.1054 2.8382
-3.6795 -11.0998 2.8382
-3.5515 -11.0944 2.8382
-3.4244 -11.0893 2.8382
-3.2982 -11.0844 2.8382
-3.1729 -11.0796 2.8382
-3.0485 -11.0750 2.8382
-2.9248 -11.0707 2.8382
-2.8019 -11.0665 2.8382
-2.6798 -11.0625 2.8382
-2.5583 -11.0588 2.8382
-2.4375 -11.0552 2.8382
-2.3173 -11.0517 2.8382
-2.1977 -11.0485 2.8382
-0.8975 -4.7692 1.2255
-0.8463 -4.7680 1.2255
-0.7954 -4.7668 1.2255
-0.7446 -4.7657 1.2255
-0.6940 -4.7647 1.2255
-0.6436 -4.7638 1.2255
-0.5934 -4.7629 1.2255
-0.5433 -4.7621 1.2255
-0.4933 -4.7614 1.2255
-0.4435 -4.7607 1.2255
-0.3937 -4.7601 1.2255
-0.3441 -4.7596 1.2255
-0.2945 -4.7591 1.2255
-0.2450 -4.7587 1.2255
-0.1956 -4.7584 1.2255
-0.1462 -4.7582 1.2255
-0.0969 -4.7580 1.2255
-0.0475 -4.7579 1.2255
0.0018 -4.7579 1.2255
0.0511 -4.7579 1.2255
0.1004 -4.7580 1.2255
0.1497 -4.7582 1.2255
0.1991 -4.7584 1.2255
0.2486 -4.7588 1.2255
0.2981 -4.7591 1.2255
0.3476 -4.7596 1.2255
0.3973 -4.7601 1.2255
0.4470 -4.7607 1.2255
0.4969 -4.7614 1.2255
0.5469 -4.7621 1.2255
0.5970 -4.7629 1.2255
0.6472 -4.7638 1.2255
0.6976 -4.7647 1.2255
0.7482 -4.7658 1.2255
0.7990 -4.7669 1.2255
0.8500 -4.7681 1.2255
0.9012 -4.7693 1.2255
2.2062 -11.0487 2.8382
2.3259 -11.0520 2.8382
2.4461 -11.0554 2.8382
2.5670 -11.0590 2.8382
2.6885 -11.0628 2.8382
2.8107 -11.0668 2.8382
2.9336 -11.0710 2.8382
3.0573 -11.0754 2.8382
3.1818 -11.0799 2.8382
3.3072 -11.0847 2.8382
3.4334 -11.0896 2.8382
3.5606 -11.0948 2.8382
-21.5293 -7.1355 2.3827
-21.5302 -7.3690 2.4526
-21.6233 -7.6368 2.5339
-22.2953 -8.1192 2.6861
-21.6956 -8.1411 2.6858
-21.1244 -8.1626 2.6858
-20.5779 -8.1830 2.6858
-20.0545 -8.2025 2.6858
-19.6896 -8.2786 2.7046
-19.6778 -8.5010 2.7713
-19.6644 -8.7243 2.8382
-19.1941 -8.7415 2.8382
-18.7415 -8.7580 2.8382
-18.3054 -8.7738 2.8382
-17.8848 -8.7889 2.8382
-17.4789 -8.8034 2.8382
-17.0868 -8.8174 2.8382
-16.7079 -8.8308 2.8382
-16.3412 -8.8437 2.8382
-15.9862 -8.8561 2.8382
-15.6423 -8.8680 2.8382
-15.3089 -8.8796 2.8382
-14.9855 -8.8906 2.8382
-14.6715 -8.9013 2.8382
-14.3666 -8.9117 2.8382
-14.0702 -8.9216 2.8382
-13.7819 -8.9312 2.8382
-13.5014 -8.9405 2.8382
-13.2283 -8.9495 2.8382
-12.9622 -8.9582 2.8382
-12.7029 -8.9666 2.8382
-12.4500 -8.9748 2.8382
-12.2033 -8.9826 2.8382
-11.9625 -8.9902 2.8382
-11.7272 -8.9976 2.8382
-11.4974 -9.0048 2.8382
-11.2728 -9.0117 2.8382
-11.0531 -9.0184 2.8382
-10.8381 -9.0249 2.8382
-10.6277 -9.0312 2.8382
-10.4217 -9.0374 2.8382
-10.2199 -9.0433 2.8382
-10.0221 -9.0491 2.8382
-9.8282 -9.0547 2.8382
-9.1205 -8.5737 2.6858
-8.9439 -8.5787 2.6858
-8.7706 -8.5836 2.6858
-8.6004 -8.5883 2.6858
-8.4333 -8.5929 2.6858
-8.2690 -8.5973 2.6858
-8.1076 -8.6017 2.6858
-7.9489 -8.6059 2.6858
-7.7928 -8.6100 2.6858
-7.6392 -8.6140 2.6858
-7.4880 -8.6179 2.6858
-7.3392 -8.6216 2.6858
-7.1926 -8.6253 2.6858
-7.0482 -8.6289 2.6858
-6.9060 -8.6323 2.6858
-6.7657 -8.6357 2.6858
-6.6274 -8.6390 2.6858
-6.4910 -8.6422 2.6858
-6.3565 -8.6453 2.6858
-6.2237 -8.6483 2.6858
-6.0926 -8.6512 2.6858
-5.9632 -8.6541 2.6858
-5.8353 -8.6568 2.6858
-5.7464 -8.7162 2.7034
-5.7375 -8.8998 2.7595
-5.7283 -9.0891 2.8174
-5.6419 -9.1590 2.8382
-5.5144 -9.1615 2.8382
-5.3883 -9.1640 2.8382
-5.2636 -9.1664 2.8382
-5.1401 -9.1687 2.8382
-5.0179 -9.1710 2.8382
-4.8969 -9.1732 2.8382
-4.7770 -9.1754 2.8382
-4.6583 -9.1775 2.8382
-4.5406 -9.1795 2.8382
-4.4240 -9.1814 2.8382
-4.3084 -9.1833 2.8382
-4.1938 -9.1852 2.8382
-4.0801 -9.1870 2.8382
-3.9673 -9.1887 2.8382
-3.8554 -9.1903 2.8382
-3.7443 -9.1920 2.8382
-3.6341 -9.1935 2.8382
-3.5246 -9.1950 2.8382
-3.4159 -9.1965 2.8382
-3.3080 -9.1979 2.8382
-3.2007 -9.1993 2.8382
-3.0941 -9.2006 2.8382
-2.9882 -9.2018 2.8382
-2.8828 -9.2030 2.8382
-2.7781 -9.2042 2.8382
-2.6739 -9.2054 2.8382
-2.5703 -9.2064 2.8382
-2.4672 -9.2075 2.8382
-2.3646 -9.2084 2.8382
-2.2625 -9.2094 2.8382
-2.1608 -9.2103 2.8382
-0.8895 -3.9783 1.2258
-0.8460 -3.9787 1.2258
-0.8026 -3.9790 1.2258
-0.7594 -3.9793 1.2258
-0.7163 -3.9796 1.2258
-0.6734 -3.9799 1.2258
-0.6305 -3.9802 1.2258
-0.5879 -3.9804 1.2258
-0.5453 -3.9806 1.2258
-0.5028 -3.9808 1.2258
-0.4605 -3.9810 1.2258
-0.4182 -3.9812 1.2258
-0.3760 -3.9813 1.2258
-0.3339 -3.9815 1.2258
-0.2918 -3.9816 1.2258
-0.2498 -3.9817 1.2258
-0.2079 -3.9818 1.2258
-0.1659 -3.9819 1.2258
-0.1240 -3.9819 1.2258
-0.0822 -3.9820 1.2258
-0.0403 -3.9820 1.2258
0.0015 -3.9820 1.2258
0.0433 -3.9820 1.2258
0.0852 -3.9820 1.2258
0.1270 -3.9819 1.2258
0.1689 -3.9819 1.2258
0.2109 -3.9818 1.2258
0.2528 -3.9817 1.2258
0.2948 -3.9816 1.2258
0.3369 -3.9815 1.2258
0.3790 -3.9813 1.2258
0.4212 -3.9812 1.2258
0.4635 -3.9810 1.2258
0.5059 -3.9808 1.2258
0.5483 -3.9806 1.2258
0.5909 -3.9804 1.2258
0.6336 -3.9801 1.2258
0.6764 -3.9798 1.2258
0.7194 -3.9796 1.2258
0.7624 -3.9793 1.2258
0.8057 -3.9789 1.2258
0.8491 -3.9786 1.2258
0.8926 -3.9783 1.2258
2.1681 -9.2102 2.8382
2.2698 -9.2093 2.8382
2.3719 -9.2084 2.8382
2.4746 -9.2074 2.8382
2.5777 -9.2064 2.8382
2.6813 -9.2053 2.8382
2.7855 -9.2041 2.8382
2.8903 -9.2030 2.8382
2.9957 -9.2018 2.8382
-17.9612 -5.7019 2.8382
-17.5816 -5.7709 2.8382
-17.2145 -5.8373 2.8382
-16.8592 -5.9013 2.8382
-16.5151 -5.9628 2.8382
-16.1816 -6.0222 2.8382
-15.8583 -6.0794 2.8382
-15.5445 -6.1346 2.8382
-15.2398 -6.1878 2.8382
-14.9438 -6.2393 2.8382
-14.6560 -6.2889 2.8382
-14.3761 -6.3370 2.8382
-14.1037 -6.3834 2.8382
-13.8384 -6.4283 2.8382
-13.5800 -6.4718 2.8382
-13.3281 -6.5139 2.8382
-13.0825 -6.5547 2.8382
-12.8428 -6.5942 2.8382
-12.6088 -6.6324 2.8382
-12.3803 -6.6695 2.8382
-12.1571 -6.7055 2.8382
-11.9389 -6.7404 2.8382
-11.7255 -6.7743 2.8382
-11.5168 -6.8072 2.8382
-11.3125 -6.8391 2.8382
-11.1125 -6.8702 2.8382
-10.9166 -6.9003 2.8382
-10.7247 -6.9295 2.8382
-10.5366 -6.9580 2.8382
-10.3521 -6.9856 2.8382
-10.1711 -7.0126 2.8382
-9.9936 -7.0387 2.8382
-9.8193 -7.0642 2.8382
-9.1301 -6.7083 2.6858
-8.9711 -6.7311 2.6858
-8.8148 -6.7533 2.6858
-8.6612 -6.7749 2.6858
-8.5102 -6.7959 2.6858
-8.3617 -6.8164 2.6858
-8.2156 -6.8363 2.6858
-8.0718 -6.8558 2.6858
-7.9303 -6.8747 2.6858
-7.7910 -6.8931 2.6858
-7.6538 -6.9111 2.6858
-7.5186 -6.9286 2.6858
-7.3854 -6.9456 2.6858
-7.2540 -6.9623 2.6858
-7.1246 -6.9785 2.6858
-6.9969 -6.9943 2.6858
-6.8709 -7.0097 2.6858
-6.7466 -7.0247 2.6858
-6.6240 -7.0393 2.6858
-6.5029 -7.0536 2.6858
-6.3833 -7.0675 2.6858
-6.2652 -7.0810 2.6858
-6.1485 -7.0943 2.6858
-6.0332 -7.1071 2.6858
-5.9193 -7.1197 2.6858
-5.8066 -7.1320 2.6858
-5.7419 -7.2024 2.7079
-5.7340 -7.3464 2.7575
-5.7259 -7.4938 2.8084
-5.6729 -7.5852 2.8382
-5.5601 -7.5966 2.8382
-5.4484 -7.6078 2.8382
-5.3379 -7.6185 2.8382
-5.2285 -7.6291 2.8382
-5.1201 -7.6394 2.8382
-5.0127 -7.6493 2.8382
-4.9062 -7.6591 2.8382
-4.8007 -7.6686 2.8382
-4.6962 -7.6779 2.8382
-4.5925 -7.6868 2.8382
-4.4897 -7.6956 2.8382
-4.3878 -7.7041 2.8382
-4.2866 -7.7124 2.8382
-4.1862 -7.7205 2.8382
-4.0866 -7.7283 2.8382
-3.9878 -7.7359 2.8382
-3.8896 -7.7433 2.8382
-3.7922 -7.7505 2.8382
-3.6954 -7.7575 2.8382
-3.5992 -7.7643 2.8382
-3.5037 -7.7708 2.8382
-3.4088 -7.7772 2.8382
-3.3145 -7.7834 2.8382
-3.2207 -7.7894 2.8382
-3.1275 -7.7952 2.8382
-3.0348 -7.8008 2.8382
-2.9427 -7.8063 2.8382
-2.8510 -7.8115 2.8382
-2.7598 -7.8166 2.8382
-2.6690 -7.8215 2.8382
-2.5787 -7.8261 2.8382
-2.4888 -7.8307 2.8382
-2.3993 -7.8351 2.8382
-2.3102 -7.8392 2.8382
-2.2215 -7.8433 2.8382
-2.1331 -7.8471 2.8382
-0.9136 -3.5074 1.2680
-0.8741 -3.5074 1.2674
-0.8347 -3.5074 1.2669
-0.7955 -3.5074 1.2664
-0.7564 -3.5074 1.2659
-0.7176 -3.5075 1.2654
-0.6788 -3.5074 1.2650
-0.6403 -3.5074 1.2646
-0.6018 -3.5074 1.2642
-0.5635 -3.5074 1.2638
-0.5253 -3.5074 1.2635
-0.4873 -3.5074 1.2631
-0.4493 -3.5074 1.2629
-0.4114 -3.5074 1.2626
-0.3736 -3.5074 1.2623
-0.3359 -3.5074 1.2621
-0.2983 -3.5074 1.2619
-0.2607 -3.5074 1.2617
-0.2231 -3.5074 1.2616
-0.1857 -3.5075 1.2615
-0.1482 -3.5074 1.2614
-0.1108 -3.5074 1.2613
-0.0734 -3.5075 1.2612
-0.0360 -3.5074 1.2612
0.0013 -3.5074 1.2612
0.0387 -3.5075 1.2612
0.0761 -3.5074 1.2612
0.1135 -3.5074 1.2613
0.1509 -3.5075 1.2614
0.1883 -3.5074 1.2615
0.2258 -3.5075 1.2616
0.2634 -3.5074 1.2618
0.3009 -3.5075 1.2619
0.3386 -3.5074 1.2621
0.3763 -3.5075 1.2624
0.4141 -3.5074 1.2626
0.4520 -3.5074 1.2629
0.4900 -3.5074 1.2632
0.5281 -3.5075 1.2635
0.5663 -3.5075 1.2638
0.6046 -3.5074 1.2642
0.6430 -3.5074 1.2646
0.6816 -3.5075 1.2650
0.7203 -3.5074 1.2655
0.7592 -3.5075 1.2659
0.7983 -3.5075 1.2664
0.8375 -3.5075 1.2669
0.8769 -3.5075 1.2675
0.9165 -3.5075 1.2681
2.1394 -7.8468 2.8382
2.2278 -7.8430 2.8382
2.3166 -7.8389 2.8382
2.4057 -7.8347 2.8382
2.4952 -7.8304 2.8382
2.5851 -7.8258 2.8382
-13.8029 -4.1879 2.8382
-13.5666 -4.2617 2.8382
-13.3359 -4.3334 2.8382
-13.1106 -4.4029 2.8382
-12.8906 -4.4704 2.8382
-12.6755 -4.5358 2.8382
-12.4652 -4.5994 2.8382
-12.2594 -4.6611 2.8382
-12.0581 -4.7211 2.8382
-11.8610 -4.7794 2.8382
-11.6680 -4.8360 2.8382
-11.4790 -4.8911 2.8382
-11.2937 -4.9447 2.8382
-11.1120 -4.9968 2.8382
-10.9339 -5.0475 2.8382
-10.7592 -5.0969 2.8382
-10.5877 -5.1449 2.8382
-10.4193 -5.1917 2.8382
-10.2540 -5.2373 2.8382
-10.0917 -5.2817 2.8382
-9.9321 -5.3250 2.8382
-9.7753 -5.3671 2.8382
-9.1045 -5.1178 2.6858
-8.9611 -5.1557 2.6858
-8.8199 -5.1926 2.6858
-8.6811 -5.2286 2.6858
-8.5444 -5.2638 2.6858
-8.4099 -5.2980 2.6858
-8.2773 -5.3315 2.6858
-8.1468 -5.3641 2.6858
-8.0182 -5.3959 2.6858
-7.8915 -5.4269 2.6858
-7.7666 -5.4573 2.6858
-7.6434 -5.4868 2.6858
-7.5219 -5.5157 2.6858
-7.4021 -5.5439 2.6858
-7.2839 -5.5714 2.6858
-7.1672 -5.5983 2.6858
-7.0520 -5.6246 2.6858
-6.9383 -5.6502 2.6858
-6.8260 -5.6752 2.6858
-6.7151 -5.6997 2.6858
-6.6055 -5.7236 2.6858
-6.4972 -5.7469 2.6858
-6.3901 -5.7697 2.6858
-6.2843 -5.7920 2.6858
-6.1797 -5.8137 2.6858
-6.0762 -5.8349 2.6858
-5.9738 -5.8557 2.6858
-5.8726 -5.8760 2.6858
-5.7724 -5.8958 2.6858
-5.7375 -5.9822 2.7163
-5.7304 -6.0994 2.7607
-5.7231 -6.2190 2.8061
-5.6869 -6.3093 2.8382
-5.5862 -6.3279 2.8382
-5.4864 -6.3461 2.8382
-5.3875 -6.3638 2.8382
-5.2895 -6.3812 2.8382
-5.1924 -6.3981 2.8382
-5.0961 -6.4147 2.8382
-5.0006 -6.4308 2.8382
-4.9060 -6.4466 2.8382
-4.8121 -6.4620 2.8382
-4.7190 -6.4770 2.8382
-4.6266 -6.4916 2.8382
-4.5349 -6.5060 2.8382
-4.4439 -6.5199 2.8382
-4.3536 -6.5335 2.8382
-4.2640 -6.5468 2.8382
-4.1749 -6.5597 2.8382
-4.0865 -6.5724 2.8382
-3.9987 -6.5847 2.8382
-3.9115 -6.5967 2.8382
-3.8249 -6.6083 2.8382
-3.7388 -6.6197 2.8382
-3.6532 -6.6308 2.8382
-3.5682 -6.6416 2.8382
-3.4836 -6.6520 2.8382
-3.3996 -6.6622 2.8382
-3.3160 -6.6722 2.8382
-3.2329 -6.6818 2.8382
-3.1502 -6.6911 2.8382
-3.0680 -6.7003 2.8382
-2.9862 -6.7091 2.8382
-2.9047 -6.7176 2.8382
-2.8237 -6.7260 2.8382
-2.7431 -6.7340 2.8382
-2.6628 -6.7418 2.8382
-2.5829 -6.7493 2.8382
-2.5033 -6.7566 2.8382
-2.4240 -6.7637 2.8382
-2.3451 -6.7705 2.8382
-2.2664 -6.7770 2.8382
-2.1881 -6.7833 2.8382
-2.1100 -6.7895 2.8382
-2.0323 -6.7953 2.8382
-1.9547 -6.8009 2.8382
-1.8775 -6.8063 2.8382
-1.8004 -6.8115 2.8382
-0.8869 -3.5075 1.4605
-0.8469 -3.5075 1.4595
-0.8071 -3.5075 1.4585
-0.7675 -3.5075 1.4576
-0.7280 -3.5075 1.4567
-0.6887 -3.5075 1.4559
-0.6496 -3.5075 1.4551
-0.6106 -3.5075 1.4544
-0.5717 -3.5075 1.4537
-0.5329 -3.5075 1.4531
-0.4943 -3.5075 1.4525
-0.4558 -3.5075 1.4519
-0.4173 -3.5075 1.4514
-0.3790 -3.5075 1.4510
-0.3407 -3.5075 1.4506
-0.3025 -3.5075 1.4502
-0.2644 -3.5075 1.4499
-0.2263 -3.5075 1.4496
-0.1883 -3.5075 1.4494
-0.1503 -3.5075 1.4492
-0.1124 -3.5075 1.4490
-0.0745 -3.5075 1.4489
-0.0365 -3.5075 1.4489
0.0014 -3.5075 1.4488
0.0393 -3.5075 1.4489
0.0772 -3.5075 1.4489
0.1151 -3.5075 1.4490
0.1530 -3.5075 1.4492
0.1910 -3.5075 1.4494
0.2291 -3.5075 1.4496
0.2671 -3.5075 1.4499
0.3053 -3.5075 1.4502
0.3435 -3.5075 1.4506
0.3817 -3.5075 1.4510
0.4201 -3.5075 1.4515
0.4585 -3.5075 1.4520
0.4971 -3.5075 1.4525
0.5357 -3.5075 1.4531
0.5745 -3.5075 1.4538
0.6133 -3.5075 1.4544
0.6524 -3.5075 1.4552
0.6915 -3.5075 1.4560
0.7308 -3.5075 1.4568
0.7703 -3.5075 1.4576
0.8099 -3.5075 1.4586
0.8498 -3.5075 1.4595
0.8898 -3.5075 1.4605
1.8059 -6.8111 2.8382
1.8830 -6.8059 2.8382
1.9603 -6.8006 2.8382
2.0378 -6.7949 2.8382
2.1156 -6.7890 2.8382
2.1937 -6.7829 2.8382
2.2720 -6.7766 2.8382
-11.1874 -3.2356 2.8382
-11.0243 -3.3061 2.8382
-10.8641 -3.3749 2.8382
-10.7067 -3.4420 2.8382
-10.5520 -3.5074 2.8382
-10.3999 -3.5711 2.8382
-10.2504 -3.6333 2.8382
-10.1033 -3.6940 2.8382
-9.9586 -3.7532 2.8382
-9.8162 -3.8109 2.8382
-9.1564 -3.6597 2.6858
-9.0258 -3.7118 2.6858
-8.8972 -3.7626 2.6858
-8.7705 -3.8123 2.6858
-8.6456 -3.8608 2.6858
-8.5226 -3.9082 2.6858
-8.4013 -3.9545 2.6858
-8.2817 -3.9997 2.6858
-8.1638 -4.0439 2.6858
-8.0475 -4.0871 2.6858
-7.9327 -4.1293 2.6858
-7.8194 -4.1706 2.6858
-7.7076 -4.2109 2.6858
-7.5973 -4.2503 2.6858
-7.4883 -4.2890 2.6858
-7.3807 -4.3266 2.6858
-7.2744 -4.3635 2.6858
-7.1693 -4.3996 2.6858
-7.0655 -4.4348 2.6858
-6.9629 -4.4694 2.6858
-6.8615 -4.5031 2.6858
-6.7612 -4.5361 2.6858
-6.6621 -4.5684 2.6858
-6.5640 -4.6000 2.6858
-6.4670 -4.6310 2.6858
-6.3710 -4.6612 2.6858
-6.2760 -4.6908 2.6858
-6.1820 -4.7198 2.6858
-6.0889 -4.7482 2.6858
-5.9968 -4.7759 2.6858
-5.9055 -4.8030 2.6858
-5.8151 -4.8296 2.6858
-5.7388 -4.8668 2.6920
-5.7325 -4.9638 2.7314
-5.7260 -5.0624 2.7715
-5.7194 -5.1627 2.8124
-5.6807 -5.2353 2.8382
-5.5903 -5.2599 2.8382
-5.5006 -5.2841 2.8382
-5.4117 -5.3077 2.8382
-5.3236 -5.3308 2.8382
-5.2361 -5.3534 2.8382
-5.1494 -5.3755 2.8382
-5.0633 -5.3971 2.8382
-4.9779 -5.4183 2.8382
-4.8932 -5.4390 2.8382
-4.8090 -5.4592 2.8382
-4.7255 -5.4790 2.8382
-4.6426 -5.4984 2.8382
-4.5603 -5.5174 2.8382
-4.4785 -5.5358 2.8382
-4.3974 -5.5539 2.8382
-4.3167 -5.5716 2.8382
-4.2366 -5.5889 2.8382
-4.1569 -5.6058 2.8382
-4.0778 -5.6223 2.8382
-3.9992 -5.6384 2.8382
-3.9210 -5.6542 2.8382
-3.8433 -5.6696 2.8382
-3.7661 -5.6846 2.8382
-3.6893 -5.6992 2.8382
-3.6129 -5.7135 2.8382
-3.5369 -5.7275 2.8382
-3.4614 -5.7411 2.8382
-3.3862 -5.7543 2.8382
-3.3114 -5.7673 2.8382
-3.2370 -5.7799 2.8382
-3.1629 -5.7922 2.8382
-3.0892 -5.8041 2.8382
-3.0159 -5.8157 2.8382
-2.9429 -5.8271 2.8382
-2.8701 -5.8381 2.8382
-2.7978 -5.8488 2.8382
-2.7257 -5.8592 2.8382
-2.6539 -5.8693 2.8382
-2.5824 -5.8791 2.8382
-2.5111 -5.8886 2.8382
-2.4402 -5.8979 2.8382
-2.3694 -5.9068 2.8382
-2.2990 -5.9155 2.8382
-2.2288 -5.9239 2.8382
-2.1588 -5.9320 2.8382
-2.0890 -5.9398 2.8382
-2.0195 -5.9474 2.8382
-1.9502 -5.9546 2.8382
-1.8810 -5.9616 2.8382
-1.8121 -5.9684 2.8382
-1.7433 -5.9749 2.8382
-1.6748 -5.9811 2.8382
-1.6064 -5.9871 2.8382
-0.9003 -3.5076 1.6612
-0.8596 -3.5076 1.6597
-0.8192 -3.5076 1.6583
-0.7790 -3.5076 1.6569
-0.7389 -3.5076 1.6556
-0.6990 -3.5076 1.6544
-0.6592 -3.5076 1.6532
-0.6196 -3.5076 1.6522
-0.5802 -3.5076 1.6511
-0.5408 -3.5076 1.6502
-0.5016 -3.5076 1.6493
-0.4625 -3.5076 1.6485
-0.4235 -3.5076 1.6478
-0.3846 -3.5076 1.6471
-0.3457 -3.5076 1.6465
-0.3070 -3.5076 1.6459
-0.2683 -3.5076 1.6454
-0.2297 -3.5076 1.6450
-0.1911 -3.5076 1.6447
-0.1525 -3.5076 1.6444
-0.1140 -3.5076 1.6442
-0.0756 -3.5076 1.6440
-0.0371 -3.5076 1.6439
0.0014 -3.5076 1.6439
0.0398 -3.5076 1.6439
0.0783 -3.5076 1.6440
0.1168 -3.5076 1.6442
0.1553 -3.5076 1.6444
0.1938 -3.5076 1.6447
0.2324 -3.5076 1.6450
0.2711 -3.5076 1.6455
0.3097 -3.5076 1.6460
0.3485 -3.5076 1.6465
0.3873 -3.5076 1.6471
0.4263 -3.5076 1.6478
0.4653 -3.5076 1.6486
0.5044 -3.5076 1.6494
0.5436 -3.5076 1.6503
0.5830 -3.5076 1.6512
0.6224 -3.5076 1.6522
0.6621 -3.5076 1.6533
0.7018 -3.5076 1.6545
0.7417 -3.5076 1.6557
0.7818 -3.5076 1.6570
0.8221 -3.5076 1.6584
0.8625 -3.5076 1.6598
0.9032 -3.5076 1.6613
1.6113 -5.9867 2.8382
1.6797 -5.9807 2.8382
1.7483 -5.9745 2.8382
1.8170 -5.9680 2.8382
1.8860 -5.9611 2.8382
1.9551 -5.9541 2.8382
2.0245 -5.9468 2.8382
-8.8799 -2.4404 2.6858
-8.7661 -2.5023 2.6858
-8.6538 -2.5629 2.6858
-8.5429 -2.6221 2.6858
-8.4335 -2.6800 2.6858
-8.3255 -2.7367 2.6858
-8.2188 -2.7921 2.6858
-8.1134 -2.8465 2.6858
-8.0093 -2.8996 2.6858
-7.9065 -2.9516 2.6858
-7.8049 -3.0025 2.6858
-7.7044 -3.0523 2.6858
-7.6051 -3.1011 2.6858
-7.5070 -3.1489 2.6858
-7.4099 -3.1957 2.6858
-7.3139 -3.2415 2.6858
-7.2190 -3.2864 2.6858
-7.1250 -3.3304 2.6858
-7.0321 -3.3734 2.6858
-6.9401 -3.4156 2.6858
-6.8490 -3.4569 2.6858
-6.7589 -3.4974 2.6858
-6.6697 -3.5371 2.6858
-6.5813 -3.5760 2.6858
-6.4938 -3.6141 2.6858
-6.4072 -3.6514 2.6858
-6.3213 -3.6880 2.6858
-6.2363 -3.7238 2.6858
-6.1520 -3.7590 2.6858
-6.0685 -3.7934 2.6858
-5.9857 -3.8271 2.6858
-5.9036 -3.8602 2.6858
-5.8223 -3.8926 2.6858
-5.7416 -3.9242 2.6858
-5.7321 -4.0047 2.7193
-5.7263 -4.0888 2.7551
-5.7204 -4.1742 2.7917
-5.7145 -4.2607 2.8289
-5.6515 -4.3052 2.8382
-5.5703 -4.3349 2.8382
-5.4897 -4.3641 2.8382
-5.4098 -4.3927 2.8382
-5.3304 -4.4207 2.8382
-5.2515 -4.4482 2.8382
-5.1733 -4.4751 2.8382
-5.0956 -4.5015 2.8382
-5.0184 -4.5273 2.8382
-4.9418 -4.5526 2.8382
-4.8657 -4.5774 2.8382
-4.7901 -4.6017 2.8382
-4.7149 -4.6255 2.8382
-4.6403 -4.6489 2.8382
-4.5661 -4.6717 2.8382
-4.4924 -4.6941 2.8382
-4.4191 -4.7160 2.8382
-4.3463 -4.7375 2.8382
-4.2739 -4.7585 2.8382
-4.2019 -4.7791 2.8382
-4.1303 -4.7992 2.8382
-4.0591 -4.8189 2.8382
-3.9883 -4.8382 2.8382
-3.9179 -4.8571 2.8382
-3.8479 -4.8756 2.8382
-3.7782 -4.8936 2.8382
-3.7089 -4.9113 2.8382
-3.6399 -4.9286 2.8382
-3.5713 -4.9455 2.8382
-3.5030 -4.9620 2.8382
-3.4350 -4.9782 2.8382
-3.3673 -4.9939 2.8382
-3.2999 -5.0093 2.8382
-3.2328 -5.0244 2.8382
-3.1661 -5.0391 2.8382
-3.0996 -5.0534 2.8382
-3.0333 -5.0674 2.8382
-2.9674 -5.0810 2.8382
-2.9017 -5.0944 2.8382
-2.8362 -5.1073 2.8382
-2.7710 -5.1200 2.8382
-2.7061 -5.1323 2.8382
-2.6414 -5.1443 2.8382
-2.5769 -5.1560 2.8382
-2.5126 -5.1673 2.8382
-2.4486 -5.1783 2.8382
-2.3847 -5.1891 2.8382
-2.3211 -5.1995 2.8382
-2.2576 -5.2096 2.8382
-2.1944 -5.2194 2.8382
-2.1313 -5.2290 2.8382
-2.0684 -5.2382 2.8382
-2.0057 -5.2471 2.8382
-1.9431 -5.2557 2.8382
-1.8807 -5.2640 2.8382
-1.8185 -5.2721 2.8382
-1.7564 -5.2799 2.8382
-1.6945 -5.2874 2.8382
-1.6327 -5.2946 2.8382
-1.5710 -5.3015 2.8382
-1.5095 -5.3082 2.8382
-1.4481 -5.3145 2.8382
-0.9142 -3.5077 1.8711
-0.8730 -3.5077 1.8691
-0.8319 -3.5077 1.8671
-0.7910 -3.5077 1.8653
-0.7502 -3.5077 1.8635
-0.7097 -3.5077 1.8619
-0.6693 -3.5077 1.8603
-0.6291 -3.5077 1.8588
-0.5890 -3.5077 1.8575
-0.5491 -3.5077 1.8562
-0.5092 -3.5077 1.8550
-0.4695 -3.5077 1.8539
-0.4299 -3.5077 1.8529
-0.3904 -3.5077 1.8520
-0.3510 -3.5077 1.8511
-0.3116 -3.5077 1.8504
-0.2723 -3.5077 1.8497
-0.2331 -3.5077 1.8492
-0.1940 -3.5077 1.8487
-0.1548 -3.5077 1.8483
-0.1158 -3.5077 1.8480
-0.0767 -3.5077 1.8478
-0.0376 -3.5077 1.8477
0.0014 -3.5077 1.8476
0.0404 -3.5077 1.8477
0.0795 -3.5077 1.8478
0.1185 -3.5077 1.8480
0.1576 -3.5077 1.8483
0.1968 -3.5077 1.8487
0.2359 -3.5077 1.8492
0.2752 -3.5077 1.8498
0.3144 -3.5077 1.8504
0.3538 -3.5077 1.8512
0.3932 -3.5077 1.8520
0.4327 -3.5077 1.8530
0.4724 -3.5077 1.8540
0.5121 -3.5077 1.8551
0.5519 -3.5077 1.8563
0.5919 -3.5077 1.8576
0.6320 -3.5077 1.8590
0.6722 -3.5077 1.8604
0.7126 -3.5077 1.8620
0.7532 -3.5077 1.8637
0.7939 -3.5077 1.8654
0.8348 -3.5077 1.8673
0.8759 -3.5077 1.8692
0.9172 -3.5077 1.8713
1.4525 -5.3141 2.8382
1.5139 -5.3077 2.8382
1.5754 -5.3010 2.8382
1.6371 -5.2941 2.8382
1.6989 -5.2868 2.8382
1.7609 -5.2793 2.8382
1.8230 -5.2716 2.8382
-7.3047 -1.9004 2.5723
-7.5393 -2.0411 2.6858
-7.4522 -2.0970 2.6858
-7.3660 -2.1516 2.6858
-7.2806 -2.2053 2.6858
-7.1961 -2.2579 2.6858
-7.1123 -2.3095 2.6858
-7.0292 -2.3602 2.6858
-6.9469 -2.4098 2.6858
-6.8654 -2.4585 2.6858
-6.7845 -2.5063 2.6858
-6.7044 -2.5532 2.6858
-6.6249 -2.5993 2.6858
-6.5461 -2.6444 2.6858
-6.4680 -2.6887 2.6858
-6.3905 -2.7322 2.6858
-6.3137 -2.7748 2.6858
-6.2374 -2.8167 2.6858
-6.1618 -2.8578 2.6858
-6.0867 -2.8982 2.6858
-6.0122 -2.9377 2.6858
-5.9383 -2.9766 2.6858
-5.8650 -3.0147 2.6858
-5.7922 -3.0521 2.6858
-5.7343 -3.0966 2.6926
-5.7292 -3.1698 2.7244
-5.7240 -3.2436 2.7567
-5.7187 -3.3184 2.7895
-5.7133 -3.3939 2.8229
-5.6706 -3.4477 2.8382
-5.5974 -3.4824 2.8382
-5.5246 -3.5165 2.8382
-5.4524 -3.5499 2.8382
-5.3806 -3.5828 2.8382
-5.3092 -3.6150 2.8382
-5.2383 -3.6466 2.8382
-5.1679 -3.6776 2.8382
-5.0978 -3.7081 2.8382
-5.0282 -3.7380 2.8382
-4.9590 -3.7673 2.8382
-4.8903 -3.7960 2.8382
-4.8219 -3.8243 2.8382
-4.7539 -3.8520 2.8382
-4.6863 -3.8792 2.8382
-4.6190 -3.9059 2.8382
-4.5522 -3.9320 2.8382
-4.4856 -3.9577 2.8382
-4.4195 -3.9829 2.8382
-4.3536 -4.0076 2.8382
-4.2882 -4.0318 2.8382
-4.2230 -4.0555 2.8382
-4.1582 -4.0788 2.8382
-4.0937 -4.1017 2.8382
-4.0295 -4.1241 2.8382
-3.9656 -4.1460 2.8382
-3.9020 -4.1675 2.8382
-3.8386 -4.1886 2.8382
-3.7756 -4.2093 2.8382
-3.7129 -4.2295 2.8382
-3.6504 -4.2493 2.8382
-3.5882 -4.2687 2.8382
-3.5262 -4.2877 2.8382
-3.4645 -4.3064 2.8382
-3.4031 -4.3246 2.8382
-3.3419 -4.3425 2.8382
-3.2809 -4.3599 2.8382
-3.2202 -4.3770 2.8382
-3.1597 -4.3937 2.8382
-3.0994 -4.4101 2.8382
-3.0394 -4.4261 2.8382
-2.9795 -4.4417 2.8382
-2.9199 -4.4569 2.8382
-2.8605 -4.4718 2.8382
-2.8012 -4.4864 2.8382
-2.7422 -4.5006 2.8382
-2.6833 -4.5145 2.8382
-2.6247 -4.5281 2.8382
-2.5662 -4.5413 2.8382
-2.5079 -4.5541 2.8382
-2.4497 -4.5667 2.8382
-2.3917 -4.5789 2.8382
-2.3339 -4.5908 2.8382
-2.2762 -4.6024 2.8382
-2.2187 -4.6137 2.8382
-2.1614 -4.6247 2.8382
-2.1042 -4.6353 2.8382
-2.0471 -4.6456 2.8382
-1.9901 -4.6557 2.8382
-1.9333 -4.6654 2.8382
-1.8766 -4.6749 2.8382
-1.8201 -4.6840 2.8382
-1.7636 -4.6928 2.8382
-1.7073 -4.7014 2.8382
-1.6511 -4.7096 2.8382
-1.5950 -4.7176 2.8382
-1.5390 -4.7253 2.8382
-1.4831 -4.7327 2.8382
-1.4273 -4.7398 2.8382
-1.3716 -4.7466 2.8382
-1.3159 -4.7532 2.8382
-1.2604 -4.7595 2.8382
-0.8869 -3.5078 2.0892
-0.8452 -3.5078 2.0867
-0.8036 -3.5078 2.0843
-0.7622 -3.5078 2.0821
-0.7210 -3.5078 2.0799
-0.6799 -3.5078 2.0779
-0.6391 -3.5078 2.0760
-0.5983 -3.5078 2.0743
-0.5577 -3.5078 2.0726
-0.5173 -3.5078 2.0711
-0.4769 -3.5078 2.0697
-0.4367 -3.5078 2.0684
-0.3965 -3.5078 2.0672
-0.3565 -3.5078 2.0661
-0.3165 -3.5078 2.0652
-0.2766 -3.5078 2.0643
-0.2368 -3.5078 2.0636
-0.1970 -3.5078 2.0630
-0.1573 -3.5078 2.0625
-0.1176 -3.5078 2.0621
-0.0779 -3.5078 2.0618
-0.0382 -3.5078 2.0617
0.0014 -3.5078 2.0616
0.0411 -3.5078 2.0617
0.0807 -3.5078 2.0619
0.1204 -3.5078 2.0621
0.1601 -3.5078 2.0625
0.1998 -3.5078 2.0630
0.2396 -3.5078 2.0637
0.2795 -3.5078 2.0644
0.3194 -3.5078 2.0652
0.3593 -3.5078 2.0662
0.3994 -3.5078 2.0673
0.4395 -3.5078 2.0685
0.4798 -3.5078 2.0698
0.5201 -3.5078 2.0712
0.5606 -3.5078 2.0727
0.6012 -3.5078 2.0744
0.6420 -3.5078 2.0762
0.6829 -3.5078 2.0781
0.7239 -3.5078 2.0801
0.7651 -3.5078 2.0822
0.8066 -3.5078 2.0845
0.8481 -3.5078 2.0869
0.8899 -3.5078 2.0894
1.0468 -3.9401 2.3498
1.3199 -4.7527 2.8382
1.3756 -4.7461 2.8382
1.4313 -4.7393 2.8382
1.4871 -4.7322 2.8382
1.5430 -4.7248 2.8382
1.5990 -4.7171 2.8382
1.6551 -4.7090 2.8382
-6.6648 -1.6339 2.6858
-6.5946 -1.6861 2.6858
-6.5250 -1.7374 2.6858
-6.4558 -1.7878 2.6858
-6.3870 -1.8373 2.6858
-6.3188 -1.8860 2.6858
-6.2509 -1.9338 2.6858
-6.1835 -1.9808 2.6858
-6.1166 -2.0270 2.6858
-6.0500 -2.0724 2.6858
-5.9839 -2.1170 2.6858
-5.9182 -2.1609 2.6858
-5.8528 -2.2039 2.6858
-5.7879 -2.2463 2.6858
-5.7327 -2.2916 2.6902
-5.7281 -2.3572 2.7185
-5.7235 -2.4232 2.7473
-5.7188 -2.4898 2.7765
-5.7140 -2.5570 2.8062
-5.7092 -2.6248 2.8363
-5.6472 -2.6662 2.8382
-5.5817 -2.7052 2.8382
-5.5166 -2.7435 2.8382
-5.4518 -2.7812 2.8382
-5.3873 -2.8182 2.8382
-5.3232 -2.8545 2.8382
-5.2594 -2.8903 2.8382
-5.1960 -2.9254 2.8382
-5.1328 -2.9599 2.8382
-5.0700 -2.9939 2.8382
-5.0075 -3.0272 2.8382
-4.9454 -3.0599 2.8382
-4.8835 -3.0921 2.8382
-4.8219 -3.1238 2.8382
-4.7606 -3.1549 2.8382
-4.6996 -3.1854 2.8382
-4.6388 -3.2154 2.8382
-4.5784 -3.2449 2.8382
-4.5182 -3.2738 2.8382
-4.4583 -3.3023 2.8382
-4.3986 -3.3302 2.8382
-4.3393 -3.3577 2.8382
-4.2801 -3.3846 2.8382
-4.2212 -3.4111 2.8382
-4.1626 -3.4371 2.8382
-4.1042 -3.4626 2.8382
-4.0460 -3.4877 2.8382
-3.9880 -3.5123 2.8382
-3.9303 -3.5364 2.8382
-3.8728 -3.5602 2.8382
-3.8156 -3.5834 2.8382
-3.7585 -3.6063 2.8382
-3.7017 -3.6287 2.8382
-3.6450 -3.6507 2.8382
-3.5886 -3.6723 2.8382
-3.5324 -3.6934 2.8382
-3.4763 -3.7142 2.8382
-3.4205 -3.7345 2.8382
-3.3648 -3.7544 2.8382
-3.3093 -3.7740 2.8382
-3.2540 -3.7932 2.8382
-3.1989 -3.8120 2.8382
-3.1440 -3.8304 2.8382
-3.0892 -3.8484 2.8382
-3.0346 -3.8661 2.8382
-2.9801 -3.8834 2.8382
-2.9258 -3.9003 2.8382
-2.8717 -3.9169 2.8382
-2.8177 -3.9331 2.8382
-2.7639 -3.9490 2.8382
-2.7102 -3.9645 2.8382
-2.6567 -3.9796 2.8382
-2.6033 -3.9945 2.8382
-2.5500 -4.0090 2.8382
-2.4969 -4.0231 2.8382
-2.4439 -4.0369 2.8382
-2.3910 -4.0504 2.8382
-2.3383 -4.0636 2.8382
-2.2857 -4.0764 2.8382
-2.2332 -4.0889 2.8382
-2.1808 -4.1012 2.8382
-2.1285 -4.1131 2.8382
-2.0763 -4.1246 2.8382
-2.0243 -4.1359 2.8382
-1.9723 -4.1469 2.8382
-1.9205 -4.1575 2.8382
-1.8687 -4.1679 2.8382
-1.8170 -4.1779 2.8382
-1.7655 -4.1876 2.8382
-1.7140 -4.1971 2.8382
-1.6626 -4.2062 2.8382
-1.6113 -4.2151 2.8382
-1.5601 -4.2237 2.8382
-1.5089 -4.2319 2.8382
-1.4579 -4.2400 2.8382
-1.4069 -4.2477 2.8382
-1.3559 -4.2551 2.8382
-1.3051 -4.2622 2.8382
-1.2543 -4.2691 2.8382
-1.2036 -4.2757 2.8382
-1.0148 -3.7692 2.4983
-0.9017 -3.5079 2.3219
-0.8592 -3.5079 2.3188
-0.8169 -3.5079 2.3158
-0.7748 -3.5079 2.3130
-0.7329 -3.5079 2.3104
-0.6912 -3.5079 2.3079
-0.6496 -3.5079 2.3056
-0.6082 -3.5079 2.3034
-0.5669 -3.5079 2.3013
-0.5257 -3.5079 2.2994
-0.4847 -3.5079 2.2977
-0.4438 -3.5079 2.2961
-0.4030 -3.5079 2.2946
-0.3623 -3.5079 2.2933
-0.3217 -3.5079 2.2921
-0.2811 -3.5079 2.2910
-0.2406 -3.5079 2.2901
-0.2002 -3.5079 2.2894
-0.1598 -3.5079 2.2888
-0.1195 -3.5079 2.2883
-0.0792 -3.5079 2.2880
-0.0389 -3.5079 2.2877
0.0014 -3.5079 2.2877
0.0417 -3.5079 2.2878
0.0820 -3.5079 2.2880
0.1224 -3.5079 2.2883
0.1627 -3.5079 2.2888
0.2031 -3.5079 2.2894
0.2435 -3.5079 2.2902
0.2840 -3.5079 2.2911
0.3246 -3.5079 2.2922
0.3652 -3.5079 2.2934
0.4059 -3.5079 2.2947
0.4467 -3.5079 2.2962
0.4876 -3.5079 2.2978
0.5287 -3.5079 2.2996
0.5698 -3.5079 2.3015
0.6111 -3.5079 2.3035
0.6525 -3.5079 2.3057
0.6941 -3.5079 2.3081
0.7359 -3.5079 2.3106
0.7778 -3.5079 2.3132
0.8199 -3.5079 2.3160
0.8623 -3.5079 2.3190
0.9048 -3.5079 2.3221
1.0172 -3.7658 2.4963
1.2072 -4.2752 2.8382
1.2579 -4.2686 2.8382
1.3087 -4.2617 2.8382
1.3596 -4.2546 2.8382
1.4105 -4.2471 2.8382
1.4615 -4.2394 2.8382
1.5126 -4.2314 2.8382
-5.8994 -1.3552 2.6858
-5.8420 -1.4032 2.6858
-5.7848 -1.4504 2.6858
-5.7312 -1.4977 2.6874
-5.7272 -1.5578 2.7123
-5.7231 -1.6182 2.7376
-5.7190 -1.6789 2.7633
-5.7148 -1.7400 2.7893
-5.7106 -1.8015 2.8158
-5.6975 -1.8604 2.8382
-5.6391 -1.9044 2.8382
-5.5810 -1.9476 2.8382
-5.5231 -1.9901 2.8382
-5.4654 -2.0319 2.8382
-5.4080 -2.0732 2.8382
-5.3507 -2.1137 2.8382
-5.2937 -2.1535 2.8382
-5.2370 -2.1928 2.8382
-5.1804 -2.2314 2.8382
-5.1241 -2.2694 2.8382
-5.0680 -2.3068 2.8382
-5.0121 -2.3437 2.8382
-4.9564 -2.3799 2.8382
-4.9009 -2.4155 2.8382
-4.8456 -2.4506 2.8382
-4.7905 -2.4851 2.8382
-4.7356 -2.5190 2.8382
-4.6809 -2.5524 2.8382
-4.6264 -2.5852 2.8382
-4.5721 -2.6175 2.8382
-4.5180 -2.6494 2.8382
-4.4640 -2.6806 2.8382
-4.4103 -2.7114 2.8382
-4.3567 -2.7416 2.8382
-4.3033 -2.7714 2.8382
-4.2501 -2.8006 2.8382
-4.1971 -2.8294 2.8382
-4.1442 -2.8577 2.8382
-4.0915 -2.8855 2.8382
-4.0389 -2.9128 2.8382
-3.9865 -2.9397 2.8382
-3.9343 -2.9661 2.8382
-3.8823 -2.9922 2.8382
-3.8304 -3.0177 2.8382
-3.7786 -3.0428 2.8382
-3.7270 -3.0674 2.8382
-3.6756 -3.0917 2.8382
-3.6242 -3.1155 2.8382
-3.5731 -3.1389 2.8382
-3.5221 -3.1618 2.8382
-3.4712 -3.1844 2.8382
-3.4205 -3.2066 2.8382
-3.3699 -3.2283 2.8382
-3.3194 -3.2497 2.8382
-3.2690 -3.2706 2.8382
-3.2188 -3.2912 2.8382
-3.1688 -3.3114 2.8382
-3.1188 -3.3313 2.8382
-3.0690 -3.3507 2.8382
-3.0193 -3.3698 2.8382
-2.9697 -3.3885 2.8382
-2.9202 -3.4068 2.8382
-2.8708 -3.4248 2.8382
-2.8216 -3.4424 2.8382
-2.7724 -3.4597 2.8382
-2.7234 -3.4766 2.8382
-2.6745 -3.4932 2.8382
-2.6256 -3.5094 2.8382
-2.5769 -3.5253 2.8382
-2.5283 -3.5409 2.8382
-2.4798 -3.5561 2.8382
-2.4313 -3.5710 2.8382
-2.3830 -3.5855 2.8382
-2.3347 -3.5998 2.8382
-2.2866 -3.6137 2.8382
-2.2385 -3.6273 2.8382
-2.1905 -3.6405 2.8382
-2.1426 -3.6535 2.8382
-2.0948 -3.6661 2.8382
-2.0471 -3.6784 2.8382
-1.9994 -3.6905 2.8382
-1.9519 -3.7022 2.8382
-1.9044 -3.7136 2.8382
-1.8569 -3.7247 2.8382
-1.8096 -3.7355 2.8382
-1.7623 -3.7460 2.8382
-1.7150 -3.7562 2.8382
-1.6679 -3.7662 2.8382
-1.6208 -3.7758 2.8382
-1.5738 -3.7851 2.8382
-1.5268 -3.7942 2.8382
-1.4799 -3.8029 2.8382
-1.4330 -3.8114 2.8382
-1.3862 -3.8196 2.8382
-1.3394 -3.8275 2.8382
-1.2927 -3.8351 2.8382
-1.2461 -3.8425 2.8382
-1.1995 -3.8495 2.8382
-1.1529 -3.8563 2.8382
-1.1064 -3.8628 2.8382
-1.0599 -3.8691 2.8382
-0.9175 -3.5080 2.5694
-0.8742 -3.5080 2.5656
-0.8311 -3.5080 2.5620
-0.7882 -3.5080 2.5586
-0.7456 -3.5080 2.5554
-0.7031 -3.5080 2.5524
-0.6608 -3.5080 2.5496
-0.6186 -3.5080 2.5469
-0.5766 -3.5080 2.5444
-0.5347 -3.5080 2.5421
-0.4930 -3.5080 2.5400
-0.4514 -3.5080 2.5381
-0.4099 -3.5080 2.5363
-0.3685 -3.5080 2.5347
-0.3271 -3.5080 2.5333
-0.2859 -3.5080 2.5320
-0.2447 -3.5080 2.5309
-0.2036 -3.5080 2.5300
-0.1625 -3.5080 2.5292
-0.1215 -3.5080 2.5287
-0.0805 -3.5080 2.5282
-0.0395 -3.5080 2.5280
0.0015 -3.5080 2.5279
0.0424 -3.5080 2.5280
0.0834 -3.5080 2.5283
0.1244 -3.5080 2.5287
0.1655 -3.5080 2.5293
0.2065 -3.5080 2.5301
0.2477 -3.5080 2.5310
0.2888 -3.5080 2.5321
0.3301 -3.5080 2.5334
0.3714 -3.5080 2.5348
0.4128 -3.5080 2.5364
0.4544 -3.5080 2.5382
0.4960 -3.5080 2.5402
0.5377 -3.5080 2.5423
0.5796 -3.5080 2.5446
0.7061 -3.5080 2.5526
0.6216 -3.5080 2.5471
0.7486 -3.5080 2.5557
0.6638 -3.5080 2.5498
0.7913 -3.5080 2.5589
0.9206 -3.5080 2.5697
0.8342 -3.5080 2.5623
1.0632 -3.8686 2.8382
0.8773 -3.5080 2.5659
1.1097 -3.8624 2.8382
1.1562 -3.8559 2.8382
1.2028 -3.8490 2.8382
1.2494 -3.8419 2.8382
1.2961 -3.8346 2.8382
1.3428 -3.8269 2.8382
1.3895 -3.8190 2.8382
-5.5728 -1.1913 2.8382
-5.5222 -1.2380 2.8382
-5.4718 -1.2840 2.8382
-5.4214 -1.3293 2.8382
-5.3711 -1.3740 2.8382
-5.3210 -1.4180 2.8382
-5.2710 -1.4612 2.8382
-5.2211 -1.5041 2.8382
-5.1713 -1.5462 2.8382
-5.1216 -1.5877 2.8382
-5.0720 -1.6286 2.8382
-5.0225 -1.6689 2.8382
-4.9732 -1.7086 2.8382
-4.9239 -1.7477 2.8382
-4.8748 -1.7862 2.8382
-4.8258 -1.8241 2.8382
-4.7769 -1.8615 2.8382
-4.7281 -1.8983 2.8382
-4.6794 -1.9346 2.8382
-4.6308 -1.9704 2.8382
-4.5824 -2.0055 2.8382
-4.5340 -2.0402 2.8382
-4.4857 -2.0743 2.8382
-4.4376 -2.1080 2.8382
-4.3896 -2.1411 2.8382
-4.3416 -2.1737 2.8382
-4.2938 -2.2058 2.8382
-4.2461 -2.2374 2.8382
-4.1984 -2.2686 2.8382
-4.1509 -2.2992 2.8382
-4.1035 -2.3294 2.8382
-4.0562 -2.3591 2.8382
-4.0090 -2.3884 2.8382
-3.9618 -2.4172 2.8382
-3.9148 -2.4455 2.8382
-3.8679 -2.4734 2.8382
-3.8211 -2.5009 2.8382
-3.7743 -2.5279 2.8382
-3.7277 -2.5545 2.8382
-3.6812 -2.5806 2.8382
-3.6347 -2.6063 2.8382
-3.5883 -2.6317 2.8382
-3.5421 -2.6565 2.8382
-3.4959 -2.6810 2.8382
-3.4498 -2.7051 2.8382
-3.4038 -2.7288 2.8382
-3.3579 -2.7521 2.8382
-3.3121 -2.7750 2.8382
-3.2663 -2.7975 2.8382
-3.2207 -2.8196 2.8382
-3.1751 -2.8413 2.8382
-3.1296 -2.8627 2.8382
-3.0842 -2.8837 2.8382
-3.0389 -2.9043 2.8382
-2.9936 -2.9245 2.8382
-2.9485 -2.9444 2.8382
-2.9034 -2.9639 2.8382
-2.8583 -2.9831 2.8382
-2.8134 -3.0019 2.8382
-2.7685 -3.0204 2.8382
-2.7237 -3.0385 2.8382
-2.6790 -3.0563 2.8382
-2.6343 -3.0737 2.8382
-2.5897 -3.0908 2.8382
-2.5452 -3.1075 2.8382
-2.5008 -3.1240 2.8382
-2.4564 -3.1401 2.8382
-2.4121 -3.1558 2.8382
-2.3678 -3.1713 2.8382
-2.3236 -3.1864 2.8382
-2.2795 -3.2012 2.8382
-2.2354 -3.2157 2.8382
-2.1914 -3.2299 2.8382
-2.1474 -3.2437 2.8382
-2.1035 -3.2573 2.8382
-2.0597 -3.2705 2.8382
-2.0159 -3.2835 2.8382
-1.9721 -3.2961 2.8382
-1.9285 -3.3084 2.8382
-1.8848 -3.3205 2.8382
-1.8412 -3.3322 2.8382
-1.7977 -3.3436 2.8382
-1.7542 -3.3548 2.8382
-1.7108 -3.3656 2.8382
-1.6674 -3.3762 2.8382
-1.6240 -3.3865 2.8382
-1.5807 -3.3965 2.8382
-1.5375 -3.4062 2.8382
-1.4943 -3.4156 2.8382
-1.4511 -3.4248 2.8382
-1.4079 -3.4336 2.8382
-1.3648 -3.4422 2.8382
-1.3218 -3.4505 2.8382
-1.2787 -3.4585 2.8382
-1.2357 -3.4663 2.8382
-1.1928 -3.4737 2.8382
-1.1498 -3.4810 2.8382
-1.1069 -3.4879 2.8382
-1.0640 -3.4945 2.8382
-1.0212 -3.5009 2.8382
-0.9784 -3.5070 2.8382
-0.9356 -3.5129 2.8382
-0.8928 -3.5185 2.8382
-0.8501 -3.5238 2.8382
-0.8074 -3.5288 2.8382
-0.7647 -3.5336 2.8382
-0.7220 -3.5382 2.8382
-0.5514 -3.5536 2.8382
-0.6793 -3.5424 2.8382
-0.6367 -3.5464 2.8382
-0.5089 -3.5569 2.8382
-0.5941 -3.5502 2.8382
-0.4663 -3.5598 2.8382
-0.3386 -3.5671 2.8382
-0.4237 -3.5625 2.8382
-0.2961 -3.5691 2.8382
-0.3812 -3.5650 2.8382
-0.2535 -3.5707 2.8382
-0.1260 -3.5742 2.8382
-0.2110 -3.5721 2.8382
-0.0835 -3.5748 2.8382
-0.1685 -3.5733 2.8382
-0.0410 -3.5752 2.8382
0.0865 -3.5748 2.8382
0.0015 -3.5753 2.8382
0.1290 -3.5741 2.8382
0.0440 -3.5752 2.8382
0.1715 -3.5732 2.8382
0.2991 -3.5690 2.8382
0.2141 -3.5721 2.8382
0.3417 -3.5670 2.8382
0.2566 -3.5706 2.8382
0.3842 -3.5648 2.8382
0.5119 -3.5566 2.8382
0.4268 -3.5623 2.8382
0.5545 -3.5534 2.8382
0.4693 -3.5596 2.8382
0.5971 -3.5499 2.8382
0.7250 -3.5378 2.8382
0.6397 -3.5461 2.8382
0.7677 -3.5333 2.8382
0.6824 -3.5421 2.8382
0.8104 -3.5285 2.8382
0.9386 -3.5125 2.8382
0.8531 -3.5234 2.8382
0.9814 -3.5066 2.8382
0.8959 -3.5181 2.8382
1.0243 -3.5005 2.8382
1.0671 -3.4941 2.8382
1.1100 -3.4874 2.8382
1.1529 -3.4804 2.8382
1.1958 -3.4732 2.8382
1.2388 -3.4657 2.8382
1.2818 -3.4579 2.8382
-5.0199 -0.9900 2.8382
-4.9771 -1.0331 2.8382
-4.9343 -1.0756 2.8382
-4.8915 -1.1175 2.8382
-4.8487 -1.1589 2.8382
-4.8059 -1.1996 2.8382
-4.7632 -1.2399 2.8382
-4.7204 -1.2796 2.8382
-4.6778 -1.3187 2.8382
-4.6351 -1.3573 2.8382
-4.5924 -1.3954 2.8382
-4.5498 -1.4330 2.8382
-4.5072 -1.4700 2.8382
-4.4647 -1.5065 2.8382
-4.4221 -1.5425 2.8382
-4.3796 -1.5780 2.8382
-4.3372 -1.6130 2.8382
-4.2948 -1.6476 2.8382
-4.2524 -1.6816 2.8382
-4.2100 -1.7152 2.8382
-4.1677 -1.7482 2.8382
-4.1254 -1.7808 2.8382
-4.0831 -1.8130 2.8382
-4.0409 -1.8447 2.8382
-3.9988 -1.8759 2.8382
-3.9566 -1.9067 2.8382
-3.9145 -1.9370 2.8382
-3.8725 -1.9669 2.8382
-3.8305 -1.9963 2.8382
-3.7885 -2.0254 2.8382
-3.7466 -2.0540 2.8382
-3.7047 -2.0821 2.8382
-3.6628 -2.1099 2.8382
-3.6210 -2.1372 2.8382
-3.5793 -2.1641 2.8382
-3.5375 -2.1906 2.8382
-3.4959 -2.2167 2.8382
-3.4542 -2.2424 2.8382
-3.4126 -2.2678 2.8382
-3.3711 -2.2927 2.8382
-3.3296 -2.3172 2.8382
-3.2881 -2.3414 2.8382
-3.2467 -2.3651 2.8382
-3.2053 -2.3885 2.8382
-3.1639 -2.4115 2.8382
-3.1226 -2.4342 2.8382
-3.0814 -2.4564 2.8382
-3.0402 -2.4784 2.8382
-2.9990 -2.4999 2.8382
-2.9579 -2.5211 2.8382
-2.9168 -2.5420 2.8382
-2.8757 -2.5625 2.8382
-2.8347 -2.5826 2.8382
-2.7937 -2.6024 2.8382
-2.7528 -2.6219 2.8382
-2.7119 -2.6410 2.8382
-2.6711 -2.6597 2.8382
-2.6302 -2.6782 2.8382
-2.5895 -2.6963 2.8382
-2.5487 -2.7141 2.8382
-2.5080 -2.7315 2.8382
-2.4674 -2.7487 2.8382
-2.4268 -2.7655 2.8382
-2.3862 -2.7820 2.8382
-2.3456 -2.7982 2.8382
-2.3051 -2.8140 2.8382
-2.2646 -2.8296 2.8382
-2.2242 -2.8448 2.8382
-2.1838 -2.8597 2.8382
-2.1434 -2.8744 2.8382
-2.1031 -2.8887 2.8382
-2.0628 -2.9027 2.8382
-2.0225 -2.9164 2.8382
-1.9823 -2.9299 2.8382
-1.9421 -2.9430 2.8382
-1.9019 -2.9558 2.8382
-1.8617 -2.9683 2.8382
-1.8216 -2.9806 2.8382
-1.7815 -2.9926 2.8382
-1.7415 -3.0043 2.8382
-1.7015 -3.0157 2.8382
-1.6615 -3.0267 2.8382
-1.6215 -3.0376 2.8382
-1.5815 -3.0481 2.8382
-1.5416 -3.0584 2.8382
-1.5017 -3.0684 2.8382
-1.4619 -3.0781 2.8382
-1.4220 -3.0875 2.8382
-1.3822 -3.0967 2.8382
-1.3424 -3.1056 2.8382
-1.3026 -3.1142 2.8382
-1.2629 -3.1225 2.8382
-1.2232 -3.1306 2.8382
-1.1041 -3.1532 2.8382
-1.1834 -3.1384 2.8382
-1.0644 -3.1602 2.8382
-1.1438 -3.1460 2.8382
-1.0248 -3.1670 2.8382
-0.9060 -3.1857 2.8382
-0.9852 -3.1735 2.8382
-0.8665 -3.1914 2.8382
-0.9456 -3.1797 2.8382
-0.8269 -3.1968 2.8382
-0.7083 -3.2116 2.8382
-0.7874 -3.2020 2.8382
-0.6688 -3.2160 2.8382
-0.7478 -3.2070 2.8382
-0.6293 -3.2202 2.8382
-0.5109 -3.2311 2.8382
-0.5899 -3.2241 2.8382
-0.4715 -3.2343 2.8382
-0.5504 -3.2278 2.8382
-0.4321 -3.2372 2.8382
-0.3138 -3.2443 2.8382
-0.3926 -3.2398 2.8382
-0.2744 -3.2462 2.8382
-0.3532 -3.2422 2.8382
-0.2350 -3.2478 2.8382
-0.1168 -3.2512 2.8382
-0.1956 -3.2492 2.8382
-0.0774 -3.2518 2.8382
-0.1562 -3.2503 2.8382
