ply
format ascii 1.0
element vertex 2135
property float32 x
property float32 y
property float32 z
end_header
-3.1961 -17.9257 2.8382
-3.0055 -17.8999 2.8382
-2.6283 -17.8532 2.8382
-1.5225 -17.7508 2.8382
-2.4415 -17.8323 2.8382
-1.3411 -17.7387 2.8381
-2.2559 -17.8129 2.8382
-1.1602 -17.7280 2.8381
-0.9799 -17.7188 2.8380
-2.0712 -17.7951 2.8382
-0.8000 -17.7111 2.8379
-1.8875 -17.7789 2.8382
-0.6204 -17.7042 2.8377
-1.7047 -17.7642 2.8382
-0.4412 -17.6983 2.8375
-0.2621 -17.6938 2.8372
0.9910 -17.6954 2.8341
-0.0832 -17.6907 2.8369
1.1709 -17.7001 2.8335
0.0956 -17.6889 2.8366
1.3511 -17.7058 2.8327
0.2744 -17.6881 2.8362
1.5317 -17.7122 2.8319
0.4533 -17.6882 2.8358
1.7129 -17.7199 2.8310
0.6323 -17.6896 2.8353
1.8948 -17.7289 2.8301
0.8116 -17.6920 2.8348
2.0773 -17.7392 2.8291
3.5689 -17.8520 2.8173
2.2605 -17.7498 2.8280
3.7605 -17.8710 2.8155
2.4445 -17.7612 2.8267
3.9556 -17.9006 2.8150
2.6293 -17.7740 2.8254
4.1525 -17.9320 2.8145
4.3514 -17.9652 2.8140
2.8152 -17.7881 2.8241
4.5523 -18.0002 2.8136
3.0020 -17.8030 2.8226
4.7553 -18.0371 2.8131
3.1898 -17.8181 2.8209
4.9607 -18.0759 2.8126
3.3787 -17.8344 2.8191
5.1684 -18.1167 2.8121
6.4735 -18.4053 2.8090
5.3788 -18.1594 2.8116
5.5918 -18.2043 2.8111
6.6855 -18.4154 2.8014
5.8076 -18.2512 2.8106
6.8955 -18.4155 2.7921
6.0264 -18.3003 2.8100
6.2483 -18.3516 2.8095
7.1079 -18.4183 2.7828
7.6159 -17.6007 2.6189
7.3228 -18.4233 2.7735
7.5404 -18.4304 2.7642
7.8308 -17.6116 2.6096
7.4027 -17.5891 2.6277
8.0478 -17.6227 2.5999
6.5441 -13.9589 2.0497
5.3181 -10.2570 1.4772
4.9082 -10.2029 1.4916
5.0349 -10.2041 1.4846
5.4498 -10.2593 1.4697
5.1878 -10.2548 1.4845
5.5829 -10.2616 1.4619
6.2420 -10.2262 1.4127
5.7174 -10.2640 1.4539
6.4864 -10.3929 1.4260
6.4866 -10.1671 1.3852
5.8535 -10.2663 1.4456
6.4869 -9.9484 1.3456
5.9910 -10.2687 1.4371
6.1664 -9.2548 1.2424
6.1639 -10.3276 1.4362
6.2161 -9.1319 1.2162
6.2214 -8.9478 1.1820
6.2246 -8.7658 1.1483
5.7005 -6.9544 0.8505
6.2276 -8.5888 1.1153
5.8178 -6.9565 0.8411
5.9370 -6.9586 0.8315
6.2306 -8.4165 1.0830
6.0582 -6.9607 0.8215
6.2336 -8.2487 1.0515
6.2326 -7.0203 0.8179
5.3773 -6.9713 0.8800
6.2661 -6.9198 0.7955
6.4974 -7.0350 0.7975
5.4360 -6.9053 0.8629
6.4978 -6.8982 0.7706
6.4982 -6.7643 0.7442
5.5851 -6.9524 0.8597
6.4986 -6.6332 0.7183
6.4989 -6.5047 0.6927
6.4962 -6.0117 0.5937
6.4993 -6.3788 0.6675
6.4965 -5.8950 0.5699
6.4958 -6.2517 0.6423
6.4966 -5.7804 0.5465
6.4960 -6.1306 0.6178
6.4968 -5.6678 0.5233
6.4976 -5.2364 0.4334
6.4978 -5.1330 0.4116
6.4970 -5.5572 0.5004
6.4979 -5.0311 0.3900
6.4972 -5.4485 0.4778
6.4981 -4.9309 0.3686
6.4974 -5.3416 0.4555
6.4983 -4.8321 0.3475
6.4985 -4.7348 0.3265
6.4988 -4.5444 0.2852
6.4986 -4.6389 0.3058
6.4989 -4.4512 0.2648
6.4999 -3.9172 0.1460
6.4991 -4.3593 0.2446
6.5000 -3.8320 0.1267
6.5002 -3.7478 0.1075
6.4993 -4.2686 0.2246
6.5003 -3.6646 0.0884
6.4994 -4.1791 0.2047
6.5005 -3.5823 0.0695
6.4996 -4.0907 0.1850
6.5006 -3.5010 0.0506
6.5007 -3.4204 0.0319
6.4997 -4.0034 0.1654
6.5009 -3.3408 0.0133
6.5028 -2.8047 -0.1148
6.5010 -3.2619 -0.0053
6.5030 -2.7308 -0.1329
6.5019 -3.1842 -0.0237
6.5021 -3.1069 -0.0421
6.5032 -2.6575 -0.1508
6.5022 -3.0303 -0.0604
6.5034 -2.5848 -0.1688
6.5024 -2.9544 -0.0786
6.5026 -2.8792 -0.0967
6.5035 -2.5126 -0.1866
6.5041 -2.2994 -0.2400
6.5037 -2.4410 -0.2045
6.5042 -2.2293 -0.2577
6.5039 -2.3699 -0.2223
6.5044 -2.1597 -0.2754
6.5046 -2.0905 -0.2931
6.5053 -1.8180 -0.3637
6.5048 -2.0218 -0.3108
6.5054 -1.7508 -0.3813
6.5049 -1.9535 -0.3284
6.5056 -1.6840 -0.3989
6.5051 -1.8855 -0.3460
6.5058 -1.6175 -0.4165
6.5064 -1.3545 -0.4871
6.5059 -1.5513 -0.4341
6.5066 -1.2894 -0.5048
6.5061 -1.4854 -0.4518
6.5068 -1.2246 -0.5225
6.5063 -1.4198 -0.4694
6.5069 -1.1600 -0.5402
6.5076 -0.9035 -0.6115
6.5071 -1.0956 -0.5580
6.5077 -0.8398 -0.6294
6.5073 -1.0314 -0.5758
6.5079 -0.7763 -0.6474
6.5074 -0.9674 -0.5936
6.5081 -0.7129 -0.6654
6.5082 -0.6496 -0.6835
6.5084 -0.5864 -0.7016
6.5085 -0.5233 -0.7198
6.5087 -0.4603 -0.7381
6.5089 -0.3974 -0.7564
6.5090 -0.3345 -0.7748
6.5092 -0.2716 -0.7933
6.5107 -0.2088 -0.8120
6.5107 -0.1460 -0.8306
6.5107 -0.0832 -0.8494
6.5108 -0.0203 -0.8682
-11.6442 -15.1736 2.8382
-11.3573 -15.1098 2.8382
-11.0773 -15.0483 2.8382
-10.8041 -14.9890 2.8382
-10.5374 -14.9317 2.8382
-10.2767 -14.8765 2.8382
-10.0219 -14.8232 2.8382
-7.1639 -10.8284 2.0806
-7.0929 -10.9585 2.1127
-8.7911 -13.8861 2.6858
-8.5697 -13.8422 2.6858
-8.3527 -13.7999 2.6858
-8.1400 -13.7589 2.6858
-7.9312 -13.7194 2.6858
-7.7263 -13.6812 2.6858
-7.5251 -13.6443 2.6858
-7.3274 -13.6087 2.6858
-7.1331 -13.5742 2.6858
-6.9421 -13.5409 2.6858
-6.7542 -13.5088 2.6858
-6.5692 -13.4777 2.6858
-6.3871 -13.4478 2.6858
-6.2077 -13.4188 2.6858
-6.0310 -13.3909 2.6858
-5.8567 -13.3639 2.6858
-5.7545 -13.5012 2.7187
-5.7424 -13.8609 2.7964
-5.6515 -14.0426 2.8382
-5.4769 -14.0180 2.8382
-5.3044 -13.9942 2.8382
-5.1341 -13.9713 2.8382
-4.9656 -13.9493 2.8382
-4.7991 -13.9281 2.8382
-4.6343 -13.9078 2.8382
-4.4713 -13.8882 2.8382
-4.3099 -13.8694 2.8382
-4.1501 -13.8514 2.8382
-3.9917 -13.8341 2.8382
-3.8348 -13.8176 2.8382
-3.6793 -13.8018 2.8382
-3.5250 -13.7867 2.8382
-3.3720 -13.7723 2.8382
-3.2201 -13.7585 2.8382
-3.0694 -13.7455 2.8382
-2.9197 -13.7331 2.8382
-2.7710 -13.7214 2.8382
-2.6232 -13.7103 2.8382
-2.4763 -13.6998 2.8382
-2.3302 -13.6900 2.8382
-2.1849 -13.6808 2.8382
-0.8806 -5.9011 1.2250
-0.8185 -5.8976 1.2250
-0.7567 -5.8944 1.2250
-0.6951 -5.8915 1.2250
-0.6337 -5.8888 1.2250
-0.5726 -5.8864 1.2250
-0.5116 -5.8842 1.2250
-0.4508 -5.8822 1.2250
-0.3901 -5.8805 1.2250
-0.3295 -5.8791 1.2250
-0.2691 -5.8779 1.2250
-0.2088 -5.8769 1.2250
-0.1485 -5.8762 1.2250
-0.0882 -5.8758 1.2250
-0.0280 -5.8755 1.2250
0.0322 -5.8755 1.2250
0.0924 -5.8758 1.2250
0.1526 -5.8763 1.2250
0.2129 -5.8770 1.2250
0.2733 -5.8780 1.2250
0.3337 -5.8792 1.2250
0.3943 -5.8806 1.2250
0.4550 -5.8823 1.2250
0.5158 -5.8843 1.2250
0.5768 -5.8865 1.2250
0.6380 -5.8889 1.2250
0.6993 -5.8916 1.2250
0.7610 -5.8946 1.2250
0.8228 -5.8978 1.2250
0.8849 -5.9013 1.2250
2.1950 -13.6814 2.8382
2.3403 -13.6906 2.8382
2.4864 -13.7005 2.8382
2.6334 -13.7110 2.8382
2.7812 -13.7222 2.8382
2.9300 -13.7339 2.8382
3.0798 -13.7464 2.8382
3.2306 -13.7595 2.8382
3.3826 -13.7733 2.8382
3.5357 -13.7877 2.8382
3.6900 -13.8029 2.8382
3.8456 -13.8187 2.8382
4.0026 -13.8353 2.8382
4.1611 -13.8526 2.8382
4.3210 -13.8707 2.8382
4.4825 -13.8896 2.8382
4.6457 -13.9092 2.8382
4.7220 -13.6732 2.7860
4.7346 -13.2709 2.6999
4.8695 -13.2226 2.6858
5.0309 -13.2443 2.6858
5.1942 -13.2669 2.6858
5.3595 -13.2903 2.6858
5.5270 -13.3145 2.6858
5.6967 -13.3397 2.6858
5.8687 -13.3658 2.6858
6.0431 -13.3928 2.6858
6.2201 -13.4208 2.6858
4.8543 -10.2020 2.0373
5.0256 -10.2924 2.0507
5.1357 -10.2539 2.0383
5.2671 -10.2561 2.0340
5.3999 -10.2585 2.0294
5.5341 -10.2608 2.0247
6.4868 -10.4615 2.0294
5.6697 -10.2632 2.0199
6.4870 -10.2309 1.9784
5.8068 -10.2655 2.0149
6.4873 -10.0077 1.9289
5.9455 -10.2680 2.0097
6.4875 -9.7913 1.8809
6.0546 -10.2179 1.9942
6.1829 -9.1313 1.7480
6.1989 -10.2254 1.9897
6.2206 -8.9916 1.7150
6.2270 -8.6263 1.6330
6.2239 -8.8064 1.6735
6.2300 -8.4511 1.5935
5.8015 -6.9562 1.2771
6.2330 -8.2805 1.5550
5.9217 -6.9583 1.2712
5.3769 -6.9965 1.3083
6.0440 -6.9604 1.2651
5.4170 -6.9050 1.2856
6.1498 -6.9417 1.2550
5.5502 -6.9312 1.2847
6.2541 -6.9196 1.2441
5.6833 -6.9541 1.2829
6.4971 -7.0465 1.2597
6.4979 -6.7726 1.1963
6.4975 -6.9081 1.2277
6.4982 -6.6400 1.1655
6.4963 -5.8944 0.9909
6.4986 -6.5101 1.1352
6.4965 -5.7788 0.9635
6.4990 -6.3829 1.1055
6.4967 -5.6652 0.9366
6.4956 -6.2546 1.0757
6.4968 -5.5537 0.9100
6.4958 -6.1323 1.0470
6.4970 -5.4441 0.8839
6.4960 -6.0122 1.0187
6.4972 -5.3363 0.8581
6.4976 -5.1260 0.8075
6.4974 -5.2303 0.8326
6.4978 -5.0234 0.7828
6.4988 -4.4396 0.6405
6.4979 -4.9224 0.7583
6.4990 -4.3471 0.6177
6.4981 -4.8230 0.7342
6.4991 -4.2558 0.5952
6.4983 -4.7250 0.7104
6.4993 -4.1658 0.5729
6.4985 -4.6285 0.6868
6.4994 -4.0769 0.5508
6.4986 -4.5334 0.6635
6.4996 -3.9892 0.5289
6.4999 -3.8169 0.4858
6.4997 -3.9025 0.5073
6.5000 -3.7323 0.4645
6.5009 -3.2442 0.3405
6.5002 -3.6487 0.4434
6.5017 -3.1661 0.3204
6.5003 -3.5660 0.4225
6.5019 -3.0885 0.3004
6.5005 -3.4843 0.4018
6.5021 -3.0116 0.2805
6.5006 -3.4034 0.3812
6.5022 -2.9355 0.2608
6.5007 -3.3234 0.3608
6.5024 -2.8600 0.2412
6.5028 -2.7111 0.2023
6.5026 -2.7852 0.2217
6.5030 -2.6375 0.1830
6.5041 -2.2081 0.0690
6.5032 -2.5646 0.1638
6.5042 -2.1384 0.0503
6.5034 -2.4922 0.1446
6.5044 -2.0690 0.0316
6.5035 -2.4204 0.1256
6.5046 -2.0002 0.0131
6.5037 -2.3492 0.1067
6.5048 -1.9317 -0.0055
6.5039 -2.2784 0.0878
6.5049 -1.8636 -0.0240
6.5053 -1.7286 -0.0608
6.5051 -1.7959 -0.0424
6.5054 -1.6616 -0.0792
6.5064 -1.2664 -0.1887
6.5056 -1.5950 -0.0975
6.5066 -1.2015 -0.2069
6.5058 -1.5287 -0.1158
6.5068 -1.1368 -0.2251
6.5059 -1.4627 -0.1341
6.5069 -1.0723 -0.2433
6.5061 -1.3970 -0.1523
6.5071 -1.0081 -0.2615
6.5063 -1.3316 -0.1705
6.5073 -0.9440 -0.2797
6.5076 -0.8163 -0.3161
6.5074 -0.8801 -0.2979
6.5077 -0.7527 -0.3343
6.5079 -0.6893 -0.3525
6.5081 -0.6259 -0.3708
6.5082 -0.5627 -0.3891
6.5084 -0.4996 -0.4074
6.5085 -0.4365 -0.4257
6.5087 -0.3736 -0.4441
6.5089 -0.3106 -0.4625
6.5090 -0.2477 -0.4809
6.5101 -0.1849 -0.4995
6.5102 -0.1221 -0.5181
6.5102 -0.0592 -0.5367
6.5103 0.0036 -0.5553
6.5103 0.0665 -0.5740
-8.4490 -10.8249 2.6858
-8.2628 -10.8097 2.6858
-8.0801 -10.7950 2.6858
-7.9006 -10.7807 2.6858
-7.7242 -10.7668 2.6858
-7.5508 -10.7533 2.6858
-7.3803 -10.7403 2.6858
-7.2126 -10.7276 2.6858
-7.0476 -10.7154 2.6858
-6.8851 -10.7035 2.6858
-6.7250 -10.6920 2.6858
-6.5674 -10.6808 2.6858
-6.4120 -10.6699 2.6858
-6.2589 -10.6594 2.6858
-6.1078 -10.6492 2.6858
-5.9588 -10.6393 2.6858
-5.8118 -10.6297 2.6858
-5.7469 -10.7709 2.7239
-5.7366 -11.0212 2.7895
-5.6871 -11.2044 2.8382
-5.5393 -11.1954 2.8382
-5.3932 -11.1868 2.8382
-5.2488 -11.1785 2.8382
-5.1059 -11.1703 2.8382
-4.9646 -11.1625 2.8382
-4.8248 -11.1549 2.8382
-4.6863 -11.1476 2.8382
-4.5493 -11.1406 2.8382
-4.4135 -11.1337 2.8382
-4.2791 -11.1271 2.8382
-4.1458 -11.1207 2.8382
-4.0137 -11.1146 2.8382
-3.8827 -11.1086 2.8382
-3.7528 -11.1029 2.8382
-3.6239 -11.0975 2.8382
-3.4960 -11.0922 2.8382
-3.3691 -11.0871 2.8382
-3.2430 -11.0822 2.8382
-3.1178 -11.0776 2.8382
-2.9935 -11.0731 2.8382
-2.8699 -11.0688 2.8382
-2.7471 -11.0647 2.8382
-2.6250 -11.0608 2.8382
-2.5035 -11.0571 2.8382
-2.3828 -11.0536 2.8382
-2.2626 -11.0502 2.8382
-2.1430 -11.0470 2.8382
-0.8739 -4.7688 1.2255
-0.8227 -4.7676 1.2255
-0.7717 -4.7664 1.2255
-0.7210 -4.7653 1.2255
-0.6703 -4.7644 1.2255
-0.6199 -4.7634 1.2255
-0.5696 -4.7626 1.2255
-0.5195 -4.7618 1.2255
-0.4695 -4.7611 1.2255
-0.4196 -4.7605 1.2255
-0.3697 -4.7600 1.2255
-0.3200 -4.7594 1.2255
-0.2704 -4.7590 1.2255
-0.2208 -4.7587 1.2255
-0.1713 -4.7584 1.2255
-0.1219 -4.7582 1.2255
-0.0724 -4.7581 1.2255
-0.0230 -4.7580 1.2255
0.0264 -4.7580 1.2255
0.0758 -4.7581 1.2255
0.1253 -4.7582 1.2255
0.1748 -4.7584 1.2255
0.2243 -4.7587 1.2255
0.2738 -4.7591 1.2255
0.3235 -4.7595 1.2255
0.3732 -4.7600 1.2255
0.4230 -4.7605 1.2255
0.4729 -4.7612 1.2255
0.5229 -4.7619 1.2255
0.5731 -4.7626 1.2255
0.6234 -4.7635 1.2255
0.6738 -4.7644 1.2255
0.7245 -4.7654 1.2255
0.7753 -4.7665 1.2255
0.8263 -4.7676 1.2255
0.8775 -4.7688 1.2255
2.1512 -11.0473 2.8382
2.2709 -11.0504 2.8382
2.3911 -11.0538 2.8382
2.5119 -11.0573 2.8382
2.6334 -11.0611 2.8382
2.7556 -11.0650 2.8382
2.8784 -11.0691 2.8382
3.0021 -11.0734 2.8382
3.1265 -11.0778 2.8382
3.2517 -11.0826 2.8382
3.3778 -11.0874 2.8382
3.5048 -11.0925 2.8382
3.6328 -11.0978 2.8382
3.7618 -11.1034 2.8382
3.8917 -11.1091 2.8382
4.0228 -11.1150 2.8382
4.1550 -11.1212 2.8382
4.2883 -11.1275 2.8382
4.4229 -11.1342 2.8382
4.5587 -11.1410 2.8382
4.6959 -11.1481 2.8382
4.7256 -10.9045 2.7744
4.7393 -10.6357 2.7041
4.8411 -10.5711 2.6858
4.8496 -10.3094 2.6176
4.9280 -10.2033 2.5886
5.2515 -10.5949 2.6858
5.3915 -10.6033 2.6858
5.5332 -10.6121 2.6858
5.6766 -10.6211 2.6858
5.8219 -10.6304 2.6858
5.9691 -10.6400 2.6858
6.1182 -10.6499 2.6858
6.2694 -10.6601 2.6858
6.1542 -10.2246 2.5736
6.4871 -10.5337 2.6486
5.6678 -8.9970 2.2599
5.7076 -8.8593 2.2229
5.7842 -8.7811 2.2008
5.8835 -8.7375 2.1874
6.0176 -8.7441 2.1864
5.6702 -8.0631 2.0137
5.7905 -8.0595 2.0103
5.9167 -8.0617 2.0083
6.0447 -8.0639 2.0061
5.3638 -7.0069 1.7408
5.3969 -6.9047 1.7130
5.5310 -6.9309 1.7170
5.6649 -6.9538 1.7201
5.7841 -6.9559 1.7180
5.9053 -6.9580 1.7158
6.0286 -6.9601 1.7135
6.1356 -6.9414 1.7060
6.2409 -6.9193 1.6976
6.4967 -7.0592 1.7288
6.4971 -6.9191 1.6914
6.4975 -6.7821 1.6547
6.4979 -6.6480 1.6188
6.4983 -6.5166 1.5836
6.4987 -6.3880 1.5491
6.4954 -6.2586 1.5144
6.4956 -6.1350 1.4812
6.4958 -6.0138 1.4485
6.4961 -5.8948 1.4165
6.4963 -5.7781 1.3850
6.4965 -5.6635 1.3541
6.4967 -5.5510 1.3237
6.4969 -5.4404 1.2938
6.4970 -5.3317 1.2644
6.4972 -5.2249 1.2354
6.4974 -5.1198 1.2069
6.4976 -5.0164 1.1788
6.4978 -4.9147 1.1512
6.4979 -4.8145 1.1239
6.4981 -4.7159 1.0970
6.4983 -4.6187 1.0705
6.4985 -4.5230 1.0443
6.4986 -4.4286 1.0185
6.4988 -4.3355 0.9930
6.4990 -4.2437 0.9679
6.4991 -4.1532 0.9430
6.4993 -4.0638 0.9185
6.4994 -3.9756 0.8942
6.4996 -3.8884 0.8702
6.4997 -3.8024 0.8465
6.4999 -3.7174 0.8231
6.5000 -3.6333 0.7998
6.5002 -3.5503 0.7769
6.5003 -3.4682 0.7541
6.5005 -3.3869 0.7316
6.5006 -3.3066 0.7093
6.5013 -3.2273 0.6872
6.5015 -3.1486 0.6653
6.5017 -3.0707 0.6436
6.5019 -2.9936 0.6221
6.5020 -2.9171 0.6007
6.5022 -2.8414 0.5796
6.5024 -2.7663 0.5585
6.5026 -2.6919 0.5377
6.5028 -2.6182 0.5170
6.5030 -2.5450 0.4964
6.5032 -2.4724 0.4760
6.5034 -2.4004 0.4557
6.5035 -2.3290 0.4355
6.5037 -2.2580 0.4155
6.5039 -2.1876 0.3955
6.5041 -2.1176 0.3757
6.5042 -2.0481 0.3560
6.5044 -1.9791 0.3364
6.5046 -1.9105 0.3169
6.5048 -1.8422 0.2975
6.5049 -1.7744 0.2781
6.5051 -1.7070 0.2589
6.5053 -1.6399 0.2397
6.5054 -1.5732 0.2206
6.5056 -1.5068 0.2016
6.5058 -1.4406 0.1826
6.5059 -1.3749 0.1637
6.5061 -1.3093 0.1449
6.5063 -1.2441 0.1261
6.5064 -1.1790 0.1073
6.5066 -1.1143 0.0886
6.5068 -1.0497 0.0700
6.5069 -0.9854 0.0513
6.5071 -0.9212 0.0327
6.5073 -0.8573 0.0142
6.5074 -0.7935 -0.0044
6.5076 -0.7298 -0.0229
6.5077 -0.6663 -0.0414
6.5079 -0.6029 -0.0599
6.5081 -0.5396 -0.0784
6.5082 -0.4765 -0.0969
6.5084 -0.4134 -0.1153
6.5085 -0.3504 -0.1338
6.5087 -0.2874 -0.1523
6.5096 -0.2245 -0.1708
6.5096 -0.1616 -0.1893
6.5097 -0.0988 -0.2079
6.5097 -0.0360 -0.2264
6.5097 0.0269 -0.2450
6.5098 0.0897 -0.2636
6.5098 0.1526 -0.2822
-6.8553 -8.6335 2.6858
-6.7154 -8.6368 2.6858
-6.5775 -8.6401 2.6858
-6.4415 -8.6433 2.6858
-6.3073 -8.6464 2.6858
-6.1749 -8.6494 2.6858
-6.0442 -8.6523 2.6858
-5.9150 -8.6551 2.6858
-5.7875 -8.6578 2.6858
-5.7420 -8.7836 2.7240
-5.7330 -8.9697 2.7809
-5.7211 -9.1573 2.8382
-5.5925 -9.1600 2.8382
-5.4653 -9.1625 2.8382
-5.3395 -9.1649 2.8382
-5.2150 -9.1673 2.8382
-5.0918 -9.1696 2.8382
-4.9697 -9.1719 2.8382
-4.8489 -9.1741 2.8382
-4.7293 -9.1762 2.8382
-4.6107 -9.1783 2.8382
-4.4932 -9.1803 2.8382
-4.3768 -9.1822 2.8382
-4.2613 -9.1841 2.8382
-4.1468 -9.1859 2.8382
-4.0333 -9.1877 2.8382
-3.9206 -9.1894 2.8382
-3.8089 -9.1910 2.8382
-3.6979 -9.1926 2.8382
-3.5878 -9.1941 2.8382
-3.4784 -9.1957 2.8382
-3.3698 -9.1971 2.8382
-3.2619 -9.1985 2.8382
-3.1547 -9.1998 2.8382
-3.0481 -9.2011 2.8382
-2.9422 -9.2024 2.8382
-2.8369 -9.2036 2.8382
-2.7322 -9.2047 2.8382
-2.6281 -9.2058 2.8382
-2.5245 -9.2069 2.8382
-2.4214 -9.2079 2.8382
-2.3187 -9.2088 2.8382
-2.2166 -9.2098 2.8382
-0.9135 -3.9783 1.2259
-0.8697 -3.9787 1.2259
-0.8262 -3.9790 1.2259
-0.7828 -3.9793 1.2259
-0.7395 -3.9796 1.2259
-0.6964 -3.9799 1.2259
-0.6534 -3.9802 1.2259
-0.6106 -3.9804 1.2259
-0.5679 -3.9807 1.2259
-0.5253 -3.9809 1.2259
-0.4828 -3.9811 1.2259
-0.4403 -3.9813 1.2259
-0.3980 -3.9815 1.2259
-0.3558 -3.9816 1.2259
-0.3136 -3.9817 1.2259
-0.2715 -3.9819 1.2259
-0.2294 -3.9819 1.2259
-0.1874 -3.9820 1.2259
-0.1454 -3.9821 1.2259
-0.1034 -3.9821 1.2259
-0.0614 -3.9822 1.2259
-0.0195 -3.9822 1.2259
0.0224 -3.9822 1.2259
0.0644 -3.9822 1.2259
0.1063 -3.9821 1.2259
0.1483 -3.9821 1.2259
0.1903 -3.9820 1.2259
0.2323 -3.9819 1.2259
0.2744 -3.9818 1.2259
0.3165 -3.9817 1.2259
0.3587 -3.9816 1.2259
0.4009 -3.9814 1.2259
0.4433 -3.9813 1.2259
0.4857 -3.9811 1.2259
0.5282 -3.9809 1.2259
0.5708 -3.9806 1.2259
0.6136 -3.9804 1.2259
0.6564 -3.9801 1.2259
0.6994 -3.9799 1.2259
0.7425 -3.9796 1.2259
0.7858 -3.9793 1.2259
0.8292 -3.9790 1.2259
0.8728 -3.9786 1.2259
0.9165 -3.9782 1.2259
2.2237 -9.2097 2.8382
2.3259 -9.2088 2.8382
2.4285 -9.2078 2.8382
2.5316 -9.2068 2.8382
2.6353 -9.2058 2.8382
2.7394 -9.2047 2.8382
2.8442 -9.2035 2.8382
2.9495 -9.2023 2.8382
3.0555 -9.2010 2.8382
3.1621 -9.1997 2.8382
3.2693 -9.1984 2.8382
3.3773 -9.1970 2.8382
3.4860 -9.1956 2.8382
3.5954 -9.1941 2.8382
3.7056 -9.1925 2.8382
3.8166 -9.1909 2.8382
3.9284 -9.1893 2.8382
4.0411 -9.1875 2.8382
4.1547 -9.1858 2.8382
4.2693 -9.1839 2.8382
4.3848 -9.1821 2.8382
4.5013 -9.1801 2.8382
4.6189 -9.1781 2.8382
4.7201 -9.1423 2.8278
4.7322 -8.9377 2.7651
4.7439 -8.7401 2.7047
4.8264 -8.6771 2.6858
4.9431 -8.6749 2.6858
5.0610 -8.6727 2.6858
5.1802 -8.6704 2.6858
5.3006 -8.6679 2.6858
5.4224 -8.6655 2.6858
5.5456 -8.6630 2.6858
5.6702 -8.6603 2.6858
5.7963 -8.6577 2.6858
5.9240 -8.6549 2.6858
6.0532 -8.6521 2.6858
6.1840 -8.6492 2.6858
6.3166 -8.6462 2.6858
6.4509 -8.6431 2.6858
5.3492 -7.0163 2.1811
5.3761 -6.9043 2.1471
5.5149 -6.9355 2.1576
5.6289 -6.9326 2.1576
5.7488 -6.9347 2.1591
5.8706 -6.9368 2.1607
5.9945 -6.9390 2.1623
6.1206 -6.9412 2.1640
6.2271 -6.9191 2.1581
6.4963 -7.0727 2.2070
6.4967 -6.9308 2.1638
6.4971 -6.7922 2.1216
6.4975 -6.6565 2.0803
6.4979 -6.5237 2.0399
6.4983 -6.3937 2.0003
6.4952 -6.2630 1.9605
6.4954 -6.1381 1.9225
6.4956 -6.0157 1.8853
6.4958 -5.8956 1.8488
6.4961 -5.7778 1.8130
6.4963 -5.6621 1.7779
6.4965 -5.5486 1.7434
6.4967 -5.4371 1.7096
6.4969 -5.3275 1.6763
6.4970 -5.2198 1.6437
6.4972 -5.1139 1.6115
6.4974 -5.0097 1.5800
6.4976 -4.9072 1.5489
6.4978 -4.8063 1.5183
6.4980 -4.7070 1.4882
6.4981 -4.6092 1.4586
6.4983 -4.5128 1.4295
6.4985 -4.4178 1.4007
6.4986 -4.3241 1.3724
6.4988 -4.2318 1.3445
6.4990 -4.1407 1.3169
6.4991 -4.0508 1.2898
6.4993 -3.9621 1.2630
6.4994 -3.8745 1.2366
6.4996 -3.7880 1.2105
6.4997 -3.7026 1.1847
6.4999 -3.6182 1.1592
6.5000 -3.5347 1.1341
6.5002 -3.4522 1.1092
6.5003 -3.3706 1.0846
6.5005 -3.2899 1.0603
6.5011 -3.2103 1.0363
6.5013 -3.1313 1.0126
6.5015 -3.0531 0.9891
6.5017 -2.9756 0.9658
6.5019 -2.8989 0.9427
6.5020 -2.8229 0.9199
6.5022 -2.7476 0.8973
6.5024 -2.6730 0.8749
6.5026 -2.5990 0.8527
6.5028 -2.5256 0.8306
6.5030 -2.4528 0.8088
6.5032 -2.3806 0.7872
6.5034 -2.3090 0.7657
6.5035 -2.2378 0.7444
6.5037 -2.1672 0.7233
6.5039 -2.0971 0.7023
6.5041 -2.0274 0.6814
6.5042 -1.9582 0.6607
6.5044 -1.8894 0.6402
6.5046 -1.8211 0.6198
6.5048 -1.7531 0.5995
6.5049 -1.6855 0.5793
6.5051 -1.6183 0.5592
6.5053 -1.5515 0.5393
6.5054 -1.4850 0.5195
6.5056 -1.4188 0.4997
6.5058 -1.3529 0.4801
6.5059 -1.2872 0.4606
6.5061 -1.2219 0.4411
6.5063 -1.1568 0.4217
6.5064 -1.0919 0.4025
6.5066 -1.0273 0.3832
6.5068 -0.9629 0.3641
6.5069 -0.8987 0.3450
6.5071 -0.8347 0.3260
6.5073 -0.7708 0.3071
6.5074 -0.7071 0.2882
6.5076 -0.6436 0.2693
6.5077 -0.5801 0.2505
6.5079 -0.5168 0.2318
6.5081 -0.4536 0.2131
6.5082 -0.3905 0.1944
6.5084 -0.3275 0.1757
6.5085 -0.2645 0.1571
6.5091 -0.2016 0.1385
6.5091 -0.1387 0.1199
6.5091 -0.0758 0.1014
6.5092 -0.0130 0.0828
6.5092 0.0498 0.0643
6.5092 0.1127 0.0457
6.5093 0.1755 0.0272
6.5093 0.2384 0.0086
-5.7664 -7.1363 2.6858
-5.7380 -7.2528 2.7252
-5.7300 -7.3983 2.7753
-5.7218 -7.5474 2.8268
-5.6312 -7.5895 2.8382
-5.5186 -7.6008 2.8382
-5.4071 -7.6118 2.8382
-5.2967 -7.6225 2.8382
-5.1875 -7.6330 2.8382
-5.0792 -7.6432 2.8382
-4.9719 -7.6531 2.8382
-4.8657 -7.6628 2.8382
-4.7603 -7.6722 2.8382
-4.6559 -7.6813 2.8382
-4.5523 -7.6903 2.8382
-4.4496 -7.6990 2.8382
-4.3478 -7.7074 2.8382
-4.2467 -7.7156 2.8382
-4.1464 -7.7236 2.8382
-4.0469 -7.7314 2.8382
-3.9481 -7.7389 2.8382
-3.8501 -7.7462 2.8382
-3.7527 -7.7534 2.8382
-3.6559 -7.7603 2.8382
-3.5598 -7.7670 2.8382
-3.4644 -7.7735 2.8382
-3.3695 -7.7798 2.8382
-3.2752 -7.7859 2.8382
-3.1815 -7.7919 2.8382
-3.0883 -7.7976 2.8382
-2.9956 -7.8031 2.8382
-2.9035 -7.8085 2.8382
-2.8118 -7.8137 2.8382
-2.7206 -7.8187 2.8382
-2.6298 -7.8235 2.8382
-2.5395 -7.8281 2.8382
-2.4496 -7.8326 2.8382
-2.3601 -7.8369 2.8382
-2.2709 -7.8411 2.8382
-2.1822 -7.8450 2.8382
-2.0938 -7.8488 2.8382
-0.8959 -3.5074 1.2677
-0.8563 -3.5074 1.2672
-0.8169 -3.5074 1.2666
-0.7777 -3.5074 1.2661
-0.7386 -3.5074 1.2656
-0.6998 -3.5074 1.2652
-0.6610 -3.5074 1.2648
-0.6224 -3.5074 1.2644
-0.5840 -3.5074 1.2640
-0.5456 -3.5074 1.2636
-0.5074 -3.5074 1.2633
-0.4693 -3.5074 1.2630
-0.4313 -3.5074 1.2627
-0.3934 -3.5074 1.2624
-0.3556 -3.5074 1.2622
-0.3178 -3.5074 1.2620
-0.2801 -3.5074 1.2618
-0.2425 -3.5074 1.2617
-0.2049 -3.5074 1.2615
-0.1673 -3.5074 1.2614
-0.1298 -3.5074 1.2613
-0.0923 -3.5074 1.2612
-0.0549 -3.5074 1.2612
-0.0174 -3.5074 1.2612
0.0200 -3.5074 1.2612
0.0575 -3.5074 1.2612
0.0949 -3.5074 1.2612
0.1324 -3.5074 1.2613
0.1699 -3.5074 1.2614
0.2075 -3.5074 1.2615
0.2451 -3.5074 1.2617
0.2827 -3.5074 1.2618
0.3204 -3.5074 1.2620
0.3582 -3.5074 1.2622
0.3960 -3.5074 1.2625
0.4339 -3.5074 1.2627
0.4720 -3.5074 1.2630
0.5101 -3.5074 1.2633
0.5483 -3.5074 1.2636
0.5866 -3.5074 1.2640
0.6251 -3.5074 1.2644
0.6637 -3.5074 1.2648
0.7024 -3.5074 1.2652
0.7413 -3.5074 1.2657
0.7804 -3.5074 1.2662
0.8196 -3.5074 1.2667
0.8590 -3.5074 1.2672
0.8986 -3.5074 1.2678
2.0999 -7.8485 2.8382
2.1883 -7.8447 2.8382
2.2771 -7.8408 2.8382
2.3663 -7.8366 2.8382
2.4558 -7.8323 2.8382
2.5457 -7.8278 2.8382
2.6361 -7.8232 2.8382
2.7269 -7.8183 2.8382
2.8181 -7.8133 2.8382
2.9099 -7.8081 2.8382
3.0020 -7.8027 2.8382
3.0947 -7.7972 2.8382
3.1880 -7.7914 2.8382
3.2817 -7.7855 2.8382
3.3761 -7.7794 2.8382
3.4710 -7.7731 2.8382
3.5665 -7.7665 2.8382
3.6626 -7.7599 2.8382
3.7594 -7.7529 2.8382
3.8568 -7.7457 2.8382
3.9550 -7.7384 2.8382
4.0538 -7.7308 2.8382
4.1534 -7.7231 2.8382
4.2537 -7.7151 2.8382
4.3548 -7.7068 2.8382
4.4567 -7.6984 2.8382
4.5595 -7.6897 2.8382
4.6631 -7.6808 2.8382
4.7265 -7.6054 2.8138
4.7370 -7.4483 2.7590
4.7472 -7.2957 2.7059
4.8135 -7.2321 2.6858
4.9161 -7.2225 2.6858
5.0195 -7.2126 2.6858
5.1241 -7.2024 2.6858
5.2296 -7.1919 2.6858
5.3362 -7.1812 2.6858
5.4439 -7.1702 2.6858
5.3550 -6.9039 2.5902
5.4716 -6.9060 2.5951
5.7741 -7.1355 2.6858
5.8867 -7.1233 2.6858
6.0005 -7.1108 2.6858
6.1156 -7.0979 2.6858
6.2322 -7.0848 2.6858
6.2132 -6.9189 2.6279
6.4695 -7.0574 2.6858
6.4964 -6.9427 2.6475
6.4968 -6.8023 2.5993
6.4972 -6.6651 2.5523
6.4976 -6.5308 2.5064
6.4980 -6.3994 2.4614
6.4950 -6.2674 2.4163
6.4952 -6.1412 2.3732
6.4954 -6.0176 2.3311
6.4956 -5.8963 2.2899
6.4958 -5.7774 2.2495
6.4961 -5.6606 2.2100
6.4963 -5.5461 2.1712
6.4965 -5.4336 2.1332
6.4967 -5.3231 2.0959
6.4969 -5.2145 2.0593
6.4970 -5.1077 2.0234
6.4972 -5.0028 1.9881
6.4974 -4.8995 1.9534
6.4976 -4.7979 1.9194
6.4978 -4.6978 1.8859
6.4980 -4.5993 1.8530
6.4981 -4.5023 1.8206
6.4983 -4.4067 1.7888
6.4985 -4.3125 1.7575
6.4986 -4.2196 1.7266
6.4988 -4.1280 1.6963
6.4990 -4.0376 1.6664
6.4991 -3.9484 1.6369
6.4993 -3.8603 1.6079
6.4994 -3.7734 1.5793
6.4996 -3.6875 1.5510
6.4997 -3.6027 1.5232
6.4999 -3.5188 1.4957
6.5000 -3.4359 1.4686
6.5002 -3.3540 1.4419
6.5003 -3.2730 1.4155
6.5009 -3.1930 1.3895
6.5011 -3.1137 1.3637
6.5013 -3.0351 1.3383
6.5015 -2.9574 1.3131
6.5017 -2.8804 1.2883
6.5019 -2.8042 1.2637
6.5020 -2.7286 1.2394
6.5022 -2.6537 1.2153
6.5024 -2.5795 1.1915
6.5026 -2.5059 1.1680
6.5028 -2.4329 1.1447
6.5030 -2.3605 1.1216
6.5032 -2.2887 1.0987
6.5033 -2.2173 1.0761
6.5035 -2.1465 1.0536
6.5037 -2.0762 1.0314
6.5039 -2.0064 1.0093
6.5041 -1.9371 0.9875
6.5042 -1.8682 0.9658
6.5044 -1.7997 0.9443
6.5046 -1.7316 0.9229
6.5048 -1.6639 0.9018
6.5049 -1.5966 0.8808
6.5051 -1.5296 0.8599
6.5053 -1.4630 0.8392
6.5054 -1.3967 0.8186
6.5056 -1.3307 0.7982
6.5058 -1.2650 0.7779
6.5059 -1.1995 0.7577
6.5061 -1.1343 0.7377
6.5063 -1.0694 0.7177
6.5064 -1.0047 0.6979
6.5066 -0.9403 0.6782
6.5068 -0.8760 0.6586
6.5069 -0.8119 0.6390
6.5071 -0.7480 0.6196
6.5072 -0.6843 0.6003
6.5074 -0.6207 0.5810
6.5076 -0.5572 0.5619
6.5077 -0.4939 0.5428
6.5079 -0.4306 0.5238
6.5081 -0.3675 0.5048
6.5082 -0.3045 0.4859
6.5084 -0.2415 0.4671
6.5085 -0.1785 0.4483
6.5086 -0.1156 0.4296
6.5086 -0.0528 0.4110
6.5086 0.0101 0.3923
6.5087 0.0729 0.3737
6.5087 0.1357 0.3552
6.5087 0.1985 0.3367
6.5088 0.2614 0.3182
6.5088 0.3243 0.2998
-5.2544 -6.3873 2.8382
-5.1574 -6.4042 2.8382
-5.0612 -6.4206 2.8382
-4.9659 -6.4366 2.8382
-4.8713 -6.4523 2.8382
-4.7775 -6.4676 2.8382
-4.6844 -6.4825 2.8382
-4.5921 -6.4971 2.8382
-4.5005 -6.5113 2.8382
-4.4096 -6.5251 2.8382
-4.3193 -6.5386 2.8382
-4.2297 -6.5518 2.8382
-4.1408 -6.5646 2.8382
-4.0524 -6.5772 2.8382
-3.9647 -6.5894 2.8382
-3.8775 -6.6013 2.8382
-3.7909 -6.6128 2.8382
-3.7048 -6.6241 2.8382
-3.6192 -6.6351 2.8382
-3.5342 -6.6458 2.8382
-3.4497 -6.6562 2.8382
-3.3657 -6.6663 2.8382
-3.2821 -6.6761 2.8382
-3.1990 -6.6857 2.8382
-3.1163 -6.6949 2.8382
-3.0341 -6.7039 2.8382
-2.9522 -6.7127 2.8382
-2.8708 -6.7212 2.8382
-2.7898 -6.7293 2.8382
-2.7091 -6.7373 2.8382
-2.6288 -6.7450 2.8382
-2.5489 -6.7524 2.8382
-2.4692 -6.7597 2.8382
-2.3899 -6.7666 2.8382
-2.3110 -6.7733 2.8382
-2.2323 -6.7798 2.8382
-2.1539 -6.7861 2.8382
-2.0758 -6.7920 2.8382
-1.9980 -6.7978 2.8382
-1.9204 -6.8034 2.8382
-1.8430 -6.8087 2.8382
-0.9090 -3.5075 1.4610
-0.8689 -3.5075 1.4600
-0.8289 -3.5075 1.4590
-0.7891 -3.5075 1.4580
-0.7494 -3.5075 1.4571
-0.7099 -3.5075 1.4563
-0.6706 -3.5075 1.4555
-0.6315 -3.5075 1.4548
-0.5924 -3.5075 1.4540
-0.5535 -3.5075 1.4534
-0.5148 -3.5075 1.4528
-0.4761 -3.5075 1.4522
-0.4375 -3.5075 1.4517
-0.3990 -3.5075 1.4512
-0.3607 -3.5075 1.4508
-0.3224 -3.5075 1.4504
-0.2841 -3.5075 1.4500
-0.2459 -3.5075 1.4497
-0.2078 -3.5075 1.4495
-0.1697 -3.5075 1.4493
-0.1317 -3.5075 1.4491
-0.0937 -3.5075 1.4490
-0.0557 -3.5075 1.4489
-0.0177 -3.5075 1.4488
0.0203 -3.5075 1.4488
0.0583 -3.5075 1.4489
0.0963 -3.5075 1.4490
0.1343 -3.5075 1.4491
0.1724 -3.5075 1.4493
0.2104 -3.5075 1.4495
0.2486 -3.5075 1.4497
0.2868 -3.5075 1.4501
0.3250 -3.5075 1.4504
0.3633 -3.5075 1.4508
0.4017 -3.5075 1.4512
0.4402 -3.5075 1.4517
0.4788 -3.5075 1.4522
0.5174 -3.5075 1.4528
0.5562 -3.5075 1.4534
0.5951 -3.5075 1.4541
0.6342 -3.5075 1.4548
0.6734 -3.5075 1.4556
0.7127 -3.5075 1.4564
0.7522 -3.5075 1.4572
0.7918 -3.5075 1.4581
0.8316 -3.5075 1.4591
0.8716 -3.5075 1.4601
0.9118 -3.5075 1.4611
1.8484 -6.8083 2.8382
1.9258 -6.8030 2.8382
2.0034 -6.7974 2.8382
2.0812 -6.7916 2.8382
2.1593 -6.7856 2.8382
2.2377 -6.7794 2.8382
2.3164 -6.7729 2.8382
2.3954 -6.7662 2.8382
2.4747 -6.7592 2.8382
2.5544 -6.7520 2.8382
2.6344 -6.7445 2.8382
2.7147 -6.7368 2.8382
2.7954 -6.7288 2.8382
2.8764 -6.7206 2.8382
2.9579 -6.7121 2.8382
3.0398 -6.7033 2.8382
3.1220 -6.6943 2.8382
3.2047 -6.6850 2.8382
3.2879 -6.6755 2.8382
3.3715 -6.6656 2.8382
3.4555 -6.6555 2.8382
3.5401 -6.6451 2.8382
3.6252 -6.6344 2.8382
3.7107 -6.6233 2.8382
3.7968 -6.6121 2.8382
3.8835 -6.6005 2.8382
3.9707 -6.5885 2.8382
4.0585 -6.5763 2.8382
4.1469 -6.5638 2.8382
4.2359 -6.5509 2.8382
4.3256 -6.5377 2.8382
4.4159 -6.5242 2.8382
4.5068 -6.5103 2.8382
4.5985 -6.4961 2.8382
4.6909 -6.4815 2.8382
4.7308 -6.3946 2.8067
4.7401 -6.2691 2.7581
4.7491 -6.1465 2.7108
4.7957 -6.0748 2.6858
4.8868 -6.0592 2.6858
4.9787 -6.0433 2.6858
5.0714 -6.0269 2.6858
5.1649 -6.0102 2.6858
5.2593 -5.9931 2.6858
5.3546 -5.9755 2.6858
5.4508 -5.9576 2.6858
5.5479 -5.9392 2.6858
5.6461 -5.9204 2.6858
5.7452 -5.9011 2.6858
5.8453 -5.8814 2.6858
5.9465 -5.8612 2.6858
6.0488 -5.8405 2.6858
6.1522 -5.8194 2.6858
6.2567 -5.7977 2.6858
6.3625 -5.7755 2.6858
6.4694 -5.7528 2.6858
6.4959 -5.6584 2.6525
6.4961 -5.5428 2.6091
6.4963 -5.4294 2.5666
6.4965 -5.3179 2.5250
6.4967 -5.2085 2.4843
6.4969 -5.1008 2.4443
6.4970 -4.9951 2.4051
6.4972 -4.8910 2.3667
6.4974 -4.7887 2.3289
6.4976 -4.6879 2.2919
6.4978 -4.5888 2.2555
6.4980 -4.4911 2.2198
6.4981 -4.3949 2.1846
6.4983 -4.3001 2.1501
6.4985 -4.2066 2.1162
6.4986 -4.1145 2.0828
6.4988 -4.0236 2.0500
6.4990 -3.9339 2.0177
6.4991 -3.8454 1.9859
6.4993 -3.7580 1.9546
6.4994 -3.6717 1.9238
6.4996 -3.5864 1.8935
6.4997 -3.5022 1.8636
6.4999 -3.4190 1.8341
6.5000 -3.3366 1.8050
6.5002 -3.2553 1.7764
6.5007 -3.1749 1.7482
6.5009 -3.0953 1.7204
6.5011 -3.0165 1.6929
6.5013 -2.9385 1.6657
6.5015 -2.8612 1.6390
6.5017 -2.7847 1.6125
6.5018 -2.7089 1.5864
6.5020 -2.6338 1.5606
6.5022 -2.5594 1.5351
6.5024 -2.4855 1.5099
6.5026 -2.4124 1.4850
6.5028 -2.3397 1.4604
6.5030 -2.2677 1.4360
6.5032 -2.1962 1.4119
6.5033 -2.1253 1.3881
6.5035 -2.0548 1.3645
6.5037 -1.9848 1.3412
6.5039 -1.9153 1.3180
6.5041 -1.8463 1.2952
6.5042 -1.7776 1.2725
6.5044 -1.7094 1.2500
6.5046 -1.6416 1.2278
6.5048 -1.5742 1.2057
6.5049 -1.5071 1.1839
6.5051 -1.4404 1.1622
6.5053 -1.3740 1.1407
6.5054 -1.3079 1.1194
6.5056 -1.2421 1.0983
6.5058 -1.1766 1.0773
6.5059 -1.1113 1.0565
6.5061 -1.0463 1.0358
6.5063 -0.9816 1.0153
6.5064 -0.9171 0.9949
6.5066 -0.8528 0.9747
6.5068 -0.7886 0.9546
6.5069 -0.7247 0.9346
6.5071 -0.6609 0.9148
6.5072 -0.5973 0.8951
6.5074 -0.5338 0.8755
6.5076 -0.4704 0.8560
6.5077 -0.4071 0.8366
6.5079 -0.3440 0.8173
6.5079 -0.2809 0.7981
6.5080 -0.2179 0.7790
6.5080 -0.1550 0.7600
6.5080 -0.0921 0.7411
6.5081 -0.0292 0.7223
6.5081 0.0336 0.7035
6.5081 0.0964 0.6848
6.5082 0.1592 0.6662
6.5082 0.2220 0.6477
6.5082 0.2849 0.6292
6.5083 0.3478 0.6108
6.5083 0.4107 0.5924
-4.6129 -5.5053 2.8382
-4.5306 -5.5241 2.8382
-4.4489 -5.5425 2.8382
-4.3677 -5.5605 2.8382
-4.2871 -5.5781 2.8382
-4.2070 -5.5952 2.8382
-4.1274 -5.6120 2.8382
-4.0483 -5.6284 2.8382
-3.9697 -5.6444 2.8382
-3.8915 -5.6601 2.8382
-3.8138 -5.6753 2.8382
-3.7366 -5.6902 2.8382
-3.6598 -5.7048 2.8382
-3.5834 -5.7190 2.8382
-3.5074 -5.7328 2.8382
-3.4318 -5.7463 2.8382
-3.3567 -5.7595 2.8382
-3.2819 -5.7723 2.8382
-3.2074 -5.7848 2.8382
-3.1334 -5.7970 2.8382
-3.0596 -5.8088 2.8382
-2.9863 -5.8204 2.8382
-2.9132 -5.8316 2.8382
-2.8405 -5.8425 2.8382
-2.7680 -5.8531 2.8382
-2.6959 -5.8634 2.8382
-2.6241 -5.8734 2.8382
-2.5525 -5.8831 2.8382
-2.4813 -5.8925 2.8382
-2.4103 -5.9017 2.8382
-2.3395 -5.9105 2.8382
-2.2690 -5.9191 2.8382
-2.1987 -5.9274 2.8382
-2.1287 -5.9354 2.8382
-2.0589 -5.9431 2.8382
-1.9893 -5.9506 2.8382
-1.9199 -5.9577 2.8382
-1.8507 -5.9646 2.8382
-1.7817 -5.9713 2.8382
-1.7129 -5.9777 2.8382
-1.6442 -5.9838 2.8382
-0.9228 -3.5076 1.6621
-0.8819 -3.5076 1.6605
-0.8413 -3.5076 1.6590
-0.8009 -3.5076 1.6576
-0.7606 -3.5076 1.6563
-0.7205 -3.5076 1.6550
-0.6806 -3.5076 1.6538
-0.6408 -3.5075 1.6527
-0.6012 -3.5076 1.6517
-0.5617 -3.5076 1.6507
-0.5224 -3.5076 1.6497
-0.4831 -3.5076 1.6489
-0.4440 -3.5076 1.6481
-0.4049 -3.5075 1.6474
-0.3660 -3.5076 1.6468
-0.3271 -3.5076 1.6462
-0.2883 -3.5075 1.6457
-0.2495 -3.5076 1.6452
-0.2109 -3.5076 1.6448
-0.1722 -3.5076 1.6445
-0.1336 -3.5076 1.6442
-0.0950 -3.5075 1.6440
-0.0565 -3.5076 1.6439
-0.0179 -3.5076 1.6439
0.0206 -3.5075 1.6439
0.0592 -3.5076 1.6439
0.0977 -3.5076 1.6441
0.1363 -3.5076 1.6443
0.1749 -3.5076 1.6445
0.2135 -3.5076 1.6448
0.2522 -3.5076 1.6452
0.2910 -3.5076 1.6457
0.3298 -3.5076 1.6462
0.3687 -3.5076 1.6468
0.4076 -3.5076 1.6475
0.4467 -3.5076 1.6482
0.4858 -3.5076 1.6490
0.5251 -3.5076 1.6498
0.5645 -3.5076 1.6507
0.6040 -3.5076 1.6517
0.6436 -3.5076 1.6528
0.6834 -3.5076 1.6539
0.7233 -3.5076 1.6551
0.7634 -3.5076 1.6564
0.8037 -3.5076 1.6577
0.8441 -3.5076 1.6591
0.8848 -3.5076 1.6606
1.5805 -5.9893 2.8382
1.6490 -5.9834 2.8382
1.7176 -5.9772 2.8382
1.7865 -5.9708 2.8382
1.8555 -5.9642 2.8382
1.9247 -5.9573 2.8382
1.9941 -5.9501 2.8382
2.0637 -5.9426 2.8382
2.1335 -5.9348 2.8382
2.2036 -5.9268 2.8382
2.2739 -5.9185 2.8382
2.3444 -5.9099 2.8382
2.4152 -5.9011 2.8382
2.4862 -5.8919 2.8382
2.5575 -5.8825 2.8382
2.6291 -5.8727 2.8382
2.7009 -5.8627 2.8382
2.7731 -5.8524 2.8382
2.8455 -5.8418 2.8382
2.9183 -5.8308 2.8382
2.9913 -5.8196 2.8382
3.0647 -5.8080 2.8382
3.1385 -5.7961 2.8382
3.2126 -5.7839 2.8382
3.2870 -5.7714 2.8382
3.3619 -5.7586 2.8382
3.4371 -5.7454 2.8382
3.5127 -5.7319 2.8382
3.5887 -5.7180 2.8382
3.6651 -5.7038 2.8382
3.7419 -5.6892 2.8382
3.8192 -5.6743 2.8382
3.8969 -5.6590 2.8382
3.9751 -5.6433 2.8382
4.0537 -5.6273 2.8382
4.1329 -5.6109 2.8382
4.2125 -5.5940 2.8382
4.2927 -5.5768 2.8382
4.3733 -5.5592 2.8382
4.4546 -5.5412 2.8382
4.5363 -5.5228 2.8382
4.6187 -5.5040 2.8382
4.7016 -5.4847 2.8382
4.7331 -5.4055 2.8074
4.7414 -5.3018 2.7637
4.7495 -5.2003 2.7211
4.7687 -5.1134 2.6858
4.8502 -5.0926 2.6858
4.9323 -5.0717 2.6858
5.0151 -5.0504 2.6858
5.0985 -5.0286 2.6858
5.1826 -5.0064 2.6858
5.2674 -4.9836 2.6858
5.3530 -4.9604 2.6858
5.4393 -4.9366 2.6858
5.5263 -4.9123 2.6858
5.6142 -4.8875 2.6858
5.7029 -4.8622 2.6858
5.7923 -4.8363 2.6858
5.8827 -4.8098 2.6858
5.9739 -4.7827 2.6858
6.0661 -4.7551 2.6858
6.1591 -4.7268 2.6858
6.2531 -4.6979 2.6858
6.3480 -4.6684 2.6858
6.4440 -4.6383 2.6858
6.4976 -4.5769 2.6680
6.4978 -4.4786 2.6287
6.4980 -4.3818 2.5901
6.4981 -4.2864 2.5522
6.4983 -4.1924 2.5150
6.4985 -4.0997 2.4784
6.4986 -4.0083 2.4425
6.4988 -3.9181 2.4072
6.4990 -3.8292 2.3725
6.4991 -3.7413 2.3384
6.4993 -3.6546 2.3048
6.4994 -3.5690 2.2718
6.4996 -3.4844 2.2393
6.4997 -3.4008 2.2073
6.4999 -3.3181 2.1758
6.5002 -3.2365 2.1448
6.5004 -3.1557 2.1143
6.5006 -3.0758 2.0842
6.5009 -2.9967 2.0545
6.5011 -2.9184 2.0253
6.5013 -2.8409 1.9964
6.5015 -2.7641 1.9680
6.5017 -2.6881 1.9400
6.5018 -2.6127 1.9123
6.5020 -2.5381 1.8850
6.5022 -2.4641 1.8580
6.5024 -2.3907 1.8314
6.5026 -2.3179 1.8052
6.5028 -2.2456 1.7792
6.5030 -2.1740 1.7536
6.5032 -2.1028 1.7282
6.5033 -2.0322 1.7032
6.5035 -1.9621 1.6785
6.5037 -1.8925 1.6540
6.5039 -1.8233 1.6298
6.5041 -1.7545 1.6059
6.5042 -1.6862 1.5822
6.5044 -1.6183 1.5588
6.5046 -1.5508 1.5356
6.5048 -1.4836 1.5127
6.5049 -1.4168 1.4900
6.5051 -1.3503 1.4675
6.5053 -1.2841 1.4452
6.5054 -1.2182 1.4232
6.5056 -1.1527 1.4013
6.5058 -1.0873 1.3796
6.5059 -1.0223 1.3582
6.5061 -0.9575 1.3369
6.5063 -0.8929 1.3158
6.5064 -0.8285 1.2949
6.5066 -0.7644 1.2742
6.5068 -0.7004 1.2536
6.5069 -0.6366 1.2332
6.5071 -0.5729 1.2129
6.5072 -0.5094 1.1928
6.5074 -0.4460 1.1728
6.5076 -0.3827 1.1530
6.5077 -0.3196 1.1333
6.5074 -0.2564 1.1137
6.5074 -0.1934 1.0943
6.5075 -0.1305 1.0750
6.5075 -0.0676 1.0558
6.5075 -0.0048 1.0367
6.5076 0.0580 1.0178
6.5076 0.1208 0.9989
6.5076 0.1836 0.9802
6.5077 0.2464 0.9615
6.5077 0.3092 0.9430
6.5077 0.3720 0.9246
6.5078 0.4349 0.9062
6.5078 0.4979 0.8879
-4.1046 -4.8064 2.8382
-4.0335 -4.8259 2.8382
-3.9626 -4.8451 2.8382
-3.8922 -4.8639 2.8382
-3.8222 -4.8823 2.8382
-3.7525 -4.9002 2.8382
-3.6831 -4.9178 2.8382
-3.6141 -4.9350 2.8382
-3.5455 -4.9518 2.8382
-3.4771 -4.9682 2.8382
-3.4091 -4.9842 2.8382
-3.3414 -4.9999 2.8382
-3.2740 -5.0152 2.8382
-3.2069 -5.0301 2.8382
-3.1401 -5.0447 2.8382
-3.0735 -5.0589 2.8382
-3.0073 -5.0728 2.8382
-2.9413 -5.0864 2.8382
-2.8756 -5.0996 2.8382
-2.8101 -5.1124 2.8382
-2.7448 -5.1250 2.8382
-2.6798 -5.1372 2.8382
-2.6151 -5.1491 2.8382
-2.5505 -5.1606 2.8382
-2.4862 -5.1719 2.8382
-2.4221 -5.1828 2.8382
-2.3582 -5.1935 2.8382
-2.2945 -5.2038 2.8382
-2.2310 -5.2138 2.8382
-2.1677 -5.2235 2.8382
-2.1046 -5.2329 2.8382
-2.0416 -5.2420 2.8382
-1.9788 -5.2508 2.8382
-1.9162 -5.2593 2.8382
-1.8538 -5.2676 2.8382
-1.7915 -5.2756 2.8382
-1.7293 -5.2832 2.8382
-1.6673 -5.2906 2.8382
-1.6054 -5.2977 2.8382
-1.5437 -5.3045 2.8382
-1.4821 -5.3110 2.8382
-1.4206 -5.3173 2.8382
-0.8956 -3.5076 1.8702
-0.8543 -3.5077 1.8682
-0.8132 -3.5077 1.8663
-0.7723 -3.5077 1.8645
-0.7316 -3.5076 1.8627
-0.6911 -3.5077 1.8611
-0.6507 -3.5076 1.8596
-0.6104 -3.5076 1.8582
-0.5703 -3.5076 1.8568
-0.5303 -3.5077 1.8556
-0.4905 -3.5076 1.8544
-0.4507 -3.5077 1.8534
-0.4111 -3.5077 1.8524
-0.3715 -3.5076 1.8515
-0.3320 -3.5076 1.8507
-0.2926 -3.5076 1.8500
-0.2533 -3.5076 1.8494
-0.2140 -3.5076 1.8489
-0.1748 -3.5076 1.8485
-0.1356 -3.5076 1.8481
-0.0965 -3.5076 1.8479
-0.0573 -3.5077 1.8477
-0.0182 -3.5077 1.8476
0.0209 -3.5077 1.8476
0.0600 -3.5076 1.8477
0.0992 -3.5076 1.8479
0.1383 -3.5076 1.8481
0.1775 -3.5077 1.8485
0.2168 -3.5077 1.8489
0.2560 -3.5077 1.8495
0.2954 -3.5077 1.8501
0.3348 -3.5077 1.8508
0.3743 -3.5076 1.8516
0.4138 -3.5077 1.8525
0.4535 -3.5077 1.8535
0.4932 -3.5077 1.8545
0.5331 -3.5077 1.8557
0.5731 -3.5077 1.8569
0.6132 -3.5077 1.8583
0.6535 -3.5077 1.8597
0.6939 -3.5077 1.8612
0.7344 -3.5077 1.8629
0.7752 -3.5077 1.8646
0.8161 -3.5077 1.8664
0.8572 -3.5077 1.8683
0.8985 -3.5077 1.8703
1.4248 -5.3169 2.8382
1.4863 -5.3106 2.8382
1.5480 -5.3040 2.8382
1.6097 -5.2972 2.8382
1.6716 -5.2901 2.8382
1.7336 -5.2827 2.8382
1.7958 -5.2750 2.8382
1.8581 -5.2670 2.8382
1.9206 -5.2588 2.8382
1.9832 -5.2502 2.8382
2.0460 -5.2414 2.8382
2.1089 -5.2322 2.8382
2.1721 -5.2228 2.8382
2.2354 -5.2131 2.8382
2.2989 -5.2031 2.8382
2.3626 -5.1927 2.8382
2.4265 -5.1821 2.8382
2.4907 -5.1711 2.8382
2.5550 -5.1599 2.8382
2.6196 -5.1483 2.8382
2.6843 -5.1364 2.8382
2.7494 -5.1241 2.8382
2.8146 -5.1116 2.8382
2.8801 -5.0986 2.8382
2.9459 -5.0855 2.8382
3.0119 -5.0719 2.8382
3.0782 -5.0580 2.8382
3.1447 -5.0437 2.8382
3.2115 -5.0291 2.8382
3.2787 -5.0141 2.8382
3.3461 -4.9988 2.8382
3.4138 -4.9831 2.8382
3.4819 -4.9671 2.8382
3.5502 -4.9506 2.8382
3.6189 -4.9338 2.8382
3.6879 -4.9166 2.8382
3.7573 -4.8990 2.8382
3.8270 -4.8810 2.8382
3.8971 -4.8626 2.8382
3.9676 -4.8438 2.8382
4.0384 -4.8246 2.8382
4.1096 -4.8050 2.8382
4.1812 -4.7849 2.8382
4.2532 -4.7644 2.8382
4.3257 -4.7435 2.8382
4.3985 -4.7221 2.8382
4.4719 -4.7003 2.8382
4.5456 -4.6779 2.8382
4.6198 -4.6552 2.8382
4.6945 -4.6320 2.8382
4.7334 -4.5732 2.8167
4.7409 -4.4853 2.7771
4.7483 -4.3989 2.7384
4.7555 -4.3140 2.7005
4.8028 -4.2662 2.6858
4.8763 -4.2413 2.6858
4.9504 -4.2159 2.6858
5.0250 -4.1900 2.6858
5.1002 -4.1636 2.6858
5.1759 -4.1366 2.6858
5.2522 -4.1091 2.6858
5.3290 -4.0810 2.6858
5.4065 -4.0524 2.6858
5.4846 -4.0231 2.6858
5.5633 -3.9933 2.6858
5.6426 -3.9629 2.6858
5.7226 -3.9318 2.6858
5.8033 -3.9001 2.6858
5.8847 -3.8678 2.6858
5.9667 -3.8348 2.6858
6.0495 -3.8011 2.6858
6.1331 -3.7668 2.6858
6.2174 -3.7317 2.6858
6.3024 -3.6960 2.6858
6.3883 -3.6595 2.6858
6.4749 -3.6222 2.6858
6.4993 -3.5498 2.6600
6.4994 -3.4648 2.6247
6.4996 -3.3808 2.5900
6.4997 -3.2979 2.5559
6.5000 -3.2159 2.5224
6.5002 -3.1348 2.4894
6.5004 -3.0546 2.4569
6.5006 -2.9752 2.4249
6.5009 -2.8967 2.3934
6.5011 -2.8189 2.3624
6.5013 -2.7419 2.3319
6.5015 -2.6656 2.3018
6.5017 -2.5901 2.2721
6.5018 -2.5152 2.2429
6.5020 -2.4410 2.2140
6.5022 -2.3674 2.1856
6.5024 -2.2944 2.1576
6.5026 -2.2220 2.1299
6.5028 -2.1502 2.1026
6.5030 -2.0789 2.0757
6.5032 -2.0082 2.0491
6.5033 -1.9379 2.0228
6.5035 -1.8681 1.9969
6.5037 -1.7988 1.9713
6.5039 -1.7300 1.9460
6.5041 -1.6615 1.9211
6.5042 -1.5935 1.8964
6.5044 -1.5259 1.8720
6.5046 -1.4586 1.8479
6.5048 -1.3917 1.8240
6.5049 -1.3251 1.8004
6.5051 -1.2589 1.7771
6.5053 -1.1930 1.7541
6.5054 -1.1273 1.7312
6.5056 -1.0619 1.7087
6.5058 -0.9968 1.6863
6.5059 -0.9320 1.6642
6.5061 -0.8673 1.6423
6.5063 -0.8029 1.6206
6.5064 -0.7387 1.5992
6.5066 -0.6747 1.5779
6.5068 -0.6109 1.5568
6.5069 -0.5472 1.5360
6.5071 -0.4837 1.5153
6.5072 -0.4203 1.4948
6.5074 -0.3570 1.4744
6.5076 -0.2938 1.4543
6.5068 -0.2307 1.4341
6.5069 -0.1677 1.4143
6.5069 -0.1048 1.3946
6.5070 -0.0419 1.3751
6.5070 0.0209 1.3557
6.5070 0.0837 1.3365
6.5071 0.1465 1.3174
6.5071 0.2092 1.2985
6.5071 0.2720 1.2797
6.5072 0.3348 1.2610
6.5072 0.3976 1.2425
6.5072 0.4604 1.2241
6.5073 0.5233 1.2058
6.5073 0.5863 1.1876
-3.6904 -4.2367 2.8382
-3.6278 -4.2564 2.8382
-3.5656 -4.2757 2.8382
-3.5036 -4.2946 2.8382
-3.4419 -4.3131 2.8382
-3.3804 -4.3313 2.8382
-3.3191 -4.3490 2.8382
-3.2581 -4.3664 2.8382
-3.1974 -4.3834 2.8382
-3.1368 -4.3999 2.8382
-3.0765 -4.4162 2.8382
-3.0164 -4.4321 2.8382
-2.9565 -4.4476 2.8382
-2.8968 -4.4627 2.8382
-2.8373 -4.4776 2.8382
-2.7781 -4.4920 2.8382
-2.7190 -4.5061 2.8382
-2.6600 -4.5199 2.8382
-2.6013 -4.5334 2.8382
-2.5428 -4.5465 2.8382
-2.4844 -4.5592 2.8382
-2.4262 -4.5717 2.8382
-2.3682 -4.5838 2.8382
-2.3103 -4.5956 2.8382
-2.2526 -4.6071 2.8382
-2.1950 -4.6183 2.8382
-2.1376 -4.6291 2.8382
-2.0803 -4.6397 2.8382
-2.0231 -4.6499 2.8382
-1.9661 -4.6598 2.8382
-1.9092 -4.6695 2.8382
-1.8525 -4.6788 2.8382
-1.7959 -4.6878 2.8382
-1.7393 -4.6965 2.8382
-1.6829 -4.7050 2.8382
-1.6267 -4.7131 2.8382
-1.5705 -4.7210 2.8382
-1.5144 -4.7286 2.8382
-1.4584 -4.7359 2.8382
-1.4025 -4.7429 2.8382
-1.3467 -4.7496 2.8382
-1.2910 -4.7560 2.8382
-0.9100 -3.5077 2.0906
-0.8680 -3.5078 2.0880
-0.8262 -3.5078 2.0856
-0.7846 -3.5078 2.0832
-0.7432 -3.5078 2.0810
-0.7020 -3.5078 2.0790
-0.6610 -3.5077 2.0770
-0.6201 -3.5078 2.0752
-0.5793 -3.5078 2.0735
-0.5387 -3.5077 2.0719
-0.4982 -3.5077 2.0704
-0.4578 -3.5077 2.0690
-0.4175 -3.5077 2.0678
-0.3773 -3.5078 2.0666
-0.3372 -3.5078 2.0656
-0.2972 -3.5077 2.0647
-0.2573 -3.5078 2.0640
-0.2174 -3.5077 2.0633
-0.1775 -3.5078 2.0627
-0.1377 -3.5077 2.0623
-0.0980 -3.5078 2.0619
-0.0582 -3.5077 2.0617
-0.0185 -3.5077 2.0616
0.0212 -3.5078 2.0616
0.0610 -3.5077 2.0617
0.1007 -3.5078 2.0620
0.1405 -3.5078 2.0623
0.1803 -3.5077 2.0628
0.2202 -3.5078 2.0633
0.2600 -3.5078 2.0640
0.3000 -3.5078 2.0648
0.3400 -3.5078 2.0657
0.3801 -3.5077 2.0667
0.4203 -3.5078 2.0679
0.4606 -3.5078 2.0691
0.5010 -3.5078 2.0705
0.5415 -3.5078 2.0720
0.5821 -3.5078 2.0736
0.6229 -3.5078 2.0753
0.6638 -3.5078 2.0771
0.7049 -3.5078 2.0791
0.7461 -3.5078 2.0812
0.7875 -3.5078 2.0834
0.8291 -3.5078 2.0857
0.8709 -3.5078 2.0882
0.9129 -3.5078 2.0908
1.2949 -4.7556 2.8382
1.3506 -4.7491 2.8382
1.4064 -4.7424 2.8382
1.4623 -4.7354 2.8382
1.5183 -4.7281 2.8382
1.5744 -4.7205 2.8382
1.6306 -4.7126 2.8382
1.6869 -4.7044 2.8382
1.7433 -4.6960 2.8382
1.7998 -4.6872 2.8382
1.8564 -4.6781 2.8382
1.9132 -4.6688 2.8382
1.9701 -4.6591 2.8382
2.0271 -4.6492 2.8382
2.0842 -4.6389 2.8382
2.1415 -4.6284 2.8382
2.1990 -4.6175 2.8382
2.2566 -4.6063 2.8382
2.3143 -4.5948 2.8382
2.3722 -4.5830 2.8382
2.4302 -4.5708 2.8382
2.4884 -4.5584 2.8382
2.5468 -4.5456 2.8382
2.6054 -4.5324 2.8382
2.6641 -4.5190 2.8382
2.7231 -4.5052 2.8382
2.7822 -4.4910 2.8382
2.8415 -4.4766 2.8382
2.9010 -4.4617 2.8382
2.9607 -4.4465 2.8382
3.0206 -4.4310 2.8382
3.0807 -4.4151 2.8382
3.1410 -4.3988 2.8382
3.2016 -4.3822 2.8382
3.2624 -4.3652 2.8382
3.3234 -4.3478 2.8382
3.3846 -4.3300 2.8382
3.4461 -4.3119 2.8382
3.5079 -4.2933 2.8382
3.5699 -4.2744 2.8382
3.6322 -4.2550 2.8382
3.6947 -4.2353 2.8382
3.7575 -4.2151 2.8382
3.8206 -4.1945 2.8382
3.8840 -4.1735 2.8382
3.9476 -4.1521 2.8382
4.0116 -4.1302 2.8382
4.0758 -4.1079 2.8382
4.1404 -4.0851 2.8382
4.2053 -4.0619 2.8382
4.2705 -4.0383 2.8382
4.3360 -4.0141 2.8382
4.4019 -3.9895 2.8382
4.4681 -3.9644 2.8382
4.5347 -3.9388 2.8382
4.6016 -3.9127 2.8382
4.6689 -3.8861 2.8382
4.7317 -3.8551 2.8353
4.7386 -3.7787 2.7992
4.7453 -3.7035 2.7639
4.7519 -3.6294 2.7292
4.7615 -3.5587 2.6969
4.8079 -3.5159 2.6858
4.8742 -3.4872 2.6858
4.9409 -3.4579 2.6858
5.0081 -3.4281 2.6858
5.0756 -3.3976 2.6858
5.1436 -3.3667 2.6858
5.2121 -3.3351 2.6858
5.2809 -3.3029 2.6858
5.3503 -3.2701 2.6858
5.4201 -3.2367 2.6858
5.4904 -3.2027 2.6858
5.5612 -3.1681 2.6858
5.6325 -3.1327 2.6858
5.7043 -3.0967 2.6858
5.7766 -3.0601 2.6858
5.8494 -3.0227 2.6858
5.9228 -2.9846 2.6858
5.9968 -2.9459 2.6858
6.0713 -2.9063 2.6858
6.1464 -2.8661 2.6858
6.2221 -2.8251 2.6858
6.2984 -2.7833 2.6858
6.3753 -2.7407 2.6858
6.4528 -2.6973 2.6858
6.5013 -2.6410 2.6736
6.5015 -2.5653 2.6418
6.5016 -2.4902 2.6105
6.5018 -2.4158 2.5796
6.5020 -2.3420 2.5493
6.5022 -2.2689 2.5193
6.5024 -2.1963 2.4898
6.5026 -2.1244 2.4607
6.5028 -2.0529 2.4321
6.5030 -1.9821 2.4038
6.5032 -1.9117 2.3760
6.5033 -1.8418 2.3485
6.5035 -1.7724 2.3214
6.5037 -1.7034 2.2946
6.5039 -1.6349 2.2682
6.5041 -1.5668 2.2422
6.5042 -1.4990 2.2164
6.5044 -1.4317 2.1911
6.5046 -1.3647 2.1660
6.5048 -1.2981 2.1412
6.5049 -1.2318 2.1168
6.5051 -1.1658 2.0926
6.5053 -1.1001 2.0687
6.5054 -1.0347 2.0451
6.5056 -0.9695 2.0218
6.5058 -0.9046 1.9988
6.5059 -0.8399 1.9760
6.5061 -0.7755 1.9535
6.5063 -0.7113 1.9312
6.5064 -0.6472 1.9092
6.5066 -0.5834 1.8874
6.5068 -0.5197 1.8658
6.5069 -0.4561 1.8444
6.5071 -0.3927 1.8233
6.5072 -0.3294 1.8024
6.5063 -0.2662 1.7814
6.5063 -0.2031 1.7609
6.5063 -0.1401 1.7406
6.5064 -0.0772 1.7205
6.5064 -0.0144 1.7006
6.5064 0.0484 1.6808
6.5065 0.1111 1.6613
6.5065 0.1739 1.6419
6.5065 0.2366 1.6227
6.5066 0.2993 1.6037
6.5066 0.3620 1.5848
6.5067 0.4248 1.5661
6.5067 0.4876 1.5476
6.5067 0.5505 1.5292
6.5068 0.6134 1.5110
6.5068 0.6764 1.4929
-3.3448 -3.7615 2.8382
-3.2893 -3.7810 2.8382
-3.2339 -3.8001 2.8382
-3.1788 -3.8188 2.8382
-3.1238 -3.8371 2.8382
-3.0689 -3.8550 2.8382
-3.0143 -3.8726 2.8382
-2.9598 -3.8898 2.8382
-2.9054 -3.9066 2.8382
-2.8512 -3.9231 2.8382
-2.7972 -3.9392 2.8382
-2.7433 -3.9549 2.8382
-2.6896 -3.9704 2.8382
-2.6360 -3.9854 2.8382
-2.5825 -4.0002 2.8382
-2.5292 -4.0146 2.8382
-2.4760 -4.0286 2.8382
-2.4229 -4.0423 2.8382
-2.3700 -4.0557 2.8382
-2.3172 -4.0688 2.8382
-2.2645 -4.0815 2.8382
-2.2119 -4.0940 2.8382
-2.1595 -4.1061 2.8382
-2.1071 -4.1178 2.8382
-2.0549 -4.1293 2.8382
-2.0028 -4.1405 2.8382
-1.9507 -4.1513 2.8382
-1.8988 -4.1619 2.8382
-1.8470 -4.1721 2.8382
-1.7953 -4.1821 2.8382
-1.7436 -4.1917 2.8382
-1.6921 -4.2010 2.8382
-1.6406 -4.2101 2.8382
-1.5892 -4.2188 2.8382
-1.5379 -4.2273 2.8382
-1.4867 -4.2355 2.8382
-1.4355 -4.2433 2.8382
-1.3845 -4.2510 2.8382
-1.3335 -4.2583 2.8382
-1.2825 -4.2653 2.8382
-1.2316 -4.2721 2.8382
-1.1808 -4.2785 2.8382
-0.9887 -3.7489 2.4833
-0.8825 -3.5079 2.3204
-0.8400 -3.5079 2.3174
-0.7976 -3.5079 2.3145
-0.7555 -3.5079 2.3118
-0.7136 -3.5079 2.3092
-0.6719 -3.5078 2.3068
-0.6303 -3.5078 2.3045
-0.5888 -3.5078 2.3024
-0.5475 -3.5079 2.3004
-0.5063 -3.5079 2.2986
-0.4653 -3.5078 2.2969
-0.4243 -3.5079 2.2953
-0.3835 -3.5078 2.2939
-0.3427 -3.5078 2.2927
-0.3021 -3.5079 2.2916
-0.2615 -3.5079 2.2906
-0.2209 -3.5079 2.2897
-0.1804 -3.5079 2.2891
-0.1400 -3.5079 2.2885
-0.0996 -3.5079 2.2881
-0.0592 -3.5079 2.2878
-0.0188 -3.5079 2.2877
0.0216 -3.5079 2.2877
0.0620 -3.5079 2.2878
0.1024 -3.5079 2.2881
0.1428 -3.5079 2.2885
0.1832 -3.5079 2.2891
0.2237 -3.5079 2.2898
0.2643 -3.5079 2.2906
0.3049 -3.5079 2.2916
0.3456 -3.5079 2.2928
0.3863 -3.5079 2.2940
0.4272 -3.5079 2.2954
0.4681 -3.5079 2.2970
0.5092 -3.5079 2.2987
0.5504 -3.5079 2.3005
0.5917 -3.5079 2.3025
0.6331 -3.5079 2.3047
0.6748 -3.5079 2.3069
0.7165 -3.5079 2.3094
0.7585 -3.5079 2.3120
0.8006 -3.5079 2.3147
0.8429 -3.5079 2.3176
0.8854 -3.5079 2.3207
0.9913 -3.7465 2.4819
1.1843 -4.2781 2.8382
1.2352 -4.2716 2.8382
1.2860 -4.2648 2.8382
1.3370 -4.2578 2.8382
1.3880 -4.2505 2.8382
1.4391 -4.2428 2.8382
1.4902 -4.2349 2.8382
1.5415 -4.2268 2.8382
1.5928 -4.2182 2.8382
1.6442 -4.2095 2.8382
1.6956 -4.2004 2.8382
1.7472 -4.1910 2.8382
1.7988 -4.1814 2.8382
1.8506 -4.1714 2.8382
1.9024 -4.1611 2.8382
1.9543 -4.1506 2.8382
2.0064 -4.1397 2.8382
2.0585 -4.1285 2.8382
2.1108 -4.1170 2.8382
2.1631 -4.1052 2.8382
2.2156 -4.0931 2.8382
2.2681 -4.0807 2.8382
2.3208 -4.0679 2.8382
2.3737 -4.0548 2.8382
2.4266 -4.0414 2.8382
2.4797 -4.0277 2.8382
2.5329 -4.0136 2.8382
2.5862 -3.9991 2.8382
2.6397 -3.9844 2.8382
2.6933 -3.9693 2.8382
2.7470 -3.9539 2.8382
2.8009 -3.9381 2.8382
2.8550 -3.9219 2.8382
2.9092 -3.9054 2.8382
2.9635 -3.8886 2.8382
3.0180 -3.8713 2.8382
3.0727 -3.8538 2.8382
3.1276 -3.8358 2.8382
3.1826 -3.8175 2.8382
3.2378 -3.7988 2.8382
3.2931 -3.7797 2.8382
3.3487 -3.7602 2.8382
3.4044 -3.7403 2.8382
3.4603 -3.7200 2.8382
3.5164 -3.6993 2.8382
3.5727 -3.6783 2.8382
3.6292 -3.6568 2.8382
3.6859 -3.6348 2.8382
3.7428 -3.6125 2.8382
3.8000 -3.5897 2.8382
3.8573 -3.5665 2.8382
3.9149 -3.5429 2.8382
3.9726 -3.5188 2.8382
4.0306 -3.4942 2.8382
4.0889 -3.4692 2.8382
4.1473 -3.4438 2.8382
4.2061 -3.4178 2.8382
4.2650 -3.3915 2.8382
4.3242 -3.3646 2.8382
4.3837 -3.3372 2.8382
4.4434 -3.3093 2.8382
4.5034 -3.2809 2.8382
4.5636 -3.2520 2.8382
4.6241 -3.2226 2.8382
4.6849 -3.1927 2.8382
4.7342 -3.1543 2.8312
4.7404 -3.0875 2.7987
4.7464 -3.0216 2.7668
4.7524 -2.9564 2.7355
4.7583 -2.8920 2.7047
