ply
format ascii 1.0
element vertex 1917
property float32 x
property float32 y
property float32 z
end_header
-5.3849 6.7464 -3.6909
-6.0530 7.9219 -4.3043
-5.2403 6.7097 -3.6580
-5.5334 6.7841 -3.7249
-5.7804 6.9361 -3.8224
-6.5110 7.3289 -4.0861
-5.9281 6.9627 -3.8516
-5.7878 6.3787 -3.5708
-6.4467 7.4122 -4.1161
-6.0119 6.4875 -3.6469
-6.6924 6.7817 -3.8631
-6.2479 6.6019 -3.7273
-6.7972 6.7455 -3.8603
-6.7537 6.9884 -3.9629
-6.8872 6.6937 -3.8490
-7.2603 6.6285 -3.8692
-6.9311 6.5974 -3.8121
-7.4300 6.6434 -3.8985
-7.1195 6.6369 -3.8543
-7.4275 6.5039 -3.8374
-6.6784 5.4917 -3.2962
-7.3331 6.2884 -3.7310
-7.4868 6.0281 -3.6401
-7.4420 6.2495 -3.7291
-7.5093 5.9198 -3.5969
-7.2107 5.3326 -3.3044
-8.3165 6.4186 -3.9249
-6.8849 4.9834 -3.1094
-8.3669 6.3214 -3.8908
-6.7121 4.7544 -2.9877
-8.7587 5.8098 -3.7342
-6.5501 4.5399 -2.8738
-8.8373 5.7332 -3.7145
-8.6804 5.8861 -3.7541
-28.3980 5.3862 -6.9731
-28.2418 5.9301 -7.1323
-28.4751 5.1136 -6.8939
-28.1020 5.6147 -6.9982
-28.4169 4.8178 -6.7829
-30.6510 4.2806 -7.0086
-28.1714 4.4945 -6.6292
-29.2196 3.7917 -6.5854
-27.9310 4.1779 -6.4792
-31.7558 3.8077 -7.0537
-25.3283 2.2923 -5.3831
-31.0713 3.4203 -6.8015
-25.3948 2.0507 -5.3175
-31.5389 3.1627 -6.8030
-25.4614 1.8084 -5.2520
-25.6616 1.0764 -5.0572
-25.5280 1.5652 -5.1869
-25.6407 0.8278 -4.9756
-25.4037 0.5749 -4.8535
-25.5948 1.3212 -5.1219
-25.1714 0.3270 -4.7342
-28.4622 -0.1785 -5.1855
-28.4773 -0.4526 -5.1052
-24.9437 0.0838 -4.6176
-31.1522 -1.6945 -5.2272
-32.3531 -0.8256 -5.7063
-32.7186 -2.0949 -5.3976
-32.4236 -1.1394 -5.6254
-28.6396 -1.2820 -4.8870
-28.4898 -2.3738 -4.5403
-35.7555 -3.6708 -5.5000
-35.6466 -3.3147 -5.5818
-35.8651 -4.0297 -5.4182
-48.9788 -5.9788 -7.2653
-36.3105 -4.7857 -5.2873
-7.3046 -1.9068 -0.8119
-7.2571 -1.9686 -0.7878
-5.3618 6.6962 -3.1946
-5.5076 6.7329 -3.2217
-5.6572 6.7702 -3.2495
-5.8109 6.8087 -3.2782
-6.0648 6.9581 -3.3610
-6.4070 7.1981 -3.4885
-6.4696 7.1181 -3.4614
-6.5318 7.0383 -3.4346
-6.5938 6.9591 -3.4080
-6.6556 6.8801 -3.3818
-6.1374 6.2145 -3.0662
-6.3726 6.3207 -3.1306
-6.6211 6.4329 -3.1989
-6.9007 6.5676 -3.2793
-6.9805 6.5080 -3.2631
-7.1160 6.4988 -3.2726
-7.3993 6.6194 -3.3481
-6.9276 6.0706 -3.0845
-7.3215 6.2842 -3.2080
-7.2845 6.1241 -3.1413
-8.0405 6.6205 -3.4127
-7.1692 5.7813 -2.9952
-7.1469 5.6439 -2.9393
-7.1250 5.5096 -2.8848
-7.1036 5.3784 -2.8317
-7.0742 5.2439 -2.7765
-6.7412 4.8918 -2.6052
-6.5777 4.6719 -2.5032
-6.8695 4.7752 -2.5743
-8.6148 5.8600 -3.1793
-8.6919 5.7848 -3.1591
-28.7873 8.2459 -6.5122
-28.8617 7.9622 -6.4253
-29.0099 7.3954 -6.2530
-28.9359 7.6787 -6.3389
-29.0838 7.1123 -6.1675
-29.7428 6.0548 -5.9022
-29.0981 6.8154 -6.0701
-30.7196 5.9428 -5.9938
-30.9982 5.6844 -5.9459
-28.3702 6.3536 -5.8212
-31.2807 5.4224 -5.8978
-31.8691 5.2060 -5.9053
-28.7356 6.1419 -5.7989
-31.9608 4.9029 -5.8195
-35.2336 5.0555 -6.3029
-27.7891 2.8937 -4.6230
-32.7801 4.0565 -5.6571
-27.8566 2.6286 -4.5485
-27.7217 3.1583 -4.6976
-27.9241 2.3628 -4.4742
-28.1269 1.5608 -4.2522
-28.1947 1.2918 -4.1785
-27.9916 2.0963 -4.4000
-28.2626 1.0218 -4.1048
-28.0592 1.8289 -4.3260
-35.9003 0.9515 -5.1084
-30.2699 0.2188 -4.1305
-35.8473 0.6045 -4.9959
-32.6039 -0.0784 -4.3545
-32.3041 -1.3215 -3.9447
-32.7032 -0.3934 -4.2735
-33.2065 -1.6783 -3.9609
-33.3128 -2.0048 -3.8796
-32.8028 -0.7103 -4.1924
-32.9957 -1.0321 -4.1229
-49.1920 -3.9102 -5.4532
-48.1023 -4.2888 -5.1984
-49.0929 -4.8526 -5.1691
-49.1276 -7.2491 -4.4964
-7.2608 -1.9435 -0.4283
-40.7771 -14.7862 -1.4115
-5.4844 6.6838 -2.7422
-5.6313 6.7203 -2.7633
-5.7823 6.7577 -2.7851
-5.8809 6.7313 -2.7808
-6.0062 6.7336 -2.7886
-6.1337 6.7359 -2.7965
-6.2635 6.7382 -2.8046
-6.3959 6.7405 -2.8130
-6.5308 6.7430 -2.8217
-6.7260 6.8038 -2.8551
-6.7818 6.7214 -2.8286
-6.8654 6.6665 -2.8138
-6.9351 6.5980 -2.7933
-7.0048 6.5296 -2.7729
-6.7509 6.1657 -2.6267
-7.2340 6.4731 -2.7668
-7.5905 6.6545 -2.8539
-7.0981 6.0964 -2.6237
-7.0764 5.9541 -2.5716
-7.0552 5.8152 -2.5209
-7.0344 5.6795 -2.4714
-7.0141 5.5469 -2.4231
-7.0090 5.4287 -2.3810
-6.8881 5.2247 -2.3010
-6.7699 5.0284 -2.2239
-6.6052 4.8035 -2.1338
-6.7769 4.8250 -2.1530
-7.8910 5.4995 -2.4655
-8.2353 5.6175 -2.5305
-8.2606 5.5141 -2.4962
-8.2856 5.4116 -2.4623
-8.3104 5.3099 -2.4288
-8.3351 5.2090 -2.3956
-40.8576 5.6081 -5.1811
-40.7660 5.1942 -5.0453
-40.6754 4.7834 -4.9109
-40.5857 4.3755 -4.7778
-40.4970 3.9705 -4.6461
-40.4091 3.5682 -4.5156
-40.3222 3.1685 -4.3863
-40.2360 2.7713 -4.2582
-40.1506 2.3765 -4.1312
-40.0661 1.9839 -4.0054
-39.9823 1.5935 -3.8806
-39.8992 1.2052 -3.7568
-39.8168 0.8188 -3.6340
-39.7351 0.4343 -3.5122
-30.1395 0.0392 -2.5776
-39.5737 -0.3296 -3.2712
-39.4939 -0.7092 -3.1521
-39.4147 -1.0873 -3.0337
-39.3361 -1.4640 -2.9162
-38.9655 -1.8257 -2.7785
-49.2595 -2.7831 -3.3736
-48.7867 -3.2274 -3.2039
-49.5008 -4.2320 -2.9729
-47.8399 -4.5537 -2.7391
-47.7323 -5.0069 -2.5994
-49.3818 -5.6603 -2.5513
-7.2689 -1.9207 -0.0709
-7.2671 -1.9953 -0.0504
-44.2997 -12.6228 -0.1819
-42.1793 -12.4589 -0.0536
-40.5267 -12.3962 0.0637
-39.3455 -12.4506 0.1740
-38.4118 -12.5635 0.2797
-21.5308 -7.2725 0.2186
-21.5316 -7.5048 0.2806
-8.2776 23.6528 -7.9376
-6.5961 14.3563 -4.8385
-6.9579 14.3485 -4.8414
-7.1371 14.3362 -4.8401
-7.5221 14.3539 -4.8521
-5.3464 7.3752 -2.5207
-5.4685 7.3831 -2.5259
-5.5925 7.3909 -2.5310
-5.7187 7.3989 -2.5363
-5.8470 7.4069 -2.5418
-5.9775 7.4152 -2.5473
-5.4631 6.6371 -2.2826
-5.6073 6.6723 -2.2973
-5.7555 6.7085 -2.3125
-5.9077 6.7457 -2.3281
-6.0643 6.7838 -2.3441
-6.6994 7.1944 -2.4925
-6.9021 7.5648 -2.6174
-7.0870 7.4574 -2.5871
-6.6511 6.4539 -2.2519
-6.8548 7.0681 -2.4554
-6.7871 6.4540 -2.2554
-6.3872 6.4538 -2.2452
-6.9259 6.4540 -2.2591
-6.5179 6.4539 -2.2485
-7.1308 6.5119 -2.2831
-6.9851 6.1254 -2.1549
-7.0056 6.2692 -2.2017
-6.9650 5.9849 -2.1093
-7.6252 6.0376 -2.1444
-7.0934 5.9724 -2.1088
-7.9530 6.1686 -2.1955
-6.9650 5.7457 -2.0326
-6.7984 5.1649 -1.8423
-6.8438 5.5314 -1.9606
-6.6325 4.9351 -1.7642
-7.8583 5.6070 -2.0137
-6.6875 4.8731 -1.7460
-7.2523 4.6483 -1.6914
-7.8042 5.4519 -1.9628
-7.5020 5.1303 -1.8517
-7.4157 4.9637 -1.7963
-7.3325 4.8032 -1.7429
-39.8822 8.3999 -3.9693
-39.6277 7.1515 -3.5818
-39.7965 7.9802 -3.8389
-39.5445 6.7422 -3.4551
-39.7117 7.5641 -3.7097
-39.4621 6.3362 -3.3295
-39.2192 5.1362 -2.9593
-39.3804 5.9332 -3.2050
-39.1395 4.7419 -2.8379
-39.2994 5.5333 -3.0816
-38.7511 4.3158 -2.6960
-39.1039 3.2128 -2.3786
-39.0906 3.9721 -2.6053
-39.1105 2.8340 -2.2657
-39.0973 3.5921 -2.4917
-39.2697 2.4652 -2.1615
-39.2895 1.3280 -1.8240
-39.2763 2.0858 -2.0488
-39.2197 0.9475 -1.7086
-39.2829 1.7068 -1.9363
-39.3027 0.5709 -1.6000
-39.1696 -0.5626 -1.2601
-37.9386 -0.9103 -1.1128
-39.1828 -1.3177 -1.0382
-39.3167 -1.7012 -0.9303
-49.7247 -3.1115 -0.8949
-49.3049 -3.5620 -0.7477
-30.1712 0.1477 -1.1422
-39.3159 -0.1861 -1.3766
-21.6010 -3.6726 0.2866
-21.6017 -3.8872 0.3485
-21.6041 -4.5362 0.5353
-21.6025 -4.1027 0.4106
-21.6048 -4.7544 0.5980
-21.6033 -4.3190 0.4729
-21.6056 -4.9735 0.6608
-21.6064 -5.1937 0.7239
-21.6072 -5.4150 0.7872
-7.3012 -1.9049 0.2875
-7.2543 -1.9677 0.3070
-21.6096 -6.0861 0.9786
-21.6104 -6.3123 1.0430
-21.6112 -6.5400 1.1077
-21.6121 -6.7691 1.1727
-21.5373 -6.9751 1.2337
-21.5298 -7.2037 1.2987
-7.8734 22.8272 -6.4343
-8.5007 23.8430 -6.7195
-7.0363 14.3510 -4.0357
-5.4355 7.3063 -2.0432
-5.5569 7.3136 -2.0445
-5.6804 7.3210 -2.0457
-5.8059 7.3284 -2.0469
-5.9335 7.3358 -2.0480
-6.0633 7.3433 -2.0492
-6.2081 7.3659 -2.0545
-5.6687 6.5898 -1.8372
-5.8000 6.6066 -1.8410
-5.9342 6.6237 -1.8448
-6.0714 6.6411 -1.8487
-6.2118 6.6590 -1.8527
-6.3556 6.6773 -1.8567
-7.2264 7.4412 -2.0679
-6.5188 6.5792 -1.8273
-7.1370 7.0601 -1.9597
-7.1559 6.9385 -1.9247
-7.1336 6.7797 -1.8795
-7.0178 6.5374 -1.8111
-7.1257 6.5061 -1.8012
-7.0501 6.3091 -1.7454
-6.9213 6.0707 -1.6782
-6.7996 5.8451 -1.6146
-7.4817 6.3030 -1.7398
-7.5563 6.2383 -1.7205
-7.5705 6.1245 -1.6877
-6.9070 5.4751 -1.5075
-6.7544 5.2458 -1.4431
-6.6107 5.0299 -1.3824
-6.6008 4.9198 -1.3509
-7.8259 5.7133 -1.5672
-7.6852 5.4948 -1.5057
-7.4419 5.2104 -1.4263
-7.3575 5.0437 -1.3791
-7.2760 4.8829 -1.3337
-7.1974 4.7279 -1.2898
-38.9938 9.5352 -2.3265
-39.0007 9.1383 -2.2105
-39.0076 8.7432 -2.0949
-39.0144 8.3498 -1.9798
-39.0212 7.9579 -1.8651
-39.0280 7.5677 -1.7508
-39.0301 7.1779 -1.6367
-38.7723 6.7444 -1.5128
-38.5248 6.3191 -1.3912
-38.2914 5.9022 -1.2718
-38.0972 5.4968 -1.1552
-39.0683 5.2530 -1.0720
-39.0750 4.8710 -0.9598
-39.0816 4.4897 -0.8478
-39.0882 4.1093 -0.7360
-39.0949 3.7296 -0.6243
-39.1015 3.3505 -0.5128
-37.8053 2.8729 -0.3880
-37.8617 2.5108 -0.2807
-37.8680 2.1451 -0.1730
-39.1278 1.8387 -0.0675
-38.3019 1.4305 0.0428
-39.1409 1.0845 0.1549
-39.1475 0.7076 0.2662
-30.2023 0.2550 0.2912
-21.5911 -0.0256 0.2695
-21.5919 -0.2335 0.3309
-21.5926 -0.4415 0.3923
-21.5934 -0.6496 0.4539
-21.5941 -0.8578 0.5154
-21.5948 -1.0663 0.5771
-21.5956 -1.2750 0.6389
-21.5963 -1.4839 0.7007
-21.5094 -1.6863 0.7596
-21.5101 -1.8951 0.8215
-21.5109 -2.1043 0.8835
-21.5155 -2.3144 0.9459
-21.5962 -2.5339 1.0120
-21.5970 -2.7455 1.0748
-21.5977 -2.9576 1.1377
-21.5985 -3.1703 1.2009
-21.5993 -3.3837 1.2644
-21.6000 -3.5978 1.3280
-21.6008 -3.8127 1.3920
-21.6016 -4.0284 1.4562
-21.6023 -4.2450 1.5206
-21.6031 -4.4625 1.5854
-21.6039 -4.6810 1.6505
-21.6047 -4.9005 1.7159
-21.6055 -5.1210 1.7817
-21.6063 -5.3427 1.8478
-21.6071 -5.5656 1.9143
-7.2576 -1.9446 0.6655
-21.6087 -6.0150 2.0486
-21.6095 -6.2417 2.1163
-21.6103 -6.4698 2.1845
-21.6111 -6.6994 2.2532
-21.5950 -6.9251 2.3205
-7.7239 22.7173 -5.2164
-8.0728 22.9711 -5.2696
-7.1026 14.3326 -3.2406
-5.5223 7.2389 -1.5764
-5.6431 7.2456 -1.5736
-5.7659 7.2523 -1.5708
-5.8908 7.2592 -1.5679
-6.0178 7.2661 -1.5648
-6.1470 7.2729 -1.5616
-6.2916 7.2951 -1.5615
-6.4438 7.3226 -1.5624
-6.5998 7.3508 -1.5632
-6.7597 7.3797 -1.5640
-6.0380 6.4615 -1.3646
-6.1743 6.4771 -1.3630
-6.3138 6.4929 -1.3612
-6.4566 6.5091 -1.3593
-6.6027 6.5257 -1.3573
-6.7523 6.5424 -1.3551
-7.1904 6.8300 -1.4086
-7.2617 6.7623 -1.3885
-6.7541 6.1659 -1.2602
-7.2913 6.5253 -1.3273
-7.1851 6.3034 -1.2759
-7.2570 6.2408 -1.2567
-7.2581 6.1182 -1.2255
-6.8877 5.6907 -1.1336
-6.7349 5.4537 -1.0802
-6.5911 5.2306 -1.0299
-6.8338 5.3145 -1.0400
-7.6552 5.8334 -1.1342
-7.9134 5.9081 -1.1411
-7.5697 5.5365 -1.0619
-7.3826 5.2893 -1.0072
-7.3000 5.1224 -0.9681
-7.2202 4.9616 -0.9303
-8.0457 5.4136 -1.0067
-38.6207 13.2204 -1.4257
-39.4795 13.0897 -1.3406
-40.3694 12.9535 -1.2518
-41.2924 12.8114 -1.1593
-42.2505 12.6630 -1.0627
-43.2456 12.5079 -0.9619
-44.2807 12.3458 -0.8565
-39.0466 9.6790 -0.4178
-38.9984 9.2691 -0.3056
-38.8019 8.8285 -0.1932
-39.0121 8.4819 -0.0831
-39.0189 8.0908 0.0278
-39.0145 7.6988 0.1386
-39.0213 7.3107 0.2491
-39.0280 6.9238 0.3596
-21.5804 3.6146 0.2598
-21.4944 3.3879 0.3194
-21.4952 3.1764 0.3800
-21.4989 2.9659 0.4406
-21.5805 2.7658 0.5030
-21.5812 2.5551 0.5638
-21.5820 2.3449 0.6245
-21.5827 2.1351 0.6853
-21.5835 1.9258 0.7461
-21.5842 1.7167 0.8069
-21.5850 1.5079 0.8677
-21.5857 1.2994 0.9287
-21.5865 1.0911 0.9897
-21.5872 0.8830 1.0507
-21.5880 0.6750 1.1119
-21.5887 0.4671 1.1732
-21.5894 0.2593 1.2346
-21.5902 0.0514 1.2961
-21.5909 -0.1565 1.3577
-21.5917 -0.3645 1.4196
-21.5924 -0.5726 1.4816
-21.5932 -0.7809 1.5437
-21.5939 -0.9894 1.6061
-21.5946 -1.1981 1.6687
-21.5954 -1.4071 1.7315
-21.5961 -1.6165 1.7945
-21.5092 -1.8188 1.8502
-21.5099 -2.0281 1.9135
-21.5146 -2.2383 1.9774
-21.5953 -2.4577 2.0489
-21.5960 -2.6694 2.1133
-21.5968 -2.8816 2.1780
-21.5975 -3.0945 2.2430
-21.5983 -3.3081 2.3084
-21.5991 -3.5225 2.3742
-21.5998 -3.7376 2.4403
-21.6006 -3.9536 2.5068
-21.6014 -4.1704 2.5737
-21.9684 -4.4626 2.6859
-21.4189 -4.5677 2.6858
-20.8933 -4.6680 2.6858
-20.3894 -4.7638 2.6858
-19.9060 -4.8552 2.6858
-19.6786 -5.0029 2.7185
-7.2655 -1.9225 1.0273
-7.2661 -1.9985 1.0511
-19.1819 -5.4774 2.8382
-18.7604 -5.5553 2.8382
-18.3537 -5.6300 2.8382
-7.7613 23.1539 -4.1345
-7.8942 22.7854 -4.0600
-8.3282 23.2769 -4.1383
-8.5234 23.0865 -4.0950
-8.7170 22.8986 -4.0519
-5.6063 7.1726 -1.1174
-5.7263 7.1786 -1.1107
-5.8484 7.1846 -1.1037
-5.9696 7.1872 -1.0960
-6.0801 7.1747 -1.0858
-6.1919 7.1620 -1.0754
-6.3051 7.1491 -1.0647
-6.4316 7.1491 -1.0557
-6.5597 7.1486 -1.0464
-6.6486 7.1037 -1.0303
-6.7380 7.0586 -1.0141
-6.8481 7.0341 -1.0006
-6.9651 7.0149 -0.9877
-6.4097 6.3298 -0.8818
-6.5512 6.3437 -0.8739
-6.6961 6.3579 -0.8658
-6.8446 6.3724 -0.8573
-7.3008 6.6647 -0.8854
-7.3414 6.5711 -0.8615
-7.3176 6.4218 -0.8305
-6.8672 5.9086 -0.7532
-6.7143 5.6637 -0.7112
-7.0223 5.8070 -0.7177
-6.6451 5.3867 -0.6549
-7.5737 6.0179 -0.7190
-7.6013 5.9197 -0.6945
-7.6287 5.8224 -0.6700
-7.4567 5.5770 -0.6289
-7.3240 5.3673 -0.5924
-7.2430 5.2003 -0.5612
-7.1650 5.0394 -0.5309
-40.7809 28.0938 -2.8856
-37.8576 16.0083 -0.2451
-37.8375 15.5719 -0.1367
-37.8449 15.1504 -0.0288
-37.8521 14.7321 0.0787
-37.8868 14.3272 0.1859
-37.8940 13.9146 0.2928
-37.9011 13.5049 0.3994
-21.5659 7.4513 0.2877
-21.5667 7.2202 0.3479
-21.5676 6.9907 0.4081
-21.5684 6.7625 0.4681
-21.5692 6.5358 0.5279
-21.5700 6.3104 0.5877
-21.5708 6.0863 0.6473
-21.5716 5.8634 0.7069
-21.5724 5.6417 0.7664
-21.5732 5.4211 0.8259
-21.5740 5.2016 0.8853
-21.5748 4.9831 0.9447
-21.5756 4.7656 1.0040
-21.5763 4.5489 1.0634
-21.5771 4.3332 1.1227
-21.5779 4.1182 1.1821
-21.5786 3.9041 1.2415
-21.5794 3.6906 1.3009
-21.4935 3.4639 1.3549
-21.4943 3.2526 1.4142
-21.4980 3.0423 1.4738
-21.5795 2.8428 1.5391
-21.5803 2.6323 1.5988
-21.5810 2.4223 1.6587
-21.5818 2.2127 1.7188
-21.5825 2.0035 1.7789
-21.5833 1.7946 1.8392
-21.5840 1.5859 1.8997
-21.5848 1.3776 1.9603
-21.5855 1.1694 2.0211
-21.5863 0.9613 2.0821
-21.5870 0.7534 2.1433
-21.5877 0.5456 2.2047
-21.5885 0.3378 2.2664
-21.5892 0.1300 2.3282
-21.5900 -0.0779 2.3904
-21.5907 -0.2859 2.4528
-21.5915 -0.4940 2.5155
-21.5922 -0.7023 2.5785
-21.9535 -0.9260 2.6859
-21.4376 -1.1114 2.6858
-20.9433 -1.2885 2.6858
-20.4689 -1.4578 2.6858
-20.0130 -1.6197 2.6858
-19.6753 -1.7839 2.6996
-19.6639 -1.9747 2.7576
-19.6536 -2.1657 2.8159
-19.3948 -2.3274 2.8382
-18.9947 -2.4661 2.8382
-18.6083 -2.5995 2.8382
-18.2348 -2.7277 2.8382
-17.8736 -2.8511 2.8382
-17.5239 -2.9700 2.8382
-17.1851 -3.0844 2.8382
-16.8567 -3.1948 2.8382
-16.5382 -3.3013 2.8382
-16.2291 -3.4040 2.8382
-15.9289 -3.5032 2.8382
-15.6373 -3.5991 2.8382
-15.3537 -3.6917 2.8382
-15.0778 -3.7813 2.8382
-7.2934 -1.9049 1.3978
-7.2530 -1.9702 1.4150
-14.2932 -4.0330 2.8382
-14.0449 -4.1116 2.8382
-7.8102 23.6318 -3.0356
-8.0131 23.4592 -3.0007
-8.1917 23.2239 -2.9576
-8.3846 23.0375 -2.9205
-8.5757 22.8529 -2.8834
-7.0638 14.3214 -1.7038
-5.7912 6.9539 -0.6272
-5.8959 6.9406 -0.6145
-6.0019 6.9270 -0.6014
-6.1091 6.9131 -0.5880
-6.2176 6.8990 -0.5743
-6.3274 6.8845 -0.5602
-6.4175 6.8473 -0.5441
-6.5022 6.8035 -0.5272
-6.5872 6.7595 -0.5100
-6.6727 6.7151 -0.4926
-6.7585 6.6704 -0.4750
-6.8447 6.6253 -0.4571
-6.9314 6.5799 -0.4389
-7.0185 6.5341 -0.4205
-7.0076 6.3981 -0.3962
-6.8447 6.1286 -0.3643
-6.6917 5.8756 -0.3341
-6.8155 5.8683 -0.3181
-7.2498 6.1209 -0.3151
-7.2781 6.0250 -0.2931
-7.3060 5.9298 -0.2712
-7.2671 5.7825 -0.2471
-7.2022 5.6179 -0.2226
-7.1393 5.4587 -0.1988
-7.0784 5.3045 -0.1756
-37.3791 27.4516 -0.8149
-38.1647 27.4653 -0.7181
-37.6416 26.5413 -0.5968
-37.6831 26.0298 -0.4867
-37.6923 25.5027 -0.3768
-37.6376 24.9402 -0.2672
-37.6829 24.4510 -0.1591
-37.6918 23.9440 -0.0514
-37.7005 23.4431 0.0557
-37.6726 22.9260 0.1621
-37.7450 22.4753 0.2685
-37.7890 22.0119 0.3743
-21.5414 12.2719 0.2733
-21.5424 11.9997 0.3329
-21.5434 11.7304 0.3922
-21.5443 11.4640 0.4513
-21.5453 11.2004 0.5101
-21.5462 10.9395 0.5688
-21.5472 10.6811 0.6272
-21.5481 10.4252 0.6854
-21.5490 10.1717 0.7435
-21.5499 9.9206 0.8013
-21.5508 9.6717 0.8591
-21.5517 9.4250 0.9167
-21.5526 9.1803 0.9742
-21.5535 8.9377 1.0315
-21.4770 8.6658 1.0849
-21.4716 8.4254 1.1415
-21.4724 8.1893 1.1984
-21.5633 7.9883 1.2605
-21.5641 7.7547 1.3175
-21.5649 7.5226 1.3745
-21.5658 7.2921 1.4315
-21.5666 7.0632 1.4884
-21.5674 6.8356 1.5454
-21.5682 6.6094 1.6023
-21.5690 6.3845 1.6593
-21.5699 6.1609 1.7163
-21.5707 5.9385 1.7734
-21.5714 5.7172 1.8305
-21.5722 5.4971 1.8877
-21.5730 5.2779 1.9449
-21.5738 5.0598 2.0022
-21.5746 4.8426 2.0597
-21.5754 4.6264 2.1172
-21.5761 4.4109 2.1749
-21.5769 4.1963 2.2327
-21.5777 3.9825 2.2907
-21.5785 3.7693 2.3488
-21.4925 3.5426 2.3974
-21.4933 3.3315 2.4556
-21.4941 3.1211 2.5140
-21.5786 2.9225 2.5826
-21.9407 2.7577 2.6859
-21.4597 2.4885 2.6858
-20.9980 2.2311 2.6858
-20.5539 1.9848 2.6858
-20.1265 1.7487 2.6858
-19.7148 1.5222 2.6858
-19.6602 1.3285 2.7334
-19.6507 1.1385 2.7874
-19.6181 0.9476 2.8382
-19.2402 0.7440 2.8382
-18.8747 0.5482 2.8382
-18.5210 0.3597 2.8382
-18.1784 0.1781 2.8382
-17.8463 0.0030 2.8382
-17.5243 -0.1658 2.8382
-17.2118 -0.3287 2.8382
-16.9084 -0.4860 2.8382
-16.6137 -0.6380 2.8382
-16.3271 -0.7848 2.8382
-16.0485 -0.9268 2.8382
-15.7773 -1.0641 2.8382
-15.5133 -1.1970 2.8382
-15.2560 -1.3257 2.8382
-15.0054 -1.4504 2.8382
-14.7610 -1.5712 2.8382
-14.5226 -1.6883 2.8382
-14.2899 -1.8018 2.8382
-14.0627 -1.9120 2.8382
-13.8409 -2.0188 2.8382
-13.6240 -2.1226 2.8382
-13.4121 -2.2233 2.8382
-13.2048 -2.3213 2.8382
-13.0020 -2.4163 2.8382
-12.8035 -2.5087 2.8382
-12.6092 -2.5985 2.8382
-12.4189 -2.6859 2.8382
-12.2324 -2.7709 2.8382
-12.0497 -2.8536 2.8382
-11.8706 -2.9341 2.8382
-11.6948 -3.0125 2.8382
-7.2548 -1.9448 1.7870
-11.3533 -3.1631 2.8382
-7.5889 23.2894 -1.8408
-7.7883 23.1272 -1.8120
-7.9794 22.9464 -1.7814
-8.0889 22.5452 -1.7336
-6.1311 6.6623 -0.1111
-6.2363 6.6468 -0.0942
-6.3428 6.6310 -0.0769
-6.4507 6.6148 -0.0592
-6.5600 6.5984 -0.0410
-6.5248 6.4378 -0.0220
-6.7827 6.5645 -0.0034
-6.8964 6.5471 0.0160
-7.0130 6.5306 0.0360
-6.9916 6.3863 0.0554
-6.6092 5.9215 0.0706
-7.2535 6.3740 0.0973
-7.2056 6.2103 0.1163
-7.1134 6.0127 0.1340
-7.0515 5.8453 0.1517
-6.9916 5.6833 0.1691
-6.9336 5.5266 0.1860
-21.5336 16.8286 0.6343
-21.5348 16.4994 0.6906
-21.5360 16.1752 0.7467
-21.5371 15.8557 0.8025
-21.5383 15.5407 0.8580
-21.5394 15.2301 0.9133
-21.5406 14.9237 0.9683
-21.5417 14.6215 1.0231
-21.5427 14.3232 1.0778
-21.4507 13.9680 1.1273
-21.4518 13.6785 1.1813
-21.4871 13.4140 1.2372
-21.5374 13.1611 1.2940
-21.5384 12.8808 1.3478
-21.5395 12.6038 1.4015
-21.5405 12.3298 1.4551
-21.5414 12.0589 1.5086
-21.5424 11.7908 1.5620
-21.5434 11.5256 1.6153
-21.5443 11.2631 1.6686
-21.5453 11.0033 1.7219
-21.5462 10.7459 1.7751
-21.5471 10.4911 1.8283
-21.5481 10.2386 1.8815
-21.5490 9.9883 1.9346
-21.5499 9.7403 1.9878
-21.5507 9.4945 2.0410
-21.5516 9.2506 2.0943
-21.5525 9.0088 2.1475
-21.4761 8.7374 2.1930
-21.4706 8.4977 2.2455
-21.4714 8.2623 2.2988
-21.5623 8.0623 2.3620
-21.5631 7.8293 2.4156
-21.5640 7.5979 2.4694
-21.5648 7.3680 2.5232
-21.5656 7.1396 2.5772
-22.0139 7.0561 2.6859
-21.5692 6.6876 2.6858
-21.1418 6.3348 2.6858
-20.7297 5.9967 2.6858
-20.3323 5.6723 2.6858
-19.9486 5.3609 2.6858
-19.6608 5.0830 2.6972
-19.6491 4.8806 2.7459
-19.6405 4.6801 2.7951
-19.5887 4.4707 2.8382
-19.2448 4.1995 2.8382
-18.9115 3.9381 2.8382
-18.5882 3.6860 2.8382
-18.2743 3.4428 2.8382
-17.9694 3.2080 2.8382
-17.6732 2.9812 2.8382
-17.3851 2.7620 2.8382
-17.1048 2.5501 2.8382
-16.8321 2.3452 2.8382
-16.5664 2.1468 2.8382
-16.3075 1.9548 2.8382
-16.0552 1.7688 2.8382
-15.8092 1.5886 2.8382
-15.5691 1.4140 2.8382
-15.3348 1.2447 2.8382
-15.1059 1.0804 2.8382
-14.8824 0.9210 2.8382
-14.6639 0.7663 2.8382
-14.4503 0.6161 2.8382
-14.2414 0.4701 2.8382
-14.0371 0.3284 2.8382
-13.8370 0.1905 2.8382
-13.6411 0.0566 2.8382
-13.4493 -0.0737 2.8382
-13.2613 -0.2005 2.8382
-13.0770 -0.3238 2.8382
-12.8964 -0.4439 2.8382
-12.7192 -0.5607 2.8382
-12.5455 -0.6746 2.8382
-12.3749 -0.7854 2.8382
-12.2075 -0.8935 2.8382
-12.0431 -0.9987 2.8382
-11.8816 -1.1013 2.8382
-11.7230 -1.2013 2.8382
-11.5671 -1.2989 2.8382
-11.4139 -1.3940 2.8382
-11.2632 -1.4868 2.8382
-11.1151 -1.5774 2.8382
-10.9693 -1.6658 2.8382
-10.8259 -1.7521 2.8382
-10.6847 -1.8363 2.8382
-10.5457 -1.9186 2.8382
-10.4089 -1.9989 2.8382
-10.2741 -2.0773 2.8382
-10.1413 -2.1540 2.8382
-10.0105 -2.2289 2.8382
-9.8816 -2.3021 2.8382
-9.7545 -2.3737 2.8382
-9.1121 -2.3124 2.6858
-7.2637 -1.9196 2.1688
-7.4370 23.1502 -0.6969
-7.5770 22.8228 -0.6680
-7.9570 23.2118 -0.6593
-7.0325 14.3342 -0.2030
-21.4811 32.0116 0.2761
-21.4835 31.3597 0.3329
-21.4858 30.7258 0.3890
-21.4881 30.1093 0.4444
-21.4070 29.3947 0.4973
-21.4934 28.9259 0.5536
-21.4955 28.3565 0.6073
-21.4975 27.8015 0.6605
-21.4995 27.2601 0.7133
-21.5015 26.7318 0.7656
-21.5034 26.2160 0.8175
-21.5053 25.7122 0.8689
-21.5071 25.2200 0.9201
-21.5089 24.7387 0.9708
-21.4181 24.1638 1.0168
-21.5033 23.7976 1.0709
-21.5049 23.3470 1.1207
-21.5066 22.9058 1.1702
-21.5082 22.4735 1.2194
-21.5097 22.0498 1.2685
-21.5113 21.6344 1.3173
-6.4550 6.3692 0.4098
-6.5608 6.3513 0.4313
-21.5157 20.4350 1.4625
-21.5171 20.0497 1.5106
-7.0163 6.4140 0.5082
-6.9558 6.2381 0.5192
-6.8971 6.0680 0.5301
-6.8403 5.9035 0.5408
-21.5276 18.2247 1.7493
-21.5289 17.8770 1.7967
-21.5302 17.5348 1.8440
-21.5314 17.1979 1.8913
-21.5326 16.8661 1.9385
-21.5338 16.5392 1.9856
-21.5350 16.2172 2.0327
-21.5362 15.8998 2.0799
-21.5373 15.5868 2.1270
-21.5385 15.2782 2.1740
-21.5396 14.9737 2.2212
-21.5407 14.6732 2.2683
-21.5418 14.3766 2.3154
-21.4497 14.0229 2.3524
-21.4508 13.7349 2.3994
-21.4613 13.4565 2.4476
-21.5364 13.2207 2.5033
-21.5375 12.9418 2.5507
-21.5385 12.6661 2.5982
-21.8658 12.5813 2.6858
-21.4797 12.0896 2.6858
-21.1065 11.6176 2.6858
-20.7452 11.1639 2.6858
-20.3953 10.7276 2.6858
-20.0561 10.3079 2.6858
-19.7271 9.9024 2.6858
-19.6425 9.6293 2.7183
-19.6351 9.3961 2.7614
-19.6276 9.1650 2.8046
-19.5537 8.9058 2.8382
-19.2527 8.5494 2.8382
-18.9598 8.2052 2.8382
-18.6745 7.8726 2.8382
-18.3967 7.5510 2.8382
-18.1260 7.2399 2.8382
-17.8620 6.9390 2.8382
-17.6044 6.6476 2.8382
-17.3531 6.3655 2.8382
-17.1078 6.0921 2.8382
-16.8681 5.8272 2.8382
-16.6340 5.5703 2.8382
-16.4051 5.3212 2.8382
-16.1813 5.0795 2.8382
-15.9624 4.8449 2.8382
-15.7481 4.6171 2.8382
-15.5385 4.3959 2.8382
-15.3331 4.1810 2.8382
-15.1320 3.9722 2.8382
-14.9349 3.7692 2.8382
-14.7417 3.5718 2.8382
-14.5523 3.3798 2.8382
-14.3665 3.1930 2.8382
-14.1843 3.0112 2.8382
-14.0054 2.8342 2.8382
-13.8299 2.6620 2.8382
-13.6575 2.4941 2.8382
-13.4882 2.3307 2.8382
-13.3219 2.1714 2.8382
-13.1584 2.0162 2.8382
-12.9978 1.8648 2.8382
-12.8399 1.7173 2.8382
-12.6846 1.5733 2.8382
-12.5318 1.4330 2.8382
-12.3815 1.2960 2.8382
-11.8036 0.7802 2.8382
-12.2336 1.1624 2.8382
-11.6646 0.6588 2.8382
-12.0880 1.0319 2.8382
-11.5276 0.5402 2.8382
-11.9447 0.9046 2.8382
-11.3927 0.4243 2.8382
-11.1286 0.2005 2.8382
-11.2597 0.3111 2.8382
-10.9994 0.0923 2.8382
-10.5000 -0.3167 2.8382
-10.8720 -0.0134 2.8382
-10.3793 -0.4134 2.8382
-10.7463 -0.1168 2.8382
-10.2602 -0.5081 2.8382
-10.6223 -0.2179 2.8382
-10.1425 -0.6006 2.8382
-9.9118 -0.7798 2.8382
-10.0264 -0.6912 2.8382
-9.7985 -0.8666 2.8382
-8.8565 -1.1317 2.6858
-9.1665 -0.9005 2.6858
-8.7556 -1.2056 2.6858
-9.0620 -0.9792 2.6858
-8.6558 -1.2779 2.6858
-8.9586 -1.0562 2.6858
-8.5571 -1.3489 2.6858
-8.3631 -1.4864 2.6858
-8.4596 -1.4183 2.6858
-8.2677 -1.5531 2.6858
-8.1733 -1.6184 2.6858
-8.0799 -1.6825 2.6858
-7.9874 -1.7452 2.6858
-7.8960 -1.8068 2.6858
-7.8054 -1.8671 2.6858
-7.7158 -1.9263 2.6858
-21.4366 44.3629 1.6482
-7.0862 14.3146 0.5543
-21.4444 42.2992 1.7062
-21.4480 41.3246 1.7355
-21.3662 40.2242 1.7580
-21.4527 39.4745 1.7946
-21.4560 38.5993 1.8246
-21.4592 37.7537 1.8548
-21.4622 36.9360 1.8852
-21.4652 36.1446 1.9158
-21.4681 35.3782 1.9466
-21.3876 34.5012 1.9699
-21.4728 33.9142 2.0086
-21.4754 33.2154 2.0400
-21.4779 32.5369 2.0715
-21.4804 31.8777 2.1032
-21.4828 31.2369 2.1351
-21.4851 30.6136 2.1672
-21.4874 30.0069 2.1995
-21.4062 29.3021 2.2233
-21.4926 28.8419 2.2647
-21.4947 28.2809 2.2975
-21.4967 27.7338 2.3305
-21.4987 27.2000 2.3636
-21.5007 26.6789 2.3970
-21.5026 26.1699 2.4305
-21.5044 25.6727 2.4642
-21.5062 25.1865 2.4981
-21.5080 24.7111 2.5322
-21.4173 24.1418 2.5554
-21.5024 23.7808 2.5998
-21.9244 23.7914 2.6859
-21.6390 23.0408 2.6857
-21.3612 22.3185 2.6858
-21.0884 21.6207 2.6858
-20.8211 20.9471 2.6858
-20.5591 20.2965 2.6858
-20.3022 19.6678 2.6858
-20.0502 19.0602 2.6858
-19.8031 18.4727 2.6858
-7.0480 6.4512 0.9677
-7.1831 6.4514 0.9984
-19.6158 17.2861 2.7599
-19.6106 16.9558 2.7927
-19.6053 16.6308 2.8256
-19.4595 16.1942 2.8382
-19.2302 15.6991 2.8382
-19.0051 15.2191 2.8382
-18.7838 14.7537 2.8382
-18.5664 14.3022 2.8382
-18.3528 13.8642 2.8382
-18.1427 13.4390 2.8382
-17.9362 13.0264 2.8382
-17.7332 12.6256 2.8382
-17.5335 12.2364 2.8382
-17.3370 11.8582 2.8382
-17.1437 11.4907 2.8382
-16.9535 11.1334 2.8382
-16.7664 10.7860 2.8382
-16.5821 10.4482 2.8382
-16.4008 10.1197 2.8382
-16.2222 9.7999 2.8382
-16.0463 9.4888 2.8382
-15.8731 9.1859 2.8382
-15.7025 8.8910 2.8382
-15.5344 8.6039 2.8382
-15.3688 8.3241 2.8382
-15.2056 8.0516 2.8382
-15.0447 7.7860 2.8382
-14.8861 7.5272 2.8382
-14.7297 7.2749 2.8382
-14.5755 7.0289 2.8382
-14.4235 6.7890 2.8382
-14.2735 6.5550 2.8382
-14.1256 6.3267 2.8382
-13.9796 6.1039 2.8382
-13.8356 5.8866 2.8382
-13.6935 5.6744 2.8382
-13.5532 5.4672 2.8382
-13.4148 5.2649 2.8382
-13.2781 5.0674 2.8382
-13.1431 4.8744 2.8382
-13.0099 4.6859 2.8382
-12.8783 4.5018 2.8382
-12.7483 4.3218 2.8382
-12.6199 4.1459 2.8382
-12.4931 3.9740 2.8382
-12.3677 3.8058 2.8382
-12.2439 3.6415 2.8382
-12.0005 3.3236 2.8382
-12.1215 3.4807 2.8382
-11.8809 3.1697 2.8382
-11.4160 2.5870 2.8382
-11.7628 3.0193 2.8382
-11.3030 2.4490 2.8382
-11.6459 2.8720 2.8382
-11.1912 2.3139 2.8382
-11.5303 2.7280 2.8382
-11.0806 2.1816 2.8382
-10.8629 1.9252 2.8382
-10.9712 2.0521 2.8382
-10.7558 1.8010 2.8382
-10.3382 1.3288 2.8382
-10.6498 1.6793 2.8382
-10.2364 1.2166 2.8382
-10.5449 1.5600 2.8382
-10.1357 1.1067 2.8382
-10.4410 1.4433 2.8382
-10.0359 0.9990 2.8382
-9.8392 0.7899 2.8382
-9.9371 0.8934 2.8382
-9.7423 0.6883 2.8382
-8.8607 0.2853 2.6858
-9.1283 0.5571 2.6858
-8.7732 0.1982 2.6858
-9.0383 0.4647 2.6858
-8.6864 0.1127 2.6858
-8.9491 0.3742 2.6858
-8.6004 0.0288 2.6858
-8.4307 -0.1342 2.6858
-8.5151 -0.0534 2.6858
-8.3469 -0.2134 2.6858
-8.0189 -0.5159 2.6858
-8.2638 -0.2912 2.6858
-7.9386 -0.5881 2.6858
-8.1815 -0.3675 2.6858
-7.8589 -0.6589 2.6858
-8.0998 -0.4424 2.6858
-7.7799 -0.7285 2.6858
-7.6238 -0.8638 2.6858
-7.7015 -0.7967 2.6858
-7.5466 -0.9296 2.6858
-7.2439 -1.1814 2.6858
-7.4701 -0.9943 2.6858
-7.1697 -1.2415 2.6858
-7.3941 -1.0578 2.6858
-7.0959 -1.3006 2.6858
-7.3187 -1.1201 2.6858
-7.0228 -1.3586 2.6858
-6.9501 -1.4157 2.6858
-6.8780 -1.4717 2.6858
-6.8064 -1.5267 2.6858
-6.7353 -1.5808 2.6858
-13.1824 42.2368 2.8382
-13.4008 41.5512 2.8382
-13.6069 40.8639 2.8382
-13.8009 40.1760 2.8382
-13.9831 39.4880 2.8382
-14.1537 38.8012 2.8382
-14.3131 38.1160 2.8382
-14.4614 37.4333 2.8382
-14.5991 36.7536 2.8382
-14.7264 36.0778 2.8382
-14.8435 35.4063 2.8382
-14.9509 34.7396 2.8382
-15.0489 34.0784 2.8382
-15.1376 33.4229 2.8382
-15.2176 32.7738 2.8382
-15.2890 32.1312 2.8382
-15.3522 31.4957 2.8382
-15.4075 30.8674 2.8382
-15.4552 30.2467 2.8382
-15.4956 29.6337 2.8382
-15.5290 29.0287 2.8382
-15.5557 28.4320 2.8382
-15.5759 27.8436 2.8382
-15.5900 27.2636 2.8382
-15.5981 26.6921 2.8382
-15.6007 26.1294 2.8382
-15.5979 25.5754 2.8382
-15.5900 25.0302 2.8382
-15.5771 24.4937 2.8382
-15.5597 23.9661 2.8382
-15.5377 23.4473 2.8382
-15.5117 22.9374 2.8382
-15.4815 22.4361 2.8382
-15.4477 21.9436 2.8382
-15.4102 21.4598 2.8382
-15.3693 20.9846 2.8382
-15.3252 20.5179 2.8382
-15.2780 20.0598 2.8382
-15.2279 19.6099 2.8382
-15.1752 19.1684 2.8382
-15.1198 18.7351 2.8382
-15.0621 18.3099 2.8382
-15.0020 17.8928 2.8382
-14.9398 17.4834 2.8382
-14.8757 17.0819 2.8382
-14.8096 16.6881 2.8382
-14.7417 16.3018 2.8382
-14.6722 15.9229 2.8382
-14.6011 15.5513 2.8382
-14.5286 15.1869 2.8382
-14.4548 14.8296 2.8382
-14.3797 14.4793 2.8382
-14.3034 14.1357 2.8382
-14.2261 13.7989 2.8382
-14.1478 13.4686 2.8382
-7.1172 6.6499 1.4358
-7.0090 6.4272 1.4221
-7.1361 6.4221 1.4563
-13.8260 12.2109 2.8382
-13.7438 11.9117 2.8382
-13.6610 11.6183 2.8382
-13.5777 11.3307 2.8382
-13.4939 11.0487 2.8382
-13.4097 10.7722 2.8382
-13.3251 10.5012 2.8382
-13.2402 10.2354 2.8382
-13.1550 9.9748 2.8382
-13.0697 9.7193 2.8382
-12.9840 9.4687 2.8382
-12.8983 9.2230 2.8382
-12.8124 8.9820 2.8382
-12.7264 8.7457 2.8382
-12.6403 8.5140 2.8382
-12.5542 8.2868 2.8382
-12.4682 8.0639 2.8382
-12.3821 7.8453 2.8382
-12.2961 7.6309 2.8382
-12.2101 7.4206 2.8382
-12.1243 7.2143 2.8382
-12.0386 7.0119 2.8382
-11.9530 6.8134 2.8382
-11.8675 6.6186 2.8382
-11.7823 6.4275 2.8382
-11.6972 6.2401 2.8382
-11.6123 6.0561 2.8382
-11.5276 5.8755 2.8382
-11.4432 5.6984 2.8382
-11.3590 5.5245 2.8382
-11.2751 5.3540 2.8382
-11.1914 5.1865 2.8382
-11.1080 5.0222 2.8382
-11.0249 4.8609 2.8382
-10.9421 4.7025 2.8382
-10.8595 4.5471 2.8382
-10.7773 4.3945 2.8382
-10.6954 4.2447 2.8382
-10.6139 4.0976 2.8382
-10.5326 3.9532 2.8382
-10.4517 3.8114 2.8382
-10.3711 3.6721 2.8382
-10.2909 3.5354 2.8382
-10.2110 3.4011 2.8382
-10.1314 3.2692 2.8382
-10.0523 3.1396 2.8382
-9.9734 3.0124 2.8382
-9.8949 2.8874 2.8382
-9.8168 2.7646 2.8382
-9.7391 2.6440 2.8382
-9.1429 2.3898 2.6858
-9.0700 2.2797 2.6858
-8.9974 2.1714 2.6858
-8.9252 2.0651 2.6858
-8.8533 1.9605 2.6858
-8.7818 1.8578 2.6858
-8.7106 1.7569 2.6858
-8.6398 1.6577 2.6858
-8.5693 1.5602 2.6858
-8.4992 1.4643 2.6858
-8.4294 1.3701 2.6858
-8.3599 1.2776 2.6858
-8.2908 1.1865 2.6858
-8.2221 1.0971 2.6858
-8.1536 1.0091 2.6858
-8.0855 0.9226 2.6858
-8.0178 0.8376 2.6858
-7.9504 0.7540 2.6858
-7.8833 0.6718 2.6858
-7.8165 0.5910 2.6858
-7.7501 0.5115 2.6858
-7.6840 0.4333 2.6858
-7.6182 0.3565 2.6858
-7.5528 0.2809 2.6858
-7.4876 0.2065 2.6858
-7.4228 0.1334 2.6858
-7.3583 0.0615 2.6858
-7.2942 -0.0092 2.6858
-7.2303 -0.0788 2.6858
-7.1668 -0.1473 2.6858
-7.1035 -0.2146 2.6858
-7.0406 -0.2809 2.6858
-6.9779 -0.3460 2.6858
-6.9156 -0.4101 2.6858
-6.8536 -0.4732 2.6858
-6.7918 -0.5353 2.6858
-6.7304 -0.5963 2.6858
-6.6692 -0.6564 2.6858
-6.6083 -0.7155 2.6858
-6.5477 -0.7736 2.6858
-6.4874 -0.8308 2.6858
-6.4274 -0.8872 2.6858
-6.3677 -0.9426 2.6858
-6.3082 -0.9971 2.6858
-6.2490 -1.0508 2.6858
-6.1901 -1.1035 2.6858
-6.1314 -1.1555 2.6858
-6.0730 -1.2066 2.6858
-6.0148 -1.2570 2.6858
-5.9569 -1.3065 2.6858
-7.1210 23.1560 2.6858
-7.2802 22.9111 2.6858
-7.4347 22.6629 2.6858
-7.5844 22.4115 2.6858
-7.7293 22.1572 2.6858
-7.8694 21.9003 2.6858
-8.0047 21.6410 2.6858
-8.1353 21.3796 2.6858
-8.2611 21.1163 2.6858
-8.3823 20.8514 2.6858
-8.4987 20.5851 2.6858
-8.6106 20.3176 2.6858
-8.7178 20.0492 2.6858
-8.8206 19.7799 2.6858
-8.9189 19.5102 2.6858
-9.0127 19.2400 2.6858
-9.1022 18.9701 2.6858
-7.0373 14.3230 2.0572
-9.7944 19.4750 2.8382
-9.8756 19.1899 2.8382
-9.9525 18.9053 2.8382
-10.0252 18.6215 2.8382
-10.0937 18.3385 2.8382
-10.1582 18.0565 2.8382
-10.2187 17.7756 2.8382
-10.2753 17.4959 2.8382
-10.3281 17.2177 2.8382
-10.3772 16.9410 2.8382
-10.4226 16.6659 2.8382
-10.4645 16.3925 2.8382
-10.5029 16.1208 2.8382
-10.5379 15.8512 2.8382
-10.5696 15.5835 2.8382
-10.5982 15.3178 2.8382
-10.6236 15.0543 2.8382
-10.6459 14.7929 2.8382
-10.6654 14.5339 2.8382
-10.6819 14.2772 2.8382
-10.6957 14.0228 2.8382
-10.7068 13.7709 2.8382
-10.7152 13.5213 2.8382
-10.7211 13.2744 2.8382
-10.7246 13.0299 2.8382
-10.7256 12.7880 2.8382
-10.7243 12.5487 2.8382
-10.7208 12.3120 2.8382
-10.7152 12.0779 2.8382
-10.7074 11.8465 2.8382
-10.6976 11.6177 2.8382
-10.6858 11.3916 2.8382
-10.6722 11.1682 2.8382
-10.6567 10.9474 2.8382
-10.6395 10.7293 2.8382
-10.6205 10.5139 2.8382
-10.5999 10.3012 2.8382
-10.5778 10.0911 2.8382
-7.1357 6.6825 1.9189
-7.0016 6.4363 1.8874
-7.0801 6.3888 1.9134
-7.2063 6.3827 1.9527
-10.4452 9.0806 2.8382
-10.4147 8.8863 2.8382
-10.3830 8.6947 2.8382
-10.3501 8.5055 2.8382
-10.3161 8.3190 2.8382
-10.2811 8.1350 2.8382
-10.2450 7.9535 2.8382
-10.2079 7.7746 2.8382
-10.1699 7.5980 2.8382
-10.1310 7.4240 2.8382
-10.0912 7.2523 2.8382
-10.0506 7.0831 2.8382
-10.0092 6.9162 2.8382
-9.9671 6.7517 2.8382
-9.9242 6.5895 2.8382
-9.8806 6.4296 2.8382
-9.8364 6.2720 2.8382
-9.7915 6.1166 2.8382
-9.7460 5.9634 2.8382
-9.7000 5.8125 2.8382
-9.1351 5.3598 2.6858
-9.0905 5.2209 2.6858
-9.0455 5.0841 2.6858
-9.0000 4.9494 2.6858
-8.9541 4.8165 2.6858
-8.9078 4.6856 2.6858
-8.6712 4.0592 2.6858
-8.8612 4.5567 2.6858
-8.6229 3.9394 2.6858
-8.8142 4.4295 2.6858
-8.5744 3.8213 2.6858
-8.7668 4.3043 2.6858
-8.5257 3.7049 2.6858
-8.7191 4.1808 2.6858
-8.4767 3.5903 2.6858
-8.4275 3.4772 2.6858
-8.1788 2.9367 2.6858
-8.3781 3.3659 2.6858
-8.1286 2.8333 2.6858
-8.3285 3.2562 2.6858
-8.0782 2.7314 2.6858
-8.2787 3.1482 2.6858
-8.0278 2.6310 2.6858
-8.2288 3.0417 2.6858
-7.9773 2.5321 2.6858
-7.9266 2.4347 2.6858
-7.6724 1.9684 2.6858
-7.8759 2.3386 2.6858
-7.6215 1.8792 2.6858
-7.8251 2.2440 2.6858
-7.5704 1.7913 2.6858
-7.7743 2.1508 2.6858
-7.5194 1.7047 2.6858
-7.7234 2.0589 2.6858
-7.4683 1.6194 2.6858
-7.4173 1.5353 2.6858
-7.1621 1.1329 2.6858
-7.3662 1.4525 2.6858
-7.1111 1.0559 2.6858
-7.3152 1.3708 2.6858
-7.0601 0.9801 2.6858
-7.2641 1.2903 2.6858
-7.0092 0.9054 2.6858
-7.2131 1.2111 2.6858
-6.9583 0.8317 2.6858
-6.9075 0.7591 2.6858
-6.6541 0.4117 2.6858
-6.8567 0.6876 2.6858
-6.6036 0.3452 2.6858
-6.8060 0.6171 2.6858
-6.5532 0.2797 2.6858
-6.4024 0.0888 2.6858
-6.7553 0.5476 2.6858
-6.5029 0.2151 2.6858
-6.1527 -0.2113 2.6858
-6.3523 0.0270 2.6858
-6.7047 0.4791 2.6858
-6.4526 0.1515 2.6858
-6.1030 -0.2688 2.6858
-6.3023 -0.0339 2.6858
-5.9053 -0.4904 2.6858
-5.7243 -0.7583 2.7162
-6.0535 -0.3254 2.6858
-6.2523 -0.0939 2.6858
-5.8561 -0.5438 2.6858
-5.7208 -0.8150 2.7381
-6.0040 -0.3812 2.6858
-6.2025 -0.1531 2.6858
-5.8070 -0.5964 2.6858
-5.7172 -0.8719 2.7603
-5.9546 -0.4362 2.6858
-5.7579 -0.6483 2.6858
-5.7136 -0.9289 2.7828
-5.7277 -0.7017 2.6946
-5.7099 -0.9862 2.8056
-5.7062 -1.0438 2.8288
-5.6743 -1.0960 2.8382
-5.6235 -1.1440 2.8382
-5.2054 17.1851 2.8382
-5.3343 17.0440 2.8382
-5.4605 16.9003 2.8382
-5.5839 16.7541 2.8382
-5.6646 16.4893 2.8184
-5.6744 16.0365 2.7661
-5.6837 15.6051 2.7169
-5.7247 15.2795 2.6858
-5.8282 15.1309 2.6858
-5.9289 14.9807 2.6858
-6.0270 14.8288 2.6858
-6.1224 14.6755 2.6858
-6.2150 14.5208 2.6858
-6.3050 14.3649 2.6858
-6.3923 14.2078 2.6858
-6.4769 14.0496 2.6858
-6.5588 13.8905 2.6858
-6.6381 13.7305 2.6858
-6.7147 13.5698 2.6858
-6.7887 13.4085 2.6858
-6.8601 13.2465 2.6858
-6.9290 13.0840 2.6858
-6.9952 12.9212 2.6858
-7.0590 12.7581 2.6858
-7.1202 12.5947 2.6858
-7.1790 12.4312 2.6858
-7.2353 12.2676 2.6858
-7.2892 12.1041 2.6858
-7.3407 11.9406 2.6858
-7.3898 11.7773 2.6858
-7.4367 11.6141 2.6858
-7.4812 11.4513 2.6858
-7.5235 11.2888 2.6858
-7.5636 11.1267 2.6858
-7.6014 10.9650 2.6858
-7.6372 10.8040 2.6858
-7.6708 10.6434 2.6858
-7.7024 10.4835 2.6858
-7.7319 10.3242 2.6858
-7.7594 10.1657 2.6858
-7.7850 10.0079 2.6858
-7.8086 9.8509 2.6858
-7.8304 9.6947 2.6858
-7.8503 9.5394 2.6858
-7.8684 9.3851 2.6858
-7.8848 9.2316 2.6858
-7.8994 9.0792 2.6858
-7.9123 8.9277 2.6858
-7.9236 8.7773 2.6858
-7.9332 8.6280 2.6858
-7.9413 8.4797 2.6858
-7.9478 8.3326 2.6858
-7.9528 8.1865 2.6858
-7.9564 8.0417 2.6858
-7.9585 7.8979 2.6858
-7.9592 7.7554 2.6858
-7.9585 7.6140 2.6858
-7.9565 7.4739 2.6858
-7.0253 6.4792 2.3724
-7.0197 6.3561 2.3719
-7.1430 6.3498 2.4154
-7.2687 6.3434 2.4600
-7.9277 6.7917 2.6858
-7.9184 6.6590 2.6858
-7.9080 6.5277 2.6858
-7.8965 6.3975 2.6858
-7.8840 6.2687 2.6858
-7.8704 6.1411 2.6858
-7.8559 6.0148 2.6858
-7.8404 5.8898 2.6858
-7.8240 5.7661 2.6858
-7.8066 5.6437 2.6858
-7.7884 5.5226 2.6858
-7.7693 5.4027 2.6858
-7.7495 5.2841 2.6858
-7.7288 5.1668 2.6858
-7.7073 5.0507 2.6858
-7.6851 4.9360 2.6858
-7.6621 4.8225 2.6858
-7.6384 4.7103 2.6858
-7.6141 4.5993 2.6858
-7.5891 4.4895 2.6858
-7.5634 4.3810 2.6858
-7.5371 4.2737 2.6858
-7.5102 4.1677 2.6858
-7.4827 4.0628 2.6858
-7.4547 3.9593 2.6858
-7.4261 3.8568 2.6858
-7.3970 3.7556 2.6858
-7.3674 3.6556 2.6858
-7.3373 3.5567 2.6858
-7.3067 3.4591 2.6858
-7.2757 3.3626 2.6858
-7.2442 3.2672 2.6858
-7.2123 3.1729 2.6858
-7.1799 3.0798 2.6858
-7.1472 2.9879 2.6858
-7.1141 2.8971 2.6858
-7.0806 2.8073 2.6858
-7.0468 2.7186 2.6858
-7.0126 2.6310 2.6858
-6.9781 2.5445 2.6858
-6.9433 2.4591 2.6858
-6.9082 2.3747 2.6858
-6.8728 2.2913 2.6858
-6.8371 2.2090 2.6858
-6.8012 2.1277 2.6858
-6.7649 2.0474 2.6858
-6.7285 1.9681 2.6858
-6.6918 1.8898 2.6858
-6.6548 1.8125 2.6858
-6.6177 1.7361 2.6858
-6.5803 1.6607 2.6858
-6.5428 1.5862 2.6858
-6.5050 1.5127 2.6858
-6.4671 1.4402 2.6858
-6.4290 1.3685 2.6858
-6.3907 1.2978 2.6858
-6.3523 1.2279 2.6858
-6.3137 1.1589 2.6858
-6.2750 1.0908 2.6858
-6.2361 1.0236 2.6858
-6.1971 0.9572 2.6858
-6.1580 0.8917 2.6858
-6.1188 0.8270 2.6858
-6.0794 0.7631 2.6858
-6.0400 0.7001 2.6858
-6.0005 0.6379 2.6858
-5.9608 0.5764 2.6858
-5.9211 0.5158 2.6858
-5.8813 0.4559 2.6858
-5.8414 0.3969 2.6858
-5.8015 0.3386 2.6858
-5.7615 0.2810 2.6858
-5.7265 0.2243 2.6882
-5.7237 0.1693 2.7059
-5.7208 0.1143 2.7238
-5.7180 0.0593 2.7420
-5.7150 0.0043 2.7604
-5.7120 -0.0507 2.7792
-5.7090 -0.1058 2.7981
-5.7059 -0.1609 2.8174
-5.7028 -0.2160 2.8370
-5.6626 -0.2695 2.8382
-5.6198 -0.3221 2.8382
-5.5770 -0.3741 2.8382
-5.5342 -0.4254 2.8382
-5.4913 -0.4759 2.8382
-5.4485 -0.5259 2.8382
-5.4056 -0.5751 2.8382
-5.3628 -0.6237 2.8382
-5.3199 -0.6717 2.8382
-5.2770 -0.7192 2.8382
-5.2342 -0.7657 2.8382
-5.1913 -0.8118 2.8382
-5.1484 -0.8573 2.8382
-5.1056 -0.9021 2.8382
-5.0627 -0.9464 2.8382
-3.9383 13.2059 2.8382
-4.0410 13.1149 2.8382
-4.1420 13.0219 2.8382
-4.2413 12.9271 2.8382
-4.3388 12.8305 2.8382
-4.4345 12.7321 2.8382
-4.5285 12.6321 2.8382
-4.6206 12.5304 2.8382
-4.7109 12.4271 2.8382
-4.7993 12.3224 2.8382
-4.8859 12.2163 2.8382
-4.9706 12.1088 2.8382
-5.0535 12.0001 2.8382
-5.1344 11.8901 2.8382
-5.2135 11.7790 2.8382
-5.2907 11.6667 2.8382
-5.3660 11.5535 2.8382
-5.4394 11.4393 2.8382
-5.5109 11.3242 2.8382
-5.5805 11.2082 2.8382
-5.6483 11.0915 2.8382
-5.6781 10.9050 2.8203
-5.6834 10.6782 2.7917
-5.6885 10.4583 2.7645
-5.6933 10.2452 2.7386
-5.6980 10.0385 2.7140
-5.7024 9.8379 2.6905
-5.7441 9.7065 2.6858
-5.7942 9.5920 2.6858
-5.8425 9.4773 2.6858
-5.8892 9.3623 2.6858
-5.9342 9.2472 2.6858
-5.9775 9.1319 2.6858
-6.0191 9.0166 2.6858
-6.0592 8.9012 2.6858
-6.0976 8.7858 2.6858
-6.1344 8.6704 2.6858
-6.1697 8.5551 2.6858
-6.2034 8.4399 2.6858
-6.2355 8.3248 2.6858
-6.2661 8.2100 2.6858
-6.2953 8.0953 2.6858
-6.3229 7.9809 2.6858
-6.3491 7.8668 2.6858
-6.3738 7.7530 2.6858
-6.3972 7.6395 2.6858
-6.4191 7.5264 2.6858
-6.4396 7.4136 2.6858
-6.4588 7.3013 2.6858
-6.4767 7.1895 2.6858
-6.4933 7.0781 2.6858
-6.5085 6.9672 2.6858
-6.5225 6.8568 2.6858
-6.5353 6.7469 2.6858
-6.5468 6.6376 2.6858
-6.5571 6.5289 2.6858
-6.5663 6.4208 2.6858
-6.5743 6.3132 2.6858
-6.5811 6.2063 2.6858
-6.5869 6.1001 2.6858
-6.5915 5.9945 2.6858
-6.5951 5.8895 2.6858
-6.5976 5.7853 2.6858
-6.5992 5.6817 2.6858
-6.5996 5.5788 2.6858
-6.5992 5.4767 2.6858
-6.5977 5.3753 2.6858
-6.5953 5.2746 2.6858
-6.5920 5.1746 2.6858
-6.5877 5.0754 2.6858
-6.5826 4.9770 2.6858
-6.5766 4.8794 2.6858
-6.5698 4.7825 2.6858
-6.5621 4.6863 2.6858
-6.5536 4.5910 2.6858
-6.5444 4.4965 2.6858
-6.5343 4.4028 2.6858
-6.5235 4.3098 2.6858
-6.5120 4.2176 2.6858
-6.4998 4.1262 2.6858
-6.4868 4.0357 2.6858
-6.4732 3.9459 2.6858
-6.4589 3.8570 2.6858
-6.4439 3.7688 2.6858
-6.4283 3.6815 2.6858
-6.4121 3.5950 2.6858
-6.3953 3.5092 2.6858
-6.3778 3.4243 2.6858
-6.3599 3.3402 2.6858
-6.3413 3.2569 2.6858
-6.3222 3.1743 2.6858
-6.3026 3.0926 2.6858
-6.2825 3.0117 2.6858
-6.2618 2.9316 2.6858
-6.2407 2.8523 2.6858
-6.2191 2.7738 2.6858
-6.1970 2.6960 2.6858
-6.1744 2.6191 2.6858
-6.1515 2.5429 2.6858
-6.1281 2.4675 2.6858
-6.1043 2.3929 2.6858
-6.0800 2.3191 2.6858
-6.0554 2.2460 2.6858
-6.0304 2.1737 2.6858
-6.0051 2.1021 2.6858
-5.9793 2.0313 2.6858
-5.9533 1.9612 2.6858
-5.9268 1.8920 2.6858
-5.9001 1.8234 2.6858
-5.8730 1.7555 2.6858
-5.8456 1.6885 2.6858
-5.8180 1.6221 2.6858
-5.7900 1.5564 2.6858
-5.7617 1.4915 2.6858
-5.7332 1.4277 2.6858
-5.7227 1.3682 2.6944
-5.7206 1.3114 2.7073
-5.7186 1.2548 2.7204
-5.7165 1.1984 2.7337
-5.7144 1.1423 2.7472
-5.7122 1.0863 2.7610
-5.7100 1.0304 2.7751
-5.7078 0.9748 2.7893
-5.7055 0.9193 2.8039
-5.7032 0.8638 2.8186
-5.7008 0.8086 2.8337
-5.6770 0.7506 2.8382
-5.6438 0.6920 2.8382
-5.6104 0.6341 2.8382
-5.5768 0.5769 2.8382
-5.5431 0.5203 2.8382
-5.5092 0.4644 2.8382
-5.4751 0.4091 2.8382
-5.4409 0.3544 2.8382
-5.4065 0.3004 2.8382
-5.3720 0.2470 2.8382
-5.3374 0.1943 2.8382
-5.3026 0.1422 2.8382
-5.2677 0.0906 2.8382
-5.2326 0.0398 2.8382
-5.1975 -0.0105 2.8382
-5.1622 -0.0602 2.8382
-5.1268 -0.1093 2.8382
-5.0913 -0.1578 2.8382
-5.0557 -0.2057 2.8382
-5.0200 -0.2531 2.8382
-4.9843 -0.2998 2.8382
-4.9484 -0.3461 2.8382
-4.9124 -0.3917 2.8382
-4.8764 -0.4368 2.8382
-4.8403 -0.4814 2.8382
-4.8041 -0.5253 2.8382
-4.7678 -0.5688 2.8382
-4.7315 -0.6118 2.8382
-4.6951 -0.6541 2.8382
-4.6586 -0.6960 2.8382
-4.6221 -0.7374 2.8382
-4.5855 -0.7782 2.8382
-3.1370 10.6895 2.8382
-3.2215 10.6249 2.8382
-3.3047 10.5589 2.8382
-3.3868 10.4914 2.8382
-3.4676 10.4225 2.8382
-3.5473 10.3523 2.8382
-3.6257 10.2807 2.8382
-3.7028 10.2078 2.8382
-3.7786 10.1337 2.8382
-3.8532 10.0584 2.8382
-3.9265 9.9819 2.8382
-3.9984 9.9043 2.8382
-4.0690 9.8256 2.8382
-4.1383 9.7459 2.8382
-4.2063 9.6652 2.8382
-4.2729 9.5835 2.8382
-4.3382 9.5009 2.8382
-4.4020 9.4174 2.8382
-4.4646 9.3331 2.8382
-4.5257 9.2480 2.8382
-4.5855 9.1622 2.8382
-4.6439 9.0756 2.8382
-4.7010 8.9883 2.8382
-4.7566 8.9005 2.8382
-4.8109 8.8120 2.8382
-4.8638 8.7229 2.8382
-4.9154 8.6334 2.8382
-4.9656 8.5433 2.8382
-5.0144 8.4528 2.8382
-5.0619 8.3619 2.8382
-5.1080 8.2706 2.8382
-5.1528 8.1789 2.8382
-5.1962 8.0870 2.8382
-5.2383 7.9947 2.8382
-5.2791 7.9024 2.8382
-5.3185 7.8095 2.8382
-5.3567 7.7166 2.8382
-5.3935 7.6236 2.8382
-5.4291 7.5304 2.8382
-5.4634 7.4372 2.8382
-5.4964 7.3439 2.8382
-5.5282 7.2505 2.8382
-5.5587 7.1572 2.8382
-5.5880 7.0638 2.8382
-5.6161 6.9705 2.8382
-5.6430 6.8772 2.8382
-5.6686 6.7841 2.8382
-5.6861 6.6829 2.8347
-5.6882 6.5655 2.8242
-5.6901 6.4505 2.8142
-5.6920 6.3376 2.8049
-5.6937 6.2267 2.7960
-5.6953 6.1179 2.7878
-5.6969 6.0109 2.7801
-5.6984 5.9059 2.7729
-5.6997 5.8026 2.7662
-5.7010 5.7010 2.7599
-5.7022 5.6012 2.7542
-5.7033 5.5029 2.7489
-5.7044 5.4062 2.7441
-5.7053 5.3111 2.7397
-5.7062 5.2173 2.7358
-5.7071 5.1250 2.7323
-5.7078 5.0342 2.7292
-5.7085 4.9446 2.7265
-5.7091 4.8562 2.7241
-5.7096 4.7692 2.7222
-5.7101 4.6833 2.7207
-5.7105 4.5987 2.7195
-5.7108 4.5151 2.7187
-5.7111 4.4326 2.7182
-5.7113 4.3512 2.7181
-5.7115 4.2709 2.7183
-5.7116 4.1915 2.7189
-5.7116 4.1131 2.7198
-5.7116 4.0356 2.7210
-5.7116 3.9590 2.7225
-5.7114 3.8833 2.7244
-5.7113 3.8085 2.7266
-5.7110 3.7345 2.7291
-5.7107 3.6613 2.7318
-5.7104 3.5889 2.7349
-5.7100 3.5172 2.7383
-5.7096 3.4463 2.7420
-5.7091 3.3760 2.7459
-5.7086 3.3065 2.7502
-5.7080 3.2377 2.7547
-5.7074 3.1694 2.7595
-5.7067 3.1018 2.7646
-5.7060 3.0348 2.7699
-5.7052 2.9684 2.7755
-5.7044 2.9026 2.7814
-5.7035 2.8373 2.7876
-5.7026 2.7725 2.7940
-5.7016 2.7083 2.8007
-5.7006 2.6446 2.8077
-5.6996 2.5814 2.8149
-5.6985 2.5187 2.8223
-5.6974 2.4563 2.8301
-5.6962 2.3945 2.8381
-5.6787 2.3263 2.8382
-5.6606 2.2587 2.8382
-5.6419 2.1917 2.8382
-5.6229 2.1253 2.8382
-5.6034 2.0595 2.8382
-5.5835 1.9943 2.8382
-5.5633 1.9297 2.8382
-5.5426 1.8657 2.8382
-5.5215 1.8022 2.8382
-5.5001 1.7394 2.8382
-5.4783 1.6772 2.8382
-5.4562 1.6155 2.8382
-5.4337 1.5544 2.8382
-5.4109 1.4940 2.8382
-5.3877 1.4340 2.8382
-5.3642 1.3747 2.8382
-5.3404 1.3160 2.8382
-5.3163 1.2578 2.8382
-5.2919 1.2002 2.8382
-5.2672 1.1431 2.8382
-5.2422 1.0867 2.8382
-5.2170 1.0308 2.8382
-5.1915 0.9755 2.8382
-5.1657 0.9207 2.8382
-5.1133 0.8128 2.8382
-5.1396 0.8665 2.8382
-4.9783 0.5527 2.8382
-4.9506 0.5022 2.8382
-4.9228 0.4523 2.8382
-5.0868 0.7597 2.8382
-4.8947 0.4029 2.8382
-4.8664 0.3541 2.8382
-4.8380 0.3058 2.8382
-4.8093 0.2580 2.8382
-4.7805 0.2107 2.8382
-5.0600 0.7071 2.8382
-4.7515 0.1639 2.8382
-4.7223 0.1176 2.8382
-4.6929 0.0719 2.8382
-4.6634 0.0266 2.8382
-5.0330 0.6551 2.8382
-4.6338 -0.0182 2.8382
-4.6040 -0.0625 2.8382
-4.5740 -0.1063 2.8382
-4.5439 -0.1496 2.8382
-4.5136 -0.1924 2.8382
-5.0058 0.6036 2.8382
-4.4832 -0.2348 2.8382
-4.4527 -0.2767 2.8382
-4.4221 -0.3181 2.8382
-4.3913 -0.3590 2.8382
-4.3604 -0.3995 2.8382
-4.3294 -0.4395 2.8382
-4.2983 -0.4790 2.8382
-4.2671 -0.5181 2.8382
-4.2357 -0.5568 2.8382
-4.2043 -0.5950 2.8382
-4.1727 -0.6328 2.8382
