ply
format ascii 1.0
element vertex 2123
property float32 x
property float32 y
property float32 z
end_header
6.5123 1.4699 -1.6803
6.5124 1.5370 -1.7038
6.5124 1.6045 -1.7276
6.5125 1.6723 -1.7516
6.5125 1.7406 -1.7759
6.5126 1.8092 -1.8005
6.5126 1.8784 -1.8253
6.5127 1.9479 -1.8505
6.5127 2.0180 -1.8760
6.5128 2.0886 -1.9017
6.5128 2.1596 -1.9278
6.5129 2.2313 -1.9543
6.5129 2.3035 -1.9811
6.5130 2.3762 -2.0082
6.5130 2.4496 -2.0357
6.5131 2.5236 -2.0635
6.5131 2.5983 -2.0918
6.5132 2.6736 -2.1204
6.5132 2.7496 -2.1494
6.5133 2.8264 -2.1789
6.5134 2.9039 -2.2088
6.5134 2.9822 -2.2391
6.5135 3.0614 -2.2699
6.5135 3.1413 -2.3011
6.5136 3.2221 -2.3329
6.5137 3.3039 -2.3651
6.5137 3.3865 -2.3978
6.5111 3.4688 -2.4301
6.5113 3.5534 -2.4640
6.5115 3.6391 -2.4984
6.5117 3.7260 -2.5334
6.5120 3.8139 -2.5690
6.5122 3.9030 -2.6052
6.5124 3.9933 -2.6421
6.5126 4.0848 -2.6796
6.5128 4.1776 -2.7178
6.5130 4.2718 -2.7568
6.5132 4.3673 -2.7964
6.5135 4.4643 -2.8368
6.5137 4.5628 -2.8780
6.5139 4.6629 -2.9200
6.5142 4.7645 -2.9628
6.5144 4.8679 -3.0065
6.5147 4.9729 -3.0511
6.5149 5.0798 -3.0967
6.5152 5.1885 -3.1432
6.5154 5.2992 -3.1907
6.5157 5.4119 -3.2392
6.5160 5.5268 -3.2888
6.5162 5.6438 -3.3396
6.5165 5.7630 -3.3915
6.5168 5.8847 -3.4446
6.5171 6.0088 -3.4989
6.5174 6.1355 -3.5546
6.5180 6.3970 -3.6701
6.5177 6.2648 -3.6116
6.5264 7.1114 -3.9899
6.5254 6.5391 -3.7341
6.5266 7.2631 -4.0583
6.5269 7.4186 -4.1285
6.5256 6.6772 -3.7956
6.5272 7.5781 -4.2008
6.5259 6.8186 -3.8587
6.5275 7.7418 -4.2751
6.5277 7.9098 -4.3517
6.5261 6.9632 -3.9234
6.5280 8.0824 -4.4305
6.5283 8.2598 -4.5117
6.5293 8.8233 -4.7712
6.5287 8.4422 -4.5955
6.5297 9.0225 -4.8634
6.5290 8.6300 -4.6819
6.5300 9.2279 -4.9586
6.5273 9.8790 -5.2617
6.5276 10.1126 -5.3711
6.5265 9.4344 -5.0542
6.5280 10.3545 -5.4846
6.5284 10.6049 -5.6024
6.5269 9.6530 -5.1561
6.5289 10.8645 -5.7248
6.5293 11.1339 -5.8520
6.5298 11.4137 -5.9845
6.5302 11.7045 -6.1224
6.9562 12.7892 -6.6744
17.4951 33.0071 -17.1872
6.5118 1.5612 -1.3705
6.5119 1.6286 -1.3930
6.5119 1.6963 -1.4158
6.5120 1.7644 -1.4389
6.5120 1.8330 -1.4621
6.5120 1.9020 -1.4856
6.5121 1.9714 -1.5094
6.5121 2.0413 -1.5334
6.5122 2.1117 -1.5577
6.5122 2.1826 -1.5822
6.5123 2.2541 -1.6070
6.5123 2.3261 -1.6322
6.5124 2.3987 -1.6576
6.5124 2.4719 -1.6833
6.5125 2.5457 -1.7093
6.5125 2.6201 -1.7357
6.5126 2.6952 -1.7624
6.5126 2.7710 -1.7894
6.5127 2.8475 -1.8168
6.5127 2.9248 -1.8446
6.5128 3.0028 -1.8727
6.5128 3.0816 -1.9013
6.5129 3.1613 -1.9302
6.5109 3.4044 -2.0188
6.5130 3.2418 -1.9595
6.5111 3.4877 -2.0495
6.5130 3.3232 -1.9893
6.5113 3.5720 -2.0807
6.5119 3.8312 -2.1772
6.5115 3.6573 -2.1124
6.5121 3.9198 -2.2104
6.5117 3.7437 -2.1445
6.5123 4.0096 -2.2442
6.5130 4.2866 -2.3489
6.5125 4.1007 -2.2785
6.5132 4.3816 -2.3851
6.5134 4.4780 -2.4219
6.5127 4.1930 -2.3134
6.5136 4.5759 -2.4594
6.5141 4.7762 -2.5365
6.5139 4.6753 -2.4976
6.5153 5.3069 -2.7427
6.5143 4.8788 -2.5761
6.5156 5.4187 -2.7865
6.5146 4.9831 -2.6165
6.5159 5.5325 -2.8313
6.5148 5.0892 -2.6577
6.5151 5.1971 -2.6998
6.5161 5.6485 -2.8770
6.5167 5.8872 -2.9715
6.5164 5.7667 -2.9237
6.5170 6.0101 -3.0203
6.5246 6.5342 -3.2305
6.5173 6.1355 -3.0703
6.5248 6.6708 -3.2855
6.5176 6.2635 -3.1214
6.5250 6.8104 -3.3418
6.5253 6.9533 -3.3996
6.5179 6.3943 -3.1737
6.5255 7.0996 -3.4589
6.5257 7.2493 -3.5197
6.5271 8.0569 -3.8500
6.5260 7.4028 -3.5822
6.5274 8.2315 -3.9219
6.5263 7.5601 -3.6464
6.5276 8.4110 -3.9960
6.5265 7.7214 -3.7124
6.5279 8.5956 -4.0723
6.5268 7.8869 -3.7802
6.5283 8.7856 -4.1510
6.5286 8.9812 -4.2322
6.5270 10.0506 -4.6785
6.5289 9.1828 -4.3161
6.5273 10.2872 -4.7779
6.5293 9.3907 -4.4027
6.5277 10.5320 -4.8809
6.5263 9.6004 -4.4900
6.5281 10.7857 -4.9878
6.5266 9.8218 -4.5826
6.5286 11.0487 -5.0988
6.5290 11.3215 -5.2142
6.5276 12.8507 -5.8638
6.5294 11.6049 -5.3342
6.5282 13.1983 -6.0122
6.5289 13.5615 -6.1674
6.5299 11.8995 -5.4592
6.5304 12.2061 -5.5894
17.7287 37.8533 -17.1872
6.5270 12.5178 -5.7219
17.3683 38.1389 -17.2899
-6.8579 23.2665 -10.3783
-7.3521 23.9869 -10.7101
-7.3392 23.0553 -10.3046
6.5113 1.6514 -1.0644
6.5114 1.7190 -1.0860
6.5114 1.7870 -1.1079
6.5114 1.8554 -1.1299
6.5115 1.9243 -1.1522
6.5115 1.9936 -1.1746
6.5116 2.0633 -1.1973
6.5116 2.1336 -1.2201
6.5117 2.2043 -1.2432
6.5117 2.2756 -1.2666
6.5117 2.3474 -1.2901
6.5118 2.4198 -1.3139
6.5118 2.4928 -1.3380
6.5119 2.5663 -1.3623
6.5119 2.6406 -1.3869
6.5120 2.7154 -1.4118
6.5120 2.7910 -1.4370
6.5121 2.8672 -1.4625
6.5121 2.9442 -1.4882
6.5122 3.0220 -1.5143
6.5122 3.1005 -1.5408
6.5123 3.1798 -1.5675
6.5123 3.2600 -1.5946
6.5124 3.3411 -1.6221
6.5109 3.4222 -1.6495
6.5110 3.5051 -1.6778
6.5112 3.5890 -1.7064
6.5114 3.6740 -1.7355
6.5116 3.7599 -1.7649
6.5118 3.8470 -1.7948
6.5120 3.9352 -1.8252
6.5122 4.0245 -1.8561
6.5125 4.1151 -1.8874
6.5127 4.2068 -1.9192
6.5129 4.2999 -1.9515
6.5131 4.3943 -1.9844
6.5133 4.4901 -2.0178
6.5136 4.5873 -2.0518
6.5138 4.6861 -2.0864
6.5140 4.7863 -2.1216
6.5143 4.8882 -2.1575
6.5145 4.9917 -2.1940
6.5147 5.0970 -2.2311
6.5150 5.2041 -2.2690
6.5152 5.3130 -2.3077
6.5155 5.4238 -2.3470
6.5158 5.5367 -2.3872
6.5160 5.6516 -2.4282
6.5163 5.7687 -2.4701
6.5166 5.8881 -2.5128
6.5169 6.0098 -2.5564
6.5171 6.1340 -2.6011
6.5174 6.2607 -2.6467
6.5177 6.3901 -2.6933
6.5238 6.5279 -2.7435
6.5240 6.6629 -2.7923
6.5242 6.8009 -2.8423
6.5244 6.9420 -2.8936
6.5247 7.0864 -2.9461
6.5249 7.2342 -2.9999
6.5251 7.3857 -3.0552
6.5254 7.5408 -3.1118
6.5256 7.6998 -3.1700
6.5259 7.8629 -3.2298
6.5261 8.0303 -3.2913
6.5264 8.2022 -3.3545
6.5267 8.3788 -3.4195
6.5270 8.5604 -3.4865
6.5273 8.7471 -3.5554
6.5276 8.9393 -3.6265
6.5279 9.1372 -3.6998
6.5282 9.3412 -3.7755
6.5256 9.5475 -3.8519
6.5260 9.7645 -3.9326
6.5263 9.9885 -4.0160
6.5267 10.2201 -4.1024
6.5287 11.5069 -4.5840
6.5270 10.4596 -4.1918
6.5291 11.7939 -4.6918
6.5274 10.7075 -4.2845
6.5296 12.0922 -4.8039
6.5278 10.9644 -4.3806
6.5300 12.4027 -4.9208
6.5282 11.2306 -4.4803
6.5272 12.7195 -5.0401
6.5278 13.0567 -5.1673
6.5313 14.9888 -5.8984
6.5284 13.4088 -5.3002
6.5321 15.4337 -6.0672
6.5291 13.7768 -5.4394
6.5355 15.9081 -6.2474
6.5298 14.1619 -5.5851
6.5305 14.5655 -5.7379
-6.5236 24.3905 -9.4868
-6.8517 23.5937 -9.1888
-7.1391 23.6418 -9.2138
-7.3989 23.5932 -9.2015
-7.6510 23.5193 -9.1796
6.5108 1.7409 -0.7606
6.5108 1.8088 -0.7814
6.5109 1.8770 -0.8023
6.5109 1.9457 -0.8234
6.5110 2.0149 -0.8446
6.5110 2.0845 -0.8660
6.5110 2.1546 -0.8876
6.5111 2.2251 -0.9093
6.5111 2.2962 -0.9312
6.5112 2.3678 -0.9534
6.5112 2.4400 -0.9757
6.5113 2.5128 -0.9982
6.5113 2.5861 -1.0209
6.5114 2.6601 -1.0439
6.5114 2.7347 -1.0671
6.5114 2.8100 -1.0905
6.5115 2.8860 -1.1141
6.5115 2.9627 -1.1380
6.5116 3.0402 -1.1622
6.5116 3.1184 -1.1866
6.5117 3.1974 -1.2113
6.5117 3.2773 -1.2363
6.5118 3.3580 -1.2616
6.5108 3.4390 -1.2870
6.5110 3.5216 -1.3130
6.5112 3.6051 -1.3392
6.5114 3.6896 -1.3658
6.5116 3.7752 -1.3928
6.5118 3.8618 -1.4201
6.5120 3.9495 -1.4478
6.5122 4.0384 -1.4759
6.5124 4.1284 -1.5044
6.5126 4.2197 -1.5333
6.5128 4.3122 -1.5626
6.5130 4.4060 -1.5924
6.5133 4.5012 -1.6226
6.5135 4.5978 -1.6533
6.5137 4.6959 -1.6845
6.5139 4.7954 -1.7163
6.5142 4.8966 -1.7485
6.5144 4.9994 -1.7813
6.5146 5.1038 -1.8147
6.5149 5.2100 -1.8487
6.5151 5.3181 -1.8832
6.5154 5.4280 -1.9184
6.5157 5.5399 -1.9543
6.5159 5.6538 -1.9909
6.5162 5.7699 -2.0282
6.5165 5.8881 -2.0662
6.5167 6.0087 -2.1050
6.5170 6.1316 -2.1445
6.5173 6.2570 -2.1850
6.5176 6.3850 -2.2263
6.5230 6.5207 -2.2702
6.5232 6.6542 -2.3134
6.5234 6.7905 -2.3575
6.5236 6.9300 -2.4026
6.5238 7.0726 -2.4488
6.5240 7.2185 -2.4961
6.5243 7.3679 -2.5445
6.5245 7.5209 -2.5942
6.5247 7.6777 -2.6452
6.5250 7.8385 -2.6974
6.5252 8.0034 -2.7511
6.5255 8.1726 -2.8062
6.5257 8.3464 -2.8628
6.5260 8.5250 -2.9210
6.5263 8.7086 -2.9809
6.5266 8.8974 -3.0426
6.5269 9.0918 -3.1061
6.5272 9.2920 -3.1716
6.5250 9.4949 -3.2379
6.5253 9.7077 -3.3075
6.5257 9.9272 -3.3794
6.5260 10.1540 -3.4538
6.5264 10.3883 -3.5306
6.5267 10.6307 -3.6102
6.5271 10.8817 -3.6926
6.5275 11.1416 -3.7780
6.5279 11.4111 -3.8666
6.5283 11.6908 -3.9586
6.5288 11.9814 -4.0542
6.5292 12.2834 -4.1537
6.5268 12.5920 -4.2554
6.5274 12.9196 -4.3633
6.5280 13.2611 -4.4760
6.5286 13.6177 -4.5937
6.5293 13.9905 -4.7167
6.5300 14.3806 -4.8456
6.5307 14.7894 -4.9807
6.5315 15.2184 -5.1225
6.5344 15.6741 -5.2732
6.5358 16.1498 -5.4307
6.5372 16.6513 -5.5966
6.5388 17.1807 -5.7720
6.5404 17.7406 -5.9575
6.5421 18.3339 -6.1541
-5.9870 23.7190 -7.9365
-6.2950 23.8788 -7.9923
-6.6019 24.0170 -8.0410
-6.9322 24.2207 -8.1118
-7.2036 24.2058 -8.1095
-7.2855 23.5740 -7.9006
-7.4474 23.2317 -7.7887
-7.5556 22.7468 -7.6290
-8.1186 23.6123 -7.9223
-6.4690 14.6939 -4.9482
-6.6627 14.7165 -4.9585
-7.0359 14.7177 -4.9643
-7.4088 14.7046 -4.9659
6.5103 1.8301 -0.4579
6.5103 1.8982 -0.4778
6.5104 1.9668 -0.4978
6.5104 2.0357 -0.5179
6.5104 2.1052 -0.5381
6.5105 2.1751 -0.5584
6.5105 2.2455 -0.5789
6.5106 2.3163 -0.5995
6.5106 2.3878 -0.6203
6.5106 2.4597 -0.6412
6.5107 2.5323 -0.6623
6.5107 2.6054 -0.6835
6.5108 2.6792 -0.7049
6.5108 2.7535 -0.7265
6.5109 2.8286 -0.7483
6.5109 2.9043 -0.7702
6.5109 2.9807 -0.7924
6.5110 3.0579 -0.8147
6.5110 3.1358 -0.8373
6.5111 3.2145 -0.8601
6.5111 3.2940 -0.8831
6.5112 3.3744 -0.9063
6.5107 3.4553 -0.9297
6.5109 3.5375 -0.9535
6.5111 3.6207 -0.9775
6.5113 3.7048 -1.0018
6.5115 3.7899 -1.0264
6.5117 3.8761 -1.0512
6.5119 3.9634 -1.0764
6.5121 4.0517 -1.1019
6.5123 4.1413 -1.1277
6.5125 4.2320 -1.1538
6.5128 4.3240 -1.1803
6.5130 4.4172 -1.2072
6.5132 4.5118 -1.2344
6.5134 4.6078 -1.2620
6.5136 4.7052 -1.2900
6.5139 4.8041 -1.3184
6.5141 4.9045 -1.3473
6.5143 5.0065 -1.3766
6.5146 5.1102 -1.4064
6.5148 5.2155 -1.4366
6.5151 5.3227 -1.4674
6.5153 5.4317 -1.4987
6.5156 5.5427 -1.5305
6.5158 5.6556 -1.5629
6.5161 5.7706 -1.5958
6.5164 5.8877 -1.6294
6.5166 6.0071 -1.6636
6.5169 6.1288 -1.6984
6.5172 6.2529 -1.7340
6.5175 6.3796 -1.7702
6.5222 6.5132 -1.8084
6.5224 6.6452 -1.8462
6.5226 6.7800 -1.8847
6.5228 6.9178 -1.9241
6.5230 7.0586 -1.9644
6.5232 7.2027 -2.0055
6.5234 7.3501 -2.0476
6.5237 7.5011 -2.0907
6.5239 7.6557 -2.1349
6.5241 7.8142 -2.1801
6.5243 7.9766 -2.2264
6.5246 8.1433 -2.2740
6.5248 8.3144 -2.3227
6.5251 8.4901 -2.3728
6.5253 8.6706 -2.4243
6.5256 8.8563 -2.4771
6.5259 9.0472 -2.5315
6.5262 9.2438 -2.5875
6.5244 9.4435 -2.6443
6.5248 9.6522 -2.7037
6.5251 9.8674 -2.7650
6.5254 10.0895 -2.8281
6.5257 10.3189 -2.8934
6.5261 10.5560 -2.9608
6.5264 10.8013 -3.0305
6.5268 11.0552 -3.1027
6.5272 11.3183 -3.1774
6.5276 11.5911 -3.2549
6.5280 11.8742 -3.3354
6.5284 12.1682 -3.4189
6.5264 12.4691 -3.5043
6.5269 12.7874 -3.5947
6.5275 13.1190 -3.6888
6.5281 13.4649 -3.7869
6.5288 13.8260 -3.8894
6.5295 14.2035 -3.9964
6.5302 14.5987 -4.1085
6.5309 15.0127 -4.2259
6.5317 15.4471 -4.3490
6.5346 15.9089 -4.4799
6.5360 16.3909 -4.6165
6.5375 16.8988 -4.7604
6.5390 17.4352 -4.9124
6.5407 18.0025 -5.0730
6.5240 18.5511 -5.2285
6.5246 19.1836 -5.4076
6.5251 19.8563 -5.5981
6.5258 20.5731 -5.8010
6.5264 21.3388 -6.0178
-5.8269 24.4958 -6.9131
-6.0010 24.1140 -6.8047
-6.0148 23.1426 -6.5298
-6.4523 23.8094 -6.7172
-6.6960 23.7321 -6.6945
-7.0100 23.8953 -6.7397
-7.2446 23.7810 -6.7066
-7.3785 23.3511 -6.5844
-7.4660 22.8043 -6.4293
-7.8642 23.2064 -6.5417
-8.4147 24.0119 -6.7677
-7.1054 14.6966 -4.1334
6.5098 1.9193 -0.1549
6.5098 1.9877 -0.1739
6.5099 2.0566 -0.1929
6.5099 2.1258 -0.2121
6.5099 2.1955 -0.2313
6.5100 2.2657 -0.2506
6.5100 2.3364 -0.2700
6.5100 2.4077 -0.2895
6.5101 2.4794 -0.3091
6.5101 2.5517 -0.3288
6.5102 2.6246 -0.3486
6.5102 2.6982 -0.3685
6.5102 2.7723 -0.3886
6.5103 2.8470 -0.4088
6.5103 2.9225 -0.4292
6.5104 2.9986 -0.4497
6.5104 3.0755 -0.4703
6.5104 3.1531 -0.4911
6.5105 3.2315 -0.5120
6.5105 3.3107 -0.5332
6.5106 3.3907 -0.5545
6.5107 3.4716 -0.5760
6.5109 3.5534 -0.5977
6.5111 3.6362 -0.6195
6.5113 3.7199 -0.6416
6.5115 3.8046 -0.6640
6.5117 3.8903 -0.6865
6.5119 3.9771 -0.7093
6.5121 4.0650 -0.7323
6.5123 4.1540 -0.7555
6.5125 4.2442 -0.7791
6.5127 4.3357 -0.8029
6.5129 4.4283 -0.8269
6.5131 4.5223 -0.8513
6.5133 4.6177 -0.8760
6.5136 4.7144 -0.9010
6.5138 4.8126 -0.9263
6.5140 4.9123 -0.9519
6.5142 5.0136 -0.9779
6.5145 5.1165 -1.0043
6.5147 5.2211 -1.0310
6.5150 5.3274 -1.0582
6.5152 5.4355 -1.0857
6.5155 5.5455 -1.1137
6.5157 5.6574 -1.1421
6.5160 5.7714 -1.1710
6.5162 5.8875 -1.2003
6.5165 6.0057 -1.2302
6.5168 6.1262 -1.2605
6.5171 6.2491 -1.2915
6.5174 6.3744 -1.3229
6.5215 6.5061 -1.3558
6.5217 6.6366 -1.3885
6.5219 6.7698 -1.4218
6.5220 6.9060 -1.4557
6.5222 7.0451 -1.4904
6.5224 7.1874 -1.5257
6.5226 7.3329 -1.5619
6.5228 7.4819 -1.5988
6.5230 7.6344 -1.6365
6.5233 7.7906 -1.6751
6.5235 7.9507 -1.7146
6.5237 8.1149 -1.7550
6.5239 8.2834 -1.7964
6.5242 8.4563 -1.8389
6.5244 8.6339 -1.8824
6.5247 8.8164 -1.9271
6.5249 9.0041 -1.9729
6.5252 9.1971 -2.0200
6.5255 9.3959 -2.0685
6.5242 9.5985 -2.1178
6.5245 9.8095 -2.1690
6.5248 10.0272 -2.2218
6.5251 10.2519 -2.2763
6.5254 10.4839 -2.3324
6.5258 10.7238 -2.3904
6.5261 10.9720 -2.4503
6.5265 11.2289 -2.5122
6.5269 11.4951 -2.5763
6.5273 11.7712 -2.6427
6.5277 12.0577 -2.7115
6.5281 12.3553 -2.7829
6.5265 12.6607 -2.8561
6.5271 12.9830 -2.9332
6.5277 13.3187 -3.0135
6.5283 13.6689 -3.0971
6.5290 14.0346 -3.1843
6.5296 14.4168 -3.2753
6.5303 14.8169 -3.3705
6.5311 15.2362 -3.4702
6.5336 15.6803 -3.5756
6.5349 16.1440 -3.6856
6.5363 16.6321 -3.8013
6.5378 17.1467 -3.9232
6.5393 17.6900 -4.0517
6.5410 18.2647 -4.1876
6.5256 18.8241 -4.3200
6.5262 19.4651 -4.4714
6.5268 20.1469 -4.6321
6.5275 20.8735 -4.8033
6.5319 21.6619 -4.9889
6.5344 22.4994 -5.1859
6.5371 23.3991 -5.3975
6.5400 24.3684 -5.6252
6.5466 25.4292 -5.8742
6.5501 26.5658 -6.1409
-6.9385 40.6845 -9.4413
-7.3707 40.6959 -9.4396
-7.8870 41.1367 -9.5372
-5.3743 24.0143 -5.5583
-5.6668 24.1577 -5.5881
-6.0030 24.4619 -5.6549
-6.2454 24.3693 -5.6297
-6.4871 24.2770 -5.6045
-6.6254 23.8154 -5.4939
-6.9265 23.9471 -5.5201
-7.0037 23.3184 -5.3709
-7.3972 23.7456 -5.4647
-7.3591 22.8009 -5.2428
-7.7467 23.1892 -5.3273
-8.0673 23.3537 -5.3601
6.5093 2.0091 0.1496
6.5093 2.0777 0.1316
6.5093 2.1468 0.1135
6.5094 2.2164 0.0953
6.5094 2.2864 0.0771
6.5094 2.3569 0.0589
6.5095 2.4279 0.0406
6.5095 2.4995 0.0222
6.5096 2.5716 0.0038
6.5096 2.6442 -0.0147
6.5096 2.7175 -0.0333
6.5097 2.7914 -0.0519
6.5097 2.8659 -0.0706
6.5097 2.9411 -0.0895
6.5098 3.0169 -0.1084
6.5098 3.0935 -0.1274
6.5099 3.1708 -0.1465
6.5099 3.2488 -0.1658
6.5099 3.3277 -0.1851
6.5100 3.4074 -0.2046
6.5106 3.4882 -0.2242
6.5108 3.5697 -0.2439
6.5110 3.6521 -0.2638
6.5112 3.7354 -0.2838
6.5114 3.8196 -0.3040
6.5116 3.9050 -0.3243
6.5118 3.9913 -0.3448
6.5120 4.0787 -0.3654
6.5122 4.1672 -0.3863
6.5124 4.2569 -0.4073
6.5126 4.3478 -0.4286
6.5128 4.4399 -0.4500
6.5130 4.5333 -0.4716
6.5133 4.6281 -0.4935
6.5135 4.7242 -0.5156
6.5137 4.8217 -0.5379
6.5139 4.9207 -0.5605
6.5142 5.0212 -0.5834
6.5144 5.1234 -0.6065
6.5146 5.2271 -0.6299
6.5149 5.3326 -0.6536
6.5151 5.4398 -0.6776
6.5154 5.5489 -0.7019
6.5156 5.6599 -0.7266
6.5159 5.7729 -0.7516
6.5161 5.8879 -0.7769
6.5164 6.0050 -0.8027
6.5167 6.1244 -0.8288
6.5170 6.2460 -0.8553
6.5172 6.3701 -0.8822
6.5208 6.4998 -0.9101
6.5209 6.6288 -0.9379
6.5211 6.7606 -0.9663
6.5213 6.8951 -0.9951
6.5215 7.0326 -1.0245
6.5216 7.1731 -1.0544
6.5218 7.3168 -1.0848
6.5220 7.4638 -1.1159
6.5222 7.6143 -1.1476
6.5224 7.7684 -1.1799
6.5226 7.9262 -1.2129
6.5228 8.0880 -1.2466
6.5231 8.2539 -1.2811
6.5233 8.4242 -1.3164
6.5235 8.5990 -1.3525
6.5237 8.7785 -1.3894
6.5240 8.9630 -1.4272
6.5242 9.1527 -1.4661
6.5245 9.3479 -1.5058
6.5236 9.5473 -1.5464
6.5239 9.7543 -1.5884
6.5242 9.9677 -1.6315
6.5245 10.1879 -1.6758
6.5248 10.4152 -1.7215
6.5252 10.6499 -1.7685
6.5255 10.8926 -1.8170
6.5258 11.1437 -1.8670
6.5262 11.4036 -1.9186
6.5266 11.6729 -1.9719
6.5270 11.9522 -2.0271
6.5274 12.2422 -2.0843
6.5261 12.5401 -2.1429
6.5267 12.8534 -2.2043
6.5273 13.1796 -2.2681
6.5279 13.5195 -2.3344
6.5285 13.8740 -2.4034
6.5291 14.2442 -2.4753
6.5298 14.6313 -2.5502
6.5305 15.0364 -2.6285
6.5313 15.4609 -2.7104
6.5338 15.9108 -2.7969
6.5351 16.3804 -2.8870
6.5365 16.8747 -2.9817
6.5380 17.3959 -3.0813
6.5396 17.9462 -3.1863
6.5266 18.4866 -3.2898
6.5272 19.0987 -3.4062
6.5278 19.7483 -3.5295
6.5285 20.4393 -3.6604
6.5292 21.1757 -3.7997
6.5341 21.9760 -3.9507
6.5367 22.8250 -4.1107
6.5394 23.7372 -4.2823
6.5446 24.7280 -4.4685
6.5479 25.7906 -4.6678
6.5514 26.9427 -4.8837
6.5440 28.1480 -5.1095
6.5471 29.5104 -5.3641
6.5519 31.0117 -5.6443
6.5569 32.6652 -5.9526
-6.0365 40.9327 -7.4984
-6.4989 41.1754 -7.5361
-6.9036 41.0376 -7.5037
-7.3041 40.8848 -7.4681
-7.5031 39.6756 -7.2393
-8.2056 41.1084 -7.4921
-5.2750 23.8986 -4.3446
-5.5614 24.0388 -4.3642
-5.5474 22.9211 -4.1553
-5.9402 23.5031 -4.2545
-6.3305 24.0239 -4.3419
-6.5834 23.9977 -4.3301
-6.8370 23.9712 -4.3179
-6.9429 23.4435 -4.2153
-7.3615 23.9666 -4.3013
-7.0865 22.2690 -3.9889
-7.7773 23.6137 -4.2212
-7.9131 23.2357 -4.1449
-8.3634 23.7709 -4.2311
-8.7169 23.2691 -4.1227
-7.0696 14.6815 -2.5359
6.5087 2.0997 0.4572
6.5088 2.1686 0.4400
6.5088 2.2380 0.4229
6.5089 2.3078 0.4057
6.5089 2.3781 0.3885
6.5089 2.4489 0.3714
6.5090 2.5203 0.3542
6.5090 2.5921 0.3369
6.5090 2.6646 0.3197
6.5091 2.7376 0.3024
6.5091 2.8112 0.2851
6.5091 2.8855 0.2678
6.5092 2.9604 0.2504
6.5092 3.0360 0.2330
6.5092 3.1123 0.2155
6.5093 3.1893 0.1980
6.5093 3.2670 0.1804
6.5093 3.3455 0.1627
6.5094 3.4248 0.1450
6.5106 3.5056 0.1272
6.5108 3.5867 0.1094
6.5110 3.6687 0.0914
6.5112 3.7517 0.0734
6.5114 3.8355 0.0553
6.5115 3.9204 0.0371
6.5117 4.0063 0.0187
6.5119 4.0932 0.0003
6.5121 4.1813 -0.0182
6.5123 4.2705 -0.0369
6.5126 4.3608 -0.0557
6.5128 4.4524 -0.0746
6.5130 4.5452 -0.0936
6.5132 4.6393 -0.1128
6.5134 4.7348 -0.1322
6.5136 4.8317 -0.1517
6.5139 4.9300 -0.1713
6.5141 5.0298 -0.1912
6.5143 5.1312 -0.2112
6.5145 5.2342 -0.2314
6.5148 5.3388 -0.2518
6.5150 5.4452 -0.2724
6.5153 5.5534 -0.2933
6.5155 5.6635 -0.3143
6.5158 5.7754 -0.3356
6.5160 5.8894 -0.3572
6.5163 6.0055 -0.3790
6.5166 6.1237 -0.4010
6.5169 6.2442 -0.4234
6.5171 6.3670 -0.4460
6.5200 6.4947 -0.4692
6.5202 6.6224 -0.4924
6.5204 6.7527 -0.5161
6.5205 6.8858 -0.5400
6.5207 7.0216 -0.5643
6.5209 7.1605 -0.5890
6.5211 7.3024 -0.6141
6.5212 7.4475 -0.6396
6.5214 7.5960 -0.6656
6.5216 7.7480 -0.6920
6.5218 7.9037 -0.7189
6.5220 8.0632 -0.7463
6.5222 8.2267 -0.7742
6.5224 8.3943 -0.8027
6.5226 8.5663 -0.8317
6.5229 8.7430 -0.8614
6.5231 8.9244 -0.8917
6.5233 9.1109 -0.9226
6.5235 9.3027 -0.9543
6.5231 9.4991 -0.9866
6.5233 9.7023 -1.0198
6.5236 9.9116 -1.0538
6.5239 10.1275 -1.0887
6.5242 10.3501 -1.1245
6.5245 10.5800 -1.1613
6.5249 10.8175 -1.1991
6.5252 11.0630 -1.2379
6.5255 11.3169 -1.2779
6.5259 11.5799 -1.3192
6.5263 11.8524 -1.3617
6.5266 12.1351 -1.4056
6.5258 12.4259 -1.4507
6.5263 12.7309 -1.4976
6.5269 13.0481 -1.5461
6.5274 13.3782 -1.5964
6.5280 13.7223 -1.6487
6.5287 14.0812 -1.7029
6.5293 14.4560 -1.7593
6.5300 14.8478 -1.8180
6.5307 15.2580 -1.8792
6.5328 15.6910 -1.9434
6.5340 16.1435 -2.0104
6.5354 16.6191 -2.0804
6.5368 17.1198 -2.1539
6.5383 17.6476 -2.2311
6.5399 18.2049 -2.3123
6.5281 18.7559 -2.3931
6.5288 19.3761 -2.4829
6.5295 20.0345 -2.5779
6.5302 20.7347 -2.6786
6.5338 21.4901 -2.7868
6.5363 22.2934 -2.9015
6.5389 23.1540 -3.0241
6.5418 24.0787 -3.1554
6.5458 25.0788 -3.2970
6.5492 26.1557 -3.4491
6.5528 27.3235 -3.6136
6.5462 28.5487 -3.7861
6.5494 29.9301 -3.9798
6.5541 31.4509 -4.1925
6.5592 33.1275 -4.4264
6.5521 34.9180 -4.6761
6.5741 37.0735 -4.9752
6.5750 39.3614 -5.2928
6.5681 41.8904 -5.6433
6.5762 44.8671 -6.0548
-5.1333 41.0243 -5.5543
-5.5797 41.2418 -5.5755
-6.0240 41.4066 -5.5888
-6.4343 41.3251 -5.5682
-6.8048 41.0058 -5.5150
-7.2008 40.8606 -5.4847
-7.5863 40.6682 -5.4474
-7.9687 40.4728 -5.4092
-5.2549 24.1373 -3.2104
-5.5219 24.1999 -3.2103
-5.7914 24.2627 -3.2098
-5.7381 23.0205 -3.0366
-6.0227 23.1752 -3.0477
-6.3902 23.6202 -3.0964
-6.7201 23.8928 -3.1217
-7.0547 24.1568 -3.1452
-7.3025 24.1105 -3.1278
-7.6091 24.2504 -3.1341
-7.8069 24.0407 -3.0947
-8.0132 23.8654 -3.0595
-8.1853 23.5978 -3.0122
-8.3812 23.4086 -2.9748
-8.5753 23.2212 -2.9373
6.5082 2.1916 0.7690
6.5083 2.2608 0.7528
6.5083 2.3304 0.7366
6.5083 2.4005 0.7205
6.5084 2.4711 0.7044
6.5084 2.5423 0.6883
6.5084 2.6139 0.6722
6.5085 2.6861 0.6561
6.5085 2.7589 0.6401
6.5085 2.8323 0.6240
6.5086 2.9063 0.6080
6.5086 2.9810 0.5920
6.5086 3.0563 0.5760
6.5087 3.1322 0.5600
6.5087 3.2089 0.5439
6.5087 3.2864 0.5279
6.5088 3.3646 0.5119
6.5104 3.4444 0.4960
6.5106 3.5243 0.4799
6.5107 3.6050 0.4638
6.5109 3.6867 0.4477
6.5111 3.7692 0.4316
6.5113 3.8527 0.4154
6.5115 3.9371 0.3992
6.5117 4.0226 0.3830
6.5119 4.1091 0.3667
6.5121 4.1966 0.3504
6.5123 4.2853 0.3340
6.5125 4.3752 0.3175
6.5127 4.4662 0.3010
6.5129 4.5584 0.2845
6.5131 4.6520 0.2679
6.5133 4.7469 0.2511
6.5136 4.8431 0.2344
6.5138 4.9408 0.2175
6.5140 5.0399 0.2005
6.5142 5.1405 0.1835
6.5145 5.2428 0.1663
6.5147 5.3466 0.1490
6.5149 5.4522 0.1317
6.5152 5.5595 0.1142
6.5154 5.6686 0.0966
6.5157 5.7796 0.0788
6.5159 5.8926 0.0609
6.5162 6.0076 0.0429
6.5165 6.1248 0.0247
6.5167 6.2441 0.0063
6.5170 6.3657 -0.0122
6.5193 6.4916 -0.0309
6.5195 6.6180 -0.0498
6.5196 6.7468 -0.0689
6.5198 6.8784 -0.0882
6.5199 7.0127 -0.1077
6.5201 7.1499 -0.1275
6.5203 7.2901 -0.1474
6.5205 7.4335 -0.1677
6.5206 7.5801 -0.1882
6.5208 7.7301 -0.2089
6.5210 7.8836 -0.2300
6.5212 8.0409 -0.2514
6.5214 8.2020 -0.2731
6.5216 8.3672 -0.2951
6.5218 8.5366 -0.3175
6.5220 8.7105 -0.3402
6.5222 8.8890 -0.3634
6.5224 9.0724 -0.3869
6.5226 9.2610 -0.4109
6.5225 9.4545 -0.4353
6.5228 9.6540 -0.4602
6.5231 9.8595 -0.4857
6.5233 10.0712 -0.5116
6.5236 10.2895 -0.5382
6.5239 10.5147 -0.5653
6.5242 10.7472 -0.5931
6.5246 10.9874 -0.6215
6.5249 11.2358 -0.6507
6.5252 11.4927 -0.6806
6.5256 11.7588 -0.7113
6.5259 12.0345 -0.7428
6.5263 12.3205 -0.7752
6.5259 12.6158 -0.8085
6.5265 12.9244 -0.8430
6.5270 13.2455 -0.8785
6.5276 13.5797 -0.9151
6.5282 13.9280 -0.9531
6.5288 14.2913 -0.9923
6.5295 14.6707 -1.0330
6.5302 15.0675 -1.0752
6.5318 15.4849 -1.1192
6.5330 15.9214 -1.1649
6.5343 16.3797 -1.2126
6.5356 16.8613 -1.2623
6.5371 17.3683 -1.3143
6.5386 17.9029 -1.3687
6.5290 18.4359 -1.4234
6.5297 19.0291 -1.4831
6.5304 19.6576 -1.5459
6.5311 20.3248 -1.6122
6.5319 21.0344 -1.6822
6.5359 21.8013 -1.7573
6.5385 22.6155 -1.8367
6.5412 23.4880 -1.9212
6.5442 24.4255 -2.0115
6.5471 25.4346 -2.1083
6.5505 26.5262 -2.2125
6.5454 27.6730 -2.3217
6.5485 28.9554 -2.4429
6.5518 30.3561 -2.5747
6.5562 31.8967 -2.7189
6.5532 33.5544 -2.8737
6.5544 35.4115 -3.0464
6.5721 37.5724 -3.2458
6.5644 39.8374 -3.4551
6.5718 42.4889 -3.6986
6.5770 45.4871 -3.9732
-5.0910 41.2414 -3.6256
-5.4542 40.8652 -3.5821
-5.7787 40.2651 -3.5183
-6.3168 41.1269 -3.5814
-6.7436 41.1949 -3.5743
-7.0934 40.8049 -3.5266
-7.5091 40.8093 -3.5123
-7.9731 41.0542 -3.5178
-8.2937 40.5656 -3.4596
-5.3162 24.7575 -2.1009
-5.4167 24.0683 -2.0317
-5.6766 24.1128 -2.0242
-5.9343 24.1395 -2.0147
-5.9453 23.1977 -1.9242
-6.4449 24.1563 -1.9908
-6.4118 23.1172 -1.8923
-6.9396 24.0976 -1.9585
-7.1621 23.9814 -1.9346
-7.2607 23.4683 -1.8785
-7.5800 23.6742 -1.8795
-7.7826 23.5095 -1.8505
-7.9776 23.3285 -1.8199
-8.0896 22.9187 -1.7713
-7.0415 14.6879 -0.9915
6.5077 2.2852 1.0867
6.5077 2.3547 1.0715
6.5078 2.4246 1.0563
6.5078 2.4950 1.0411
6.5078 2.5659 1.0261
6.5078 2.6373 1.0111
6.5079 2.7093 0.9961
6.5079 2.7819 0.9812
6.5079 2.8550 0.9664
6.5080 2.9288 0.9516
6.5080 3.0032 0.9369
6.5080 3.0782 0.9223
6.5081 3.1539 0.9076
6.5081 3.2303 0.8931
6.5081 3.3074 0.8785
6.5082 3.3853 0.8640
6.5103 3.4651 0.8499
6.5105 3.5447 0.8355
6.5107 3.6251 0.8211
6.5109 3.7063 0.8067
6.5111 3.7885 0.7924
6.5113 3.8716 0.7782
6.5114 3.9556 0.7639
6.5116 4.0406 0.7497
6.5118 4.1267 0.7354
6.5120 4.2138 0.7212
6.5122 4.3020 0.7070
6.5124 4.3913 0.6928
6.5126 4.4818 0.6787
6.5129 4.5736 0.6645
6.5131 4.6665 0.6503
6.5133 4.7608 0.6362
6.5135 4.8564 0.6220
6.5137 4.9534 0.6078
6.5139 5.0519 0.5936
6.5142 5.1518 0.5794
6.5144 5.2533 0.5652
6.5146 5.3564 0.5510
6.5149 5.4612 0.5367
6.5151 5.5676 0.5224
6.5154 5.6759 0.5081
6.5156 5.7860 0.4938
6.5159 5.8980 0.4794
6.5161 6.0120 0.4650
6.5164 6.1281 0.4505
6.5166 6.2463 0.4360
6.5169 6.3668 0.4214
6.5186 6.4909 0.4069
6.5187 6.6159 0.3922
6.5189 6.7435 0.3774
6.5190 6.8736 0.3626
6.5192 7.0064 0.3476
6.5194 7.1420 0.3326
6.5195 7.2806 0.3176
6.5197 7.4222 0.3024
6.5198 7.5670 0.2871
6.5200 7.7151 0.2717
6.5202 7.8666 0.2562
6.5204 8.0218 0.2406
6.5205 8.1806 0.2249
6.5207 8.3435 0.2090
6.5209 8.5104 0.1930
6.5211 8.6816 0.1768
6.5213 8.8574 0.1604
6.5215 9.0378 0.1439
6.5217 9.2232 0.1272
6.5219 9.4138 0.1104
6.5223 9.6101 0.0933
6.5225 9.8119 0.0760
6.5228 10.0197 0.0585
6.5231 10.2338 0.0407
6.5233 10.4546 0.0226
6.5236 10.6824 0.0043
6.5239 10.9176 -0.0143
6.5243 11.1606 -0.0332
6.5246 11.4118 -0.0524
6.5249 11.6718 -0.0720
6.5253 11.9410 -0.0919
6.5256 12.2200 -0.1123
6.5256 12.5085 -0.1330
6.5261 12.8092 -0.1543
6.5266 13.1217 -0.1760
6.5272 13.4466 -0.1982
6.5278 13.7849 -0.2210
6.5284 14.1375 -0.2443
6.5290 14.5054 -0.2683
6.5297 14.8896 -0.2930
6.5304 15.2913 -0.3184
6.5320 15.7141 -0.3446
6.5333 16.1562 -0.3717
6.5346 16.6202 -0.3997
6.5359 17.1080 -0.4286
6.5373 17.6216 -0.4587
6.5388 18.1630 -0.4899
6.5306 18.7065 -0.5217
6.5313 19.3077 -0.5555
6.5320 19.9446 -0.5908
6.5328 20.6208 -0.6278
6.5337 21.3400 -0.6666
6.5381 22.1186 -0.7077
6.5407 22.9440 -0.7510
6.5436 23.8285 -0.7967
6.5452 24.7738 -0.8451
6.5484 25.7974 -0.8968
6.5518 26.9038 -0.9520
6.5476 28.0697 -1.0099
6.5508 29.3700 -1.0734
6.5536 30.7876 -1.1419
6.5585 32.3512 -1.2165
6.5554 34.0315 -1.2964
6.5567 35.9146 -1.3847
6.5701 38.0803 -1.4849
6.5679 40.4092 -1.5924
6.5748 43.0947 -1.7149
6.5739 46.0910 -1.8508
-5.5026 41.7945 -1.6938
-5.8169 41.0889 -1.6515
-6.1286 40.4515 -1.6113
-6.6424 41.1367 -1.6228
-7.0253 40.9724 -1.5995
-7.3851 40.6908 -1.5708
-7.7982 40.7104 -1.5529
-8.1883 40.6069 -1.5292
-7.3372 33.0569 -1.2101
-5.6958 24.5327 -0.8842
-5.9417 24.5088 -0.8688
-6.1881 24.4845 -0.8528
-6.4347 24.4580 -0.8361
-6.4994 23.7639 -0.7963
-6.6120 23.2854 -0.7639
-7.1446 24.2628 -0.7783
-7.2670 23.8232 -0.7461
-7.4330 23.5469 -0.7189
-7.5767 23.2156 -0.6898
-7.9537 23.5929 -0.6810
6.5071 2.3810 1.4119
6.5072 2.4507 1.3975
6.5072 2.5210 1.3833
6.5072 2.5916 1.3693
6.5073 2.6629 1.3553
6.5073 2.7347 1.3414
6.5073 2.8070 1.3276
6.5073 2.8799 1.3139
6.5074 2.9534 1.3004
6.5074 3.0275 1.2869
6.5074 3.1023 1.2735
6.5075 3.1777 1.2602
6.5075 3.2538 1.2470
6.5075 3.3306 1.2339
6.5075 3.4082 1.2209
6.5103 3.4880 1.2085
6.5105 3.5672 1.1957
6.5107 3.6473 1.1830
6.5108 3.7282 1.1703
6.5110 3.8100 1.1578
6.5112 3.8927 1.1453
6.5114 3.9764 1.1329
6.5116 4.0610 1.1206
6.5118 4.1466 1.1083
6.5120 4.2333 1.0962
6.5122 4.3210 1.0841
6.5124 4.4098 1.0721
6.5126 4.4998 1.0602
6.5128 4.5910 1.0483
6.5130 4.6835 1.0365
6.5132 4.7772 1.0248
6.5134 4.8722 1.0131
6.5137 4.9686 1.0016
6.5139 5.0664 0.9900
6.5141 5.1656 0.9786
6.5143 5.2664 0.9672
6.5146 5.3688 0.9559
6.5148 5.4728 0.9447
6.5150 5.5784 0.9335
6.5153 5.6858 0.9224
6.5155 5.7950 0.9113
6.5158 5.9061 0.9003
6.5160 6.0192 0.8894
6.5163 6.1342 0.8785
6.5165 6.2514 0.8677
6.5168 6.3707 0.8569
6.5179 6.4930 0.8464
6.5180 6.6169 0.8357
6.5182 6.7431 0.8251
6.5183 6.8719 0.8146
6.5185 7.0033 0.8041
6.5186 7.1374 0.7936
6.5187 7.2744 0.7833
6.5189 7.4143 0.7729
6.5191 7.5574 0.7627
6.5192 7.7036 0.7525
6.5194 7.8532 0.7423
6.5195 8.0063 0.7322
6.5197 8.1631 0.7222
6.5199 8.3237 0.7122
6.5201 8.4882 0.7022
6.5202 8.6569 0.6924
6.5204 8.8300 0.6825
6.5206 9.0077 0.6728
6.5208 9.1901 0.6630
6.5210 9.3775 0.6534
6.5217 9.5711 0.6438
6.5220 9.7694 0.6343
6.5222 9.9734 0.6248
6.5225 10.1836 0.6153
6.5228 10.4002 0.6059
6.5231 10.6235 0.5966
6.5233 10.8540 0.5873
6.5236 11.0919 0.5781
6.5239 11.3378 0.5690
6.5243 11.5920 0.5599
6.5246 11.8550 0.5509
6.5249 12.1275 0.5419
6.5252 12.4097 0.5330
6.5257 12.7028 0.5242
6.5263 13.0072 0.5154
6.5268 13.3235 0.5067
6.5274 13.6525 0.4981
6.5280 13.9950 0.4896
6.5286 14.3520 0.4811
6.5292 14.7245 0.4728
6.5299 15.1136 0.4645
6.5311 15.5217 0.4563
6.5323 15.9488 0.4482
6.5335 16.3965 0.4403
6.5348 16.8665 0.4324
6.5362 17.3606 0.4247
6.5376 17.8808 0.4170
6.5355 18.4189 0.4093
6.5322 18.9837 0.4016
6.5329 19.5930 0.3944
6.5337 20.2385 0.3872
6.5346 20.9239 0.3803
6.5378 21.6606 0.3737
6.5403 22.4435 0.3672
6.5431 23.2804 0.3610
6.5460 24.1773 0.3549
6.5465 25.1311 0.3491
6.5497 26.1688 0.3437
6.5532 27.2904 0.3386
6.5499 28.4761 0.3336
6.5531 29.7947 0.3292
6.5558 31.2310 0.3254
6.5607 32.8167 0.3222
6.5576 34.5200 0.3192
6.5590 36.4300 0.3171
6.5681 38.5999 0.3163
6.5716 40.9951 0.3161
6.5756 43.6996 0.3172
6.5497 46.5600 0.3183
-6.5185 40.9324 0.3136
-6.9267 40.9609 0.3334
-6.4289 23.8417 0.3480
-6.9503 23.9414 0.3895
-7.1056 23.6291 0.4054
6.5066 2.4795 1.7461
6.5066 2.5495 1.7328
6.5066 2.6200 1.7196
6.5067 2.6910 1.7066
6.5067 2.7626 1.6937
6.5067 2.8347 1.6810
6.5067 2.9073 1.6684
6.5068 2.9806 1.6560
6.5068 3.0545 1.6437
6.5068 3.1290 1.6316
6.5068 3.2042 1.6195
6.5069 3.2800 1.6077
6.5069 3.3565 1.5960
6.5069 3.4338 1.5844
6.5103 3.5136 1.5737
6.5104 3.5925 1.5624
6.5106 3.6723 1.5513
6.5108 3.7529 1.5403
6.5110 3.8343 1.5294
6.5112 3.9166 1.5187
6.5114 3.9999 1.5081
6.5116 4.0841 1.4977
6.5117 4.1693 1.4874
6.5119 4.2555 1.4772
6.5121 4.3428 1.4671
6.5123 4.4312 1.4572
6.5125 4.5207 1.4475
6.5127 4.6114 1.4379
6.5130 4.7033 1.4284
6.5132 4.7965 1.4190
6.5134 4.8909 1.4098
6.5136 4.9867 1.4008
6.5138 5.0839 1.3919
6.5140 5.1825 1.3831
6.5143 5.2826 1.3745
6.5145 5.3842 1.3660
6.5147 5.4875 1.3577
6.5150 5.5924 1.3495
6.5152 5.6990 1.3415
6.5154 5.8073 1.3337
6.5157 5.9175 1.3259
6.5159 6.0297 1.3184
6.5162 6.1438 1.3110
6.5165 6.2599 1.3038
6.5167 6.3782 1.2967
6.5172 6.4988 1.2899
6.5173 6.6214 1.2831
6.5174 6.7464 1.2766
6.5176 6.8739 1.2702
6.5177 7.0039 1.2640
6.5178 7.1366 1.2580
6.5180 7.2721 1.2522
6.5181 7.4104 1.2465
6.5183 7.5518 1.2411
6.5184 7.6963 1.2359
6.5186 7.8441 1.2309
6.5187 7.9953 1.2261
6.5189 8.1500 1.2216
6.5190 8.3084 1.2173
6.5192 8.4707 1.2132
6.5194 8.6370 1.2094
6.5195 8.8076 1.2058
6.5197 8.9825 1.2025
6.5199 9.1621 1.1995
6.5201 9.3466 1.1967
6.5212 9.5376 1.1944
6.5214 9.7326 1.1923
6.5217 9.9331 1.1905
6.5219 10.1395 1.1890
6.5222 10.3522 1.1879
6.5225 10.5713 1.1871
6.5227 10.7972 1.1867
6.5230 11.0304 1.1868
6.5233 11.2711 1.1872
6.5236 11.5199 1.1881
6.5239 11.7772 1.1894
6.5243 12.0434 1.1912
6.5246 12.3192 1.1936
6.5254 12.6058 1.1965
6.5259 12.9026 1.2000
6.5264 13.2108 1.2041
6.5270 13.5310 1.2088
6.5276 13.8642 1.2141
6.5281 14.2111 1.2203
6.5288 14.5726 1.2271
6.5294 14.9499 1.2348
6.5301 15.3439 1.2434
6.5314 15.7574 1.2530
6.5325 16.1900 1.2636
6.5338 16.6436 1.2752
6.5351 17.1197 1.2881
6.5365 17.6203 1.3022
6.5379 18.1474 1.3176
6.5331 18.6849 1.3332
6.5338 19.2688 1.3515
6.5346 19.8864 1.3716
6.5355 20.5409 1.3935
6.5364 21.2357 1.4175
6.5400 21.9839 1.4443
6.5426 22.7778 1.4734
6.5454 23.6265 1.5052
6.5448 24.5224 1.5393
6.5478 25.4987 1.5776
6.5511 26.5509 1.6198
6.5492 27.6651 1.6649
6.5522 28.8941 1.7160
6.5556 30.2317 1.7726
6.5580 31.6872 1.8351
6.5631 33.2957 1.9054
6.5599 35.0227 1.9815
6.5656 36.9833 2.0697
6.5659 39.1338 2.1672
6.5753 41.5983 2.2809
6.5764 44.3218 2.4074
6.5596 47.2875 2.5456
-6.8187 40.8930 2.2622
-10.4596 48.4714 2.8383
-10.8016 47.8570 2.8383
-11.1305 47.2301 2.8383
-11.7485 45.9437 2.8383
-11.4461 46.5919 2.8383
-12.0376 45.2869 2.8383
-13.0638 42.5949 2.8383
-12.3137 44.6224 2.8383
-13.2884 41.9114 2.8383
-13.5006 41.2257 2.8383
-12.5765 43.9514 2.8383
-13.7007 40.5388 2.8383
-7.0712 23.8574 1.5647
-13.8889 39.8517 2.8383
-14.7825 35.7657 2.8383
-14.0654 39.1650 2.8383
-14.8949 35.0971 2.8383
-14.9978 34.4337 2.8383
-14.2304 38.4797 2.8383
-15.0914 33.7759 2.8383
-14.3844 37.7964 2.8383
-15.1759 33.1241 2.8383
-14.5275 37.1159 2.8383
-14.6601 36.4387 2.8383
6.5060 2.5812 2.0914
6.5060 2.6515 2.0791
6.5060 2.7223 2.0670
6.5061 2.7937 2.0551
6.5061 2.8656 2.0434
6.5061 2.9380 2.0319
6.5062 3.0110 2.0205
6.5062 3.0847 2.0094
6.5062 3.1589 1.9984
6.5062 3.2338 1.9876
6.5062 3.3094 1.9770
6.5063 3.3857 1.9666
6.5101 3.4647 1.9575
6.5102 3.5425 1.9476
6.5104 3.6211 1.9378
6.5106 3.7006 1.9282
6.5108 3.7808 1.9188
6.5110 3.8619 1.9095
6.5111 3.9439 1.9005
6.5113 4.0268 1.8917
6.5115 4.1106 1.8830
6.5117 4.1954 1.8746
6.5119 4.2813 1.8663
6.5121 4.3681 1.8583
6.5123 4.4561 1.8505
6.5125 4.5451 1.8428
6.5127 4.6353 1.8354
6.5129 4.7267 1.8282
6.5131 4.8193 1.8211
6.5133 4.9133 1.8143
6.5135 5.0085 1.8077
6.5138 5.1051 1.8014
6.5140 5.2031 1.7952
6.5142 5.3025 1.7893
6.5144 5.4035 1.7836
6.5147 5.5060 1.7781
6.5149 5.6102 1.7729
6.5151 5.7160 1.7679
6.5154 5.8236 1.7631
6.5156 5.9329 1.7586
6.5159 6.0442 1.7544
6.5161 6.1573 1.7504
6.5164 6.2725 1.7467
6.5166 6.3898 1.7432
6.5164 6.5087 1.7399
6.5166 6.6302 1.7370
6.5167 6.7540 1.7344
6.5168 6.8802 1.7320
6.5169 7.0090 1.7300
6.5171 7.1403 1.7283
6.5172 7.2744 1.7269
6.5173 7.4112 1.7258
6.5175 7.5510 1.7251
6.5176 7.6939 1.7248
6.5178 7.8399 1.7248
6.5179 7.9892 1.7252
6.5180 8.1420 1.7259
6.5182 8.2984 1.7271
6.5183 8.4585 1.7287
6.5185 8.6226 1.7307
6.5187 8.7907 1.7332
6.5188 8.9632 1.7361
6.5190 9.1401 1.7396
6.5192 9.3217 1.7435
6.5207 9.5104 1.7483
6.5209 9.7022 1.7534
6.5212 9.8994 1.7590
6.5214 10.1023 1.7651
6.5216 10.3112 1.7720
6.5219 10.5263 1.7794
6.5222 10.7480 1.7876
6.5224 10.9767 1.7964
6.5227 11.2126 1.8060
6.5230 11.4563 1.8165
6.5233 11.7082 1.8277
6.5236 11.9686 1.8398
6.5266 13.4212 1.9156
6.5239 12.2381 1.8528
6.5272 13.7455 1.9342
6.5277 14.0830 1.9540
6.5251 12.5188 1.8671
6.5283 14.4343 1.9752
6.5256 12.8085 1.8821
6.5290 14.8006 1.9980
6.5261 13.1090 1.8983
6.5296 15.1827 2.0222
6.5354 17.3814 2.1722
6.5305 15.5825 2.0483
6.5367 17.8887 2.2089
6.5316 16.0010 2.0762
6.5374 18.4205 2.2479
6.5328 16.4393 2.1061
6.5347 18.9715 2.2886
6.5341 16.8989 2.1380
6.5355 19.5635 2.3335
6.5364 20.1898 2.3818
6.5419 23.9626 2.6859
6.5373 20.8535 2.4337
6.3620 24.1888 2.6859
6.5398 21.5633 2.4903
6.1775 24.4101 2.6859
6.5423 22.3182 2.5512
5.9884 24.6262 2.6859
6.5450 23.1235 2.6171
5.7949 24.8369 2.6859
5.5970 25.0418 2.6859
5.3947 25.2407 2.6859
4.8027 27.4441 2.8383
5.1883 25.4332 2.6859
4.5679 27.6181 2.8383
4.9777 25.6192 2.6859
4.3294 27.7842 2.8383
4.8257 26.1370 2.7211
4.0872 27.9419 2.8383
3.8416 28.0911 2.8383
3.5926 28.2316 2.8383
2.3053 28.7948 2.8383
3.3405 28.3630 2.8383
3.0856 28.4852 2.8383
2.0407 28.8783 2.8383
2.8279 28.5981 2.8383
1.7743 28.9519 2.8383
2.5677 28.7013 2.8383
1.5064 29.0152 2.8383
0.9665 29.1109 2.8383
1.2370 29.0682 2.8383
0.6952 29.1430 2.8383
-0.3941 29.1664 2.8383
0.4232 29.1647 2.8383
-0.6662 29.1459 2.8383
0.1508 29.1759 2.8383
-0.9376 29.1148 2.8383
-0.1217 29.1764 2.8383
-1.2082 29.0733 2.8383
-1.7458 28.9591 2.8383
-1.4777 29.0214 2.8383
-2.0124 28.8867 2.8383
-3.0582 28.4977 2.8383
-2.2771 28.8042 2.8383
-3.3135 28.3764 2.8383
-2.5398 28.7118 2.8383
-3.5659 28.2460 2.8383
-2.8003 28.6096 2.8383
-3.8152 28.1065 2.8383
-4.3037 27.8014 2.8383
-4.0612 27.9582 2.8383
-4.5427 27.6362 2.8383
-5.4592 26.8977 2.8383
-4.7778 27.4630 2.8383
-5.0091 27.2820 2.8383
-5.6401 26.5178 2.8195
-5.2362 27.0934 2.8383
-5.6584 25.4356 2.7258
-6.1575 24.4334 2.6859
-5.7740 24.8589 2.6859
-6.3425 24.2126 2.6859
-5.9680 24.6489 2.6859
-6.5229 23.9869 2.6859
-7.0361 23.2830 2.6859
-6.6987 23.7566 2.6859
-7.1977 23.0404 2.6859
-6.8698 23.5218 2.6859
-7.3545 22.7941 2.6859
-7.7962 22.0370 2.6859
-7.5065 22.5447 2.6859
-7.9339 21.7793 2.6859
-7.6537 22.2922 2.6859
-8.0668 21.5192 2.6859
-8.1950 21.2573 2.6859
-8.3185 20.9935 2.6859
-8.4373 20.7283 2.6859
-8.5515 20.4617 2.6859
-8.6610 20.1941 2.6859
-8.7661 19.9255 2.6859
-8.8666 19.6563 2.6859
6.5054 2.6868 2.4499
6.5054 2.7575 2.4386
6.5054 2.8286 2.4277
6.5055 2.9003 2.4169
6.5055 2.9725 2.4064
6.5055 3.0453 2.3961
6.5055 3.1187 2.3860
6.5056 3.1927 2.3762
6.5056 3.2674 2.3666
6.5056 3.3427 2.3573
6.5056 3.4187 2.3481
6.5100 3.4977 2.3408
6.5102 3.5753 2.3323
6.5104 3.6537 2.3239
6.5106 3.7328 2.3158
6.5107 3.8127 2.3079
6.5109 3.8935 2.3003
6.5111 3.9751 2.2930
6.5113 4.0577 2.2858
6.5115 4.1412 2.2790
6.5117 4.2256 2.2723
6.5119 4.3110 2.2660
6.5121 4.3975 2.2599
6.5123 4.4850 2.2541
6.5125 4.5736 2.2485
6.5127 4.6634 2.2432
6.5129 4.7543 2.2382
6.5131 4.8464 2.2334
6.5133 4.9398 2.2290
6.5135 5.0345 2.2248
6.5137 5.1305 2.2209
6.5139 5.2279 2.2173
6.5142 5.3268 2.2140
6.5144 5.4271 2.2110
6.5146 5.5290 2.2084
6.5148 5.6324 2.2060
6.5151 5.7376 2.2040
6.5153 5.8443 2.2023
6.5156 5.9529 2.2009
6.5158 6.0633 2.1999
6.5160 6.1756 2.1993
6.5163 6.2899 2.1990
6.5156 6.4052 2.1987
6.5157 6.5234 2.1991
6.5158 6.6439 2.2000
6.5159 6.7666 2.2012
6.5161 6.8917 2.2028
6.5162 7.0192 2.2048
6.5163 7.1492 2.2073
6.5164 7.2819 2.2103
6.5166 7.4174 2.2137
6.5167 7.5557 2.2176
6.5168 7.6969 2.2220
6.5169 7.8413 2.2268
6.5171 7.9889 2.2323
6.5172 8.1399 2.2382
6.5173 8.2943 2.2448
6.5175 8.4524 2.2519
6.5176 8.6143 2.2596
6.5178 8.7803 2.2680
6.5179 8.9503 2.2770
6.5181 9.1247 2.2867
6.5182 9.3037 2.2972
6.5202 9.4901 2.3090
6.5204 9.6790 2.3209
6.5206 9.8730 2.3337
6.5209 10.0726 2.3473
6.5211 10.2779 2.3618
6.5213 10.4893 2.3772
6.5216 10.7071 2.3936
6.5218 10.9315 2.4110
6.5221 11.1630 2.4294
6.5224 11.4019 2.4490
6.5227 11.6486 2.4698
6.5230 11.9036 2.4917
6.5233 12.1673 2.5150
6.5236 12.4402 2.5397
6.5253 12.7255 2.5664
6.5258 13.0190 2.5941
6.5263 13.3234 2.6234
6.5268 13.6396 2.6545
6.5236 13.9603 2.6859
6.4406 14.1188 2.6859
6.3550 14.2763 2.6859
6.2667 14.4328 2.6859
6.1757 14.5880 2.6859
6.0819 14.7419 2.6859
5.9855 14.8944 2.6859
5.6802 15.3424 2.6859
5.8864 15.0455 2.6859
5.5730 15.4882 2.6859
5.7847 15.1948 2.6859
5.4632 15.6320 2.6859
5.1178 16.0505 2.6859
5.3507 15.7738 2.6859
4.9975 16.1853 2.6859
5.2356 15.9133 2.6859
4.8746 16.3175 2.6859
4.7455 17.6453 2.8383
4.8030 16.6337 2.7164
4.6052 17.7730 2.8383
4.4622 17.8975 2.8383
4.7917 17.1855 2.7850
4.0190 18.2499 2.8383
4.3169 18.0186 2.8383
3.8665 18.3600 2.8383
3.7119 18.4662 2.8383
4.1691 18.1361 2.8383
3.2352 18.7605 2.8383
3.5550 18.5685 2.8383
3.0724 18.8502 2.8383
3.3961 18.6666 2.8383
2.9077 18.9355 2.8383
2.4034 19.1639 2.8383
2.7412 19.0162 2.8383
2.2322 19.2307 2.8383
2.0597 19.2927 2.8383
2.5731 19.0924 2.8383
1.8858 19.3498 2.8383
1.5346 19.4490 2.8383
1.7107 19.4019 2.8383
1.3575 19.4911 2.8383
0.6417 19.6078 2.8383
1.1796 19.5281 2.8383
0.4614 19.6240 2.8383
1.0009 19.5598 2.8383
0.2808 19.6348 2.8383
0.8215 19.5865 2.8383
0.1001 19.6404 2.8383
-0.2615 19.6356 2.8383
-0.0808 19.6407 2.8383
-0.4421 19.6254 2.8383
-1.1606 19.5317 2.8383
-0.6225 19.6098 2.8383
-1.3386 19.4953 2.8383
-0.8024 19.5889 2.8383
-1.5158 19.4538 2.8383
-0.9818 19.5629 2.8383
-1.6920 19.4072 2.8383
-2.0412 19.2990 2.8383
-1.8672 19.3556 2.8383
-2.2139 19.2375 2.8383
-2.8900 18.9443 2.8383
-2.3852 19.1713 2.8383
-3.0549 18.8595 2.8383
-2.5551 19.1002 2.8383
-3.2179 18.7703 2.8383
-2.7234 19.0245 2.8383
-3.3791 18.6768 2.8383
-3.6952 18.4773 2.8383
-3.5382 18.5791 2.8383
-3.8501 18.3715 2.8383
-4.4469 17.9106 2.8383
-4.0028 18.2618 2.8383
-4.5900 17.7865 2.8383
-4.1532 18.1484 2.8383
-4.3012 18.0312 2.8383
-4.7307 17.6590 2.8383
-5.1371 17.2581 2.8383
-4.8688 17.5285 2.8383
-5.2673 17.1183 2.8383
-5.0043 17.3948 2.8383
-5.3948 16.9765 2.8383
-5.5195 16.8317 2.8383
-5.6699 16.2747 2.7936
-5.6414 16.6846 2.8383
-5.6795 15.8327 2.7429
-5.6885 15.4112 2.6952
-5.7736 15.2106 2.6859
-5.8757 15.0614 2.6859
-5.9751 14.9106 2.6859
-6.0718 14.7583 2.6859
-6.1658 14.6045 2.6859
-6.2571 14.4494 2.6859
-6.3457 14.2931 2.6859
6.1868 2.6603 2.6859
6.2090 2.7376 2.6859
6.2308 2.8157 2.6859
6.2522 2.8945 2.6859
6.2730 2.9742 2.6859
6.2934 3.0546 2.6859
6.3132 3.1358 2.6859
6.3325 3.2179 2.6859
6.3513 3.3007 2.6859
6.3696 3.3844 2.6859
6.3872 3.4688 2.6859
6.4043 3.5540 2.6859
6.4208 3.6401 2.6859
6.4367 3.7269 2.6859
6.4519 3.8146 2.6859
6.4665 3.9030 2.6859
6.4805 3.9923 2.6859
6.4937 4.0824 2.6859
6.5063 4.1732 2.6859
6.5117 4.2606 2.6832
6.5118 4.3456 2.6787
6.5120 4.4317 2.6745
6.5122 4.5188 2.6707
6.5124 4.6070 2.6671
6.5126 4.6964 2.6639
6.5128 4.7868 2.6611
6.5130 4.8785 2.6586
6.5132 4.9714 2.6564
6.5135 5.0656 2.6546
6.5137 5.1611 2.6532
6.5139 5.2579 2.6521
6.5141 5.3562 2.6514
6.5143 5.4559 2.6511
6.5146 5.5572 2.6512
6.5148 5.6600 2.6517
6.5150 5.7644 2.6526
6.5153 5.8705 2.6539
6.5155 5.9783 2.6557
6.5157 6.0879 2.6579
6.5160 6.1994 2.6605
6.5162 6.3128 2.6636
6.5149 6.4266 2.6665
6.5150 6.5439 2.6705
6.5151 6.6633 2.6750
6.5152 6.7850 2.6800
6.5153 6.9089 2.6855
6.5016 7.0204 2.6859
6.4857 7.1315 2.6859
6.4685 7.2429 2.6859
6.4501 7.3549 2.6859
6.4303 7.4672 2.6859
6.4091 7.5800 2.6859
6.3865 7.6932 2.6859
6.3626 7.8067 2.6859
6.3372 7.9206 2.6859
6.3103 8.0347 2.6859
6.2820 8.1491 2.6859
6.2523 8.2637 2.6859
6.2210 8.3785 2.6859
6.1881 8.4934 2.6859
6.1538 8.6086 2.6859
6.1179 8.7238 2.6859
6.0803 8.8390 2.6859
6.0412 8.9543 2.6859
6.0005 9.0695 2.6859
5.9581 9.1847 2.6859
5.9141 9.2998 2.6859
5.8684 9.4147 2.6859
5.8211 9.5294 2.6859
5.7720 9.6439 2.6859
5.7212 9.7581 2.6859
5.6687 9.8719 2.6859
5.6145 9.9853 2.6859
5.5586 10.0984 2.6859
5.5008 10.2109 2.6859
5.4414 10.3228 2.6859
5.3801 10.4342 2.6859
5.3171 10.5450 2.6859
5.2523 10.6550 2.6859
5.1857 10.7642 2.6859
5.1174 10.8727 2.6859
5.0472 10.9802 2.6859
4.9753 11.0869 2.6859
4.9015 11.1925 2.6859
4.8260 11.2971 2.6859
4.7914 11.5030 2.7100
4.7844 11.7854 2.7519
4.7769 12.0795 2.7960
4.7619 12.3676 2.8383
4.6728 12.4716 2.8383
4.5818 12.5741 2.8383
4.4891 12.6749 2.8383
4.3945 12.7742 2.8383
4.2981 12.8717 2.8383
4.2000 12.9675 2.8383
4.1001 13.0614 2.8383
3.9985 13.1534 2.8383
3.8952 13.2434 2.8383
3.7903 13.3315 2.8383
3.6837 13.4174 2.8383
3.5755 13.5012 2.8383
3.4657 13.5827 2.8383
3.3544 13.6619 2.8383
3.2416 13.7389 2.8383
3.1273 13.8133 2.8383
3.0116 13.8854 2.8383
2.8945 13.9549 2.8383
2.7760 14.0218 2.8383
2.6563 14.0861 2.8383
2.5354 14.1477 2.8383
2.4132 14.2066 2.8383
2.2899 14.2627 2.8383
2.1655 14.3160 2.8383
2.0401 14.3663 2.8383
1.9136 14.4138 2.8383
1.7863 14.4583 2.8383
1.6581 14.4998 2.8383
1.5290 14.5383 2.8383
1.3993 14.5736 2.8383
1.2688 14.6060 2.8383
1.1377 14.6351 2.8383
1.0060 14.6611 2.8383
0.8739 14.6839 2.8383
0.7413 14.7036 2.8383
0.6083 14.7200 2.8383
0.4750 14.7332 2.8383
0.3415 14.7431 2.8383
0.2078 14.7497 2.8383
0.0741 14.7532 2.8383
-0.0598 14.7534 2.8383
-0.1936 14.7504 2.8383
-0.3273 14.7440 2.8383
-0.4608 14.7344 2.8383
-0.5941 14.7215 2.8383
-0.7271 14.7055 2.8383
-0.8597 14.6862 2.8383
-1.5152 14.5422 2.8383
-1.6443 14.5040 2.8383
-0.9920 14.6637 2.8383
-1.7727 14.4628 2.8383
-1.1237 14.6380 2.8383
-1.9001 14.4187 2.8383
-1.2548 14.6092 2.8383
-2.0266 14.3715 2.8383
-1.3854 14.5772 2.8383
-2.1522 14.3215 2.8383
-2.2767 14.2685 2.8383
-2.7633 14.0288 2.8383
-2.4001 14.2127 2.8383
-2.8819 13.9621 2.8383
-2.5224 14.1542 2.8383
-2.9991 13.8929 2.8383
-3.3424 13.6703 2.8383
-2.6435 14.0928 2.8383
-3.1150 13.8211 2.8383
-3.4539 13.5913 2.8383
-3.8841 13.2530 2.8383
-3.5638 13.5100 2.8383
-3.2294 13.7469 2.8383
-3.9876 13.1631 2.8383
-3.6722 13.4265 2.8383
-4.0893 13.0713 2.8383
-4.3843 12.7847 2.8383
-4.1894 12.9776 2.8383
-3.7790 13.3407 2.8383
-4.4791 12.6856 2.8383
-4.2877 12.8820 2.8383
-4.5720 12.5849 2.8383
-4.8400 12.2736 2.8383
-4.9256 12.1669 2.8383
-4.6632 12.4826 2.8383
-5.0093 12.0590 2.8383
-4.7525 12.3788 2.8383
-5.0912 11.9498 2.8383
-5.1712 11.8394 2.8383
5.4313 2.4323 2.6859
5.4465 2.4988 2.6859
5.4612 2.5658 2.6859
5.4754 2.6334 2.6859
5.4892 2.7016 2.6859
5.5024 2.7703 2.6859
5.5151 2.8396 2.6859
5.5606 3.1225 2.6859
5.5273 2.9095 2.6859
5.5706 3.1946 2.6859
5.5390 2.9800 2.6859
5.5800 3.2672 2.6859
5.5501 3.0509 2.6859
5.6046 3.4885 2.6859
5.5888 3.3404 2.6859
5.6328 3.8679 2.6859
5.6116 3.5633 2.6859
5.5970 3.4142 2.6859
5.6436 4.2602 2.6859
5.6364 3.9454 2.6859
5.6354 4.6644 2.6859
5.6179 3.6387 2.6859
5.6063 5.0795 2.6859
5.6436 4.3401 2.6859
5.6393 4.0233 2.6859
5.6313 4.7466 2.6859
5.6235 3.7146 2.6859
5.5979 5.1636 2.6859
5.6427 4.4205 2.6859
5.6415 4.1018 2.6859
5.6264 4.8292 2.6859
5.6285 3.7910 2.6859
5.5885 5.2482 2.6859
5.6411 4.5013 2.6859
5.6430 4.1807 2.6859
5.6206 4.9122 2.6859
5.5547 5.5039 2.6859
5.5782 5.3331 2.6859
5.6387 4.5826 2.6859
5.4788 5.9361 2.6859
5.6139 4.9956 2.6859
5.5415 5.5898 2.6859
5.5669 5.4184 2.6859
5.3767 6.3737 2.6859
5.4605 6.0232 2.6859
5.2470 6.8144 2.6859
5.5274 5.6760 2.6859
5.3531 6.4617 2.6859
5.0881 7.2551 2.6859
5.4412 6.1106 2.6859
5.2176 6.9026 2.6859
5.3283 6.5498 2.6859
5.5122 5.7624 2.6859
5.4208 6.1982 2.6859
5.0527 7.3430 2.6859
5.1871 6.9908 2.6859
5.3023 6.6380 2.6859
5.4960 5.8491 2.6859
5.3993 6.2859 2.6859
5.0161 7.4307 2.6859
5.1553 7.0790 2.6859
5.2753 6.7262 2.6859
4.8988 7.6926 2.6859
4.9782 7.5182 2.6859
4.7774 8.2958 2.7430
5.1223 7.1671 2.6859
4.6760 9.0273 2.8383
4.8571 7.7794 2.6859
4.9469 7.6174 2.6901
4.7730 8.4617 2.7689
4.3744 9.4543 2.8383
4.6184 9.1142 2.8383
4.8143 7.8659 2.6859
4.7684 8.6324 2.7960
4.5595 9.2003 2.8383
4.3100 9.5373 2.8383
4.0389 9.8599 2.8383
4.7889 7.9842 2.6965
4.7636 8.8083 2.8244
4.4992 9.2857 2.8383
4.2443 9.6194 2.8383
4.7815 8.1346 2.7182
3.9678 9.9380 2.8383
4.7322 8.9398 2.8383
4.4375 9.3704 2.8383
4.1772 9.7005 2.8383
3.6703 10.2392 2.8383
3.8954 10.0151 2.8383
3.2701 10.5870 2.8383
2.8405 10.8982 2.8383
4.1087 9.7807 2.8383
3.5927 10.3115 2.8383
3.1865 10.6523 2.8383
3.8216 10.0910 2.8383
2.7513 10.9557 2.8383
2.3844 11.1682 2.8383
3.5139 10.3824 2.8383
3.1017 10.7161 2.8383
3.7466 10.1657 2.8383
2.6611 11.0114 2.8383
2.2903 11.2168 2.8383
3.4339 10.4520 2.8383
3.0157 10.7784 2.8383
1.9052 11.3925 2.8383
2.5698 11.0655 2.8383
2.1953 11.2636 2.8383
3.3526 10.5202 2.8383
2.9287 10.8391 2.8383
2.4776 11.1177 2.8383
1.8070 11.4315 2.8383
2.0994 11.3085 2.8383
1.4071 11.5673 2.8383
0.8948 11.6897 2.8383
0.3733 11.7574 2.8383
1.7080 11.4685 2.8383
2.0027 11.3515 2.8383
1.3057 11.5961 2.8383
0.7911 11.7076 2.8383
0.2684 11.7643 2.8383
1.6084 11.5035 2.8383
-0.1521 11.7692 2.8383
1.2036 11.6227 2.8383
0.6870 11.7234 2.8383
1.5081 11.5365 2.8383
0.1633 11.7689 2.8383
-0.2572 11.7649 2.8383
1.1011 11.6472 2.8383
0.5827 11.7370 2.8383
-0.6759 11.7250 2.8383
0.0582 11.7712 2.8383
-0.3621 11.7582 2.8383
0.9982 11.6695 2.8383
0.4781 11.7483 2.8383
-0.7800 11.7094 2.8383
-0.0470 11.7714 2.8383
-0.4669 11.7494 2.8383
-1.1927 11.6254 2.8383
-0.8838 11.6917 2.8383
-1.6974 11.4724 2.8383
-2.1851 11.2685 2.8383
-0.5715 11.7383 2.8383
-1.2948 11.5990 2.8383
-0.9872 11.6718 2.8383
-2.2802 11.2219 2.8383
-1.7965 11.4355 2.8383
-2.6514 11.0173 2.8383
-1.3964 11.5705 2.8383
-1.0902 11.6497 2.8383
-2.3744 11.1735 2.8383
-2.7418 10.9617 2.8383
-1.8948 11.3967 2.8383
-3.0926 10.7229 2.8383
-1.4973 11.5398 2.8383
-2.4677 11.1232 2.8383
-2.8311 10.9045 2.8383
-1.9924 11.3559 2.8383
-3.1775 10.6592 2.8383
-1.5977 11.5072 2.8383
-2.5600 11.0711 2.8383
-2.9193 10.8455 2.8383
-2.0891 11.3132 2.8383
-3.5054 10.3898 2.8383
-3.0065 10.7850 2.8383
-3.5844 10.3191 2.8383
-3.2613 10.5940 2.8383
-3.6621 10.2470 2.8383
-3.3439 10.5274 2.8383
-3.7385 10.1736 2.8383
-3.4253 10.4593 2.8383
-3.8137 10.0990 2.8383
-3.8876 10.0232 2.8383
-3.9601 9.9463 2.8383
-4.0314 9.8683 2.8383
-4.1013 9.7892 2.8383
-4.1699 9.7091 2.8383
