ply
format ascii 1.0
element vertex 2039
property float32 x
property float32 y
property float32 z
end_header
-36.0678 -20.3061 -1.5056
-36.0520 -19.3972 -1.6934
-36.0759 -20.7684 -1.4112
-36.0599 -19.8492 -1.5997
-36.0843 -21.2364 -1.3165
-36.1209 -23.1679 -0.9333
-36.0933 -21.7102 -1.2214
-36.1298 -23.6662 -0.8363
-36.1024 -22.1900 -1.1258
-36.1383 -24.1708 -0.7387
-36.1116 -22.6758 -1.0298
-36.1469 -24.6825 -0.6406
-36.1735 -26.2615 -0.3425
-36.1556 -25.2013 -0.5418
-36.1826 -26.8034 -0.2418
-36.1645 -25.7275 -0.4425
-36.1919 -27.3537 -0.1403
-36.2013 -27.9125 -0.0381
-36.2109 -28.4802 0.0649
-21.6652 -18.0779 0.2268
-36.2206 -29.0571 0.1688
-21.6665 -18.4365 0.2905
-21.6678 -18.8013 0.3548
-21.6720 -19.9346 0.5515
-21.6692 -19.1724 0.4197
-21.6735 -20.3264 0.6184
-21.6706 -19.5501 0.4852
-21.6749 -20.7255 0.6861
-21.6764 -21.1324 0.7545
-21.6931 -22.4145 0.9653
-21.6780 -21.5472 0.8237
-21.6947 -22.8556 1.0373
-21.5954 -21.8851 0.8904
-21.6964 -23.3061 1.1102
-21.7034 -25.2101 1.4125
-21.6981 -23.7663 1.1841
-21.7053 -25.7139 1.4910
-21.6998 -24.2368 1.2591
-21.7072 -26.2297 1.5708
-21.7016 -24.7179 1.3352
-7.2146 -9.4439 0.6326
-21.7091 -26.7583 1.6519
-7.1526 -9.5546 0.6559
-21.6139 -27.1776 1.7267
-21.7066 -29.5937 2.0791
-7.6585 -9.8249 0.6414
-21.7089 -30.2110 2.1698
-6.6421 -9.4365 0.6921
-21.6623 -32.0911 2.4476
-6.5030 -9.4335 0.7059
-21.7309 -32.8819 2.5541
-19.7368 -33.3027 2.8020
-21.9834 -33.9827 2.6860
-19.2761 -33.2653 2.8384
-21.1586 -33.4207 2.6860
-18.5908 -32.8211 2.8384
-17.9347 -32.4006 2.8384
-20.3753 -32.8921 2.6860
-17.3055 -32.0021 2.8384
-19.7534 -32.5976 2.7029
-16.7015 -31.6241 2.8384
-16.1209 -31.2654 2.8384
-13.0470 -29.4552 2.8384
-15.5620 -30.9246 2.8384
-12.5919 -29.2021 2.8384
-15.0234 -30.6007 2.8384
-12.1504 -28.9609 2.8384
-14.5038 -30.2928 2.8384
-11.7219 -28.7311 2.8384
-14.0020 -29.9998 2.8384
-13.5167 -29.7208 2.8384
-11.3054 -28.5120 2.8384
-10.9002 -28.3030 2.8384
-10.5058 -28.1038 2.8384
-10.1214 -27.9138 2.8384
-7.8841 -25.6346 2.6860
-7.5670 -25.5000 2.6860
-9.2232 -26.2436 2.6860
-7.2562 -25.3719 2.6860
-8.8769 -26.0802 2.6860
-6.9514 -25.2500 2.6860
-8.5386 -25.9245 2.6860
-6.6522 -25.1342 2.6860
-8.2078 -25.7760 2.6860
-6.3582 -25.0242 2.6860
-6.0692 -24.9198 2.6860
-4.6703 -25.7636 2.8358
-5.7917 -24.8505 2.6892
-5.7731 -25.9324 2.8169
-4.3928 -25.6844 2.8351
-4.1186 -25.6101 2.8345
-5.5245 -26.0314 2.8378
-3.0498 -25.3591 2.8319
-3.8474 -25.5405 2.8338
-5.2359 -25.9369 2.8371
-2.7885 -25.3075 2.8313
-3.5790 -25.4755 2.8332
-2.5293 -25.2602 2.8307
-4.9512 -25.8477 2.8364
-3.3132 -25.4152 2.8326
-2.2718 -25.2170 2.8301
-1.5085 -25.1123 2.8283
-2.0160 -25.1780 2.8295
-1.7616 -25.1431 2.8289
-1.2565 -25.0855 2.8277
-1.0055 -25.0626 2.8271
-0.7551 -25.0437 2.8265
-0.5054 -25.0286 2.8259
-0.2562 -25.0175 2.8254
-0.0072 -25.0102 2.8248
0.2418 -25.0068 2.8242
0.4907 -25.0073 2.8236
0.7399 -25.0115 2.8230
0.9894 -25.0197 2.8224
1.2395 -25.0318 2.8218
1.4903 -25.0477 2.8212
1.7419 -25.0676 2.8206
1.9946 -25.0915 2.8200
-27.7353 3.7287 -4.8811
-27.8031 3.4637 -4.8056
-28.1424 2.1302 -4.4308
-27.8709 3.1983 -4.7302
-28.4157 1.8750 -4.3881
-27.9387 2.9322 -4.6551
-28.4885 1.6036 -4.3138
-34.5478 1.6102 -5.1284
-27.3527 2.6034 -4.4732
-30.1888 1.1153 -4.3919
-28.0744 2.3983 -4.5054
-32.5294 0.8877 -4.6365
-33.3377 -1.3384 -4.0783
-31.8628 0.5621 -4.4482
-33.4442 -1.6650 -3.9966
-32.7272 0.2620 -4.4735
-32.8267 -0.0535 -4.3919
-32.0167 -0.3605 -4.1912
-47.8810 -3.3074 -5.4523
-33.0271 -0.6898 -4.2286
-33.1279 -1.0109 -4.1469
-7.2993 -0.8578 -0.7297
-7.2595 -0.9239 -0.7058
-37.8238 -13.6870 -1.3164
-38.4042 -14.3155 -1.2318
-38.2681 -15.5347 -0.9128
-38.4116 -14.7399 -1.1271
-37.8606 -15.7947 -0.7988
-38.4191 -15.1677 -1.0220
-36.8553 -17.5002 -0.2647
-40.6837 -17.4334 -0.7459
-36.0264 -17.5335 -0.1573
-39.6673 -17.4511 -0.6173
-36.0337 -17.9682 -0.0554
-36.0411 -18.4074 0.0470
-38.6922 -17.4681 -0.4945
-36.0486 -18.8514 0.1500
-37.7556 -17.4845 -0.3770
-36.0562 -19.3002 0.2536
-36.0638 -19.7539 0.3577
-21.6497 -13.5444 0.5980
-21.6445 -12.1286 0.2776
-21.6507 -13.8382 0.6635
-21.6518 -14.1357 0.7295
-21.6455 -12.4051 0.3408
-21.6529 -14.4372 0.7960
-21.6465 -12.6848 0.4045
-21.6541 -14.7428 0.8631
-21.6476 -12.9679 0.4685
-21.6552 -15.0526 0.9307
-21.6486 -13.2544 0.5331
-21.6563 -15.3668 0.9990
-21.6575 -15.6856 1.0679
-21.6617 -17.3517 1.4228
-21.6587 -16.0090 1.1375
-21.6629 -17.7014 1.4961
-21.6599 -16.3373 1.2077
-21.6642 -18.0568 1.5703
-21.5751 -16.6045 1.2736
-21.6656 -18.4183 1.6454
-21.5783 -16.9433 1.3452
-21.6669 -18.7861 1.7213
-21.6697 -19.5415 1.8763
-21.6711 -19.9296 1.9553
-21.6683 -19.1604 1.7983
-21.6726 -20.3249 2.0354
-21.5946 -21.9002 2.3586
-21.6740 -20.7279 2.1167
-21.6756 -21.1388 2.1991
-21.6922 -22.4343 2.4555
-21.6771 -21.5579 2.2828
-21.6938 -22.8803 2.5433
-20.0293 -22.8575 2.6860
-22.1359 -23.8097 2.6861
-19.7238 -22.9600 2.7320
-19.7089 -23.4042 2.8184
-21.3983 -23.4737 2.6860
-19.2320 -23.2992 2.8384
-20.6973 -23.1571 2.6860
-18.6417 -23.0422 2.8384
-17.5314 -22.5647 2.8384
-18.0753 -22.7976 2.8384
-14.6636 -21.3745 2.8384
-7.1793 -9.4309 1.1981
-14.2413 -21.2055 2.8384
-7.1182 -9.5445 1.2241
-13.8325 -21.0437 2.8384
-16.0198 -21.9287 2.8384
-13.4363 -20.8887 2.8384
-13.0521 -20.7402 2.8384
-15.5520 -21.7356 2.8384
-12.6792 -20.5978 2.8384
-15.1002 -21.5510 2.8384
-12.3169 -20.4612 2.8384
-11.9648 -20.3302 2.8384
-10.3379 -19.7492 2.8384
-11.6222 -20.2044 2.8384
-10.0362 -19.6463 2.8384
-11.2887 -20.0836 2.8384
-10.9638 -19.9676 2.8384
-9.2184 -18.4978 2.6860
-10.6470 -19.8562 2.8384
-8.1623 -18.1587 2.6860
-8.9457 -18.4080 2.6860
-7.9118 -18.0820 2.6860
-8.6790 -18.3216 2.6860
-7.6661 -18.0083 2.6860
-7.4251 -17.9374 2.6860
-8.4180 -18.2386 2.6860
-7.1886 -17.8694 2.6860
-6.7278 -17.7412 2.6860
-6.9562 -17.8040 2.6860
-6.5033 -17.6809 2.6860
-5.7399 -18.4023 2.8383
-6.2824 -17.6230 2.6860
-5.5220 -18.3496 2.8378
-6.0649 -17.5675 2.6860
-5.3071 -18.2991 2.8373
-5.8508 -17.5143 2.6860
-5.0950 -18.2507 2.8368
-5.7648 -17.8503 2.7455
-4.8856 -18.2045 2.8363
-4.6786 -18.1602 2.8358
-4.4741 -18.1179 2.8353
-3.2902 -17.9036 2.8325
-3.0990 -17.8742 2.8320
-4.2718 -18.0776 2.8348
-2.9094 -17.8464 2.8316
-4.0716 -18.0391 2.8344
-2.7212 -17.8202 2.8311
-2.5343 -17.7957 2.8307
-3.8735 -18.0025 2.8339
-2.3486 -17.7728 2.8302
-3.6773 -17.9678 2.8334
-2.1640 -17.7516 2.8298
-3.4829 -17.9348 2.8330
-1.9804 -17.7318 2.8294
-1.7978 -17.7136 2.8289
-1.0750 -17.6560 2.8272
-1.6160 -17.6970 2.8285
-0.8958 -17.6453 2.8268
-1.4350 -17.6818 2.8280
-1.2547 -17.6682 2.8276
-0.7171 -17.6361 2.8263
-0.5388 -17.6284 2.8259
-0.3607 -17.6221 2.8255
-0.1828 -17.6172 2.8250
-0.0051 -17.6138 2.8246
0.1726 -17.6118 2.8242
0.3503 -17.6113 2.8238
0.5280 -17.6122 2.8233
0.7060 -17.6145 2.8229
0.8842 -17.6183 2.8225
1.0628 -17.6236 2.8221
1.2417 -17.6302 2.8216
1.4212 -17.6384 2.8212
-40.8161 5.2344 -5.0619
-40.7253 4.8227 -4.9272
-40.6354 4.4141 -4.7939
-40.5465 4.0083 -4.6619
-40.4585 3.6052 -4.5311
-40.3713 3.2048 -4.4015
-40.2850 2.8069 -4.2732
-40.1995 2.4113 -4.1459
-40.1147 2.0180 -4.0198
-30.2227 1.2283 -2.9405
-39.9475 1.2379 -3.7707
-39.8650 0.8508 -3.6477
-39.7832 0.4656 -3.5256
-39.7020 0.0822 -3.4045
-39.6214 -0.2996 -3.2842
-39.5415 -0.6798 -3.1648
-39.5491 -1.0608 -3.0530
-48.7003 -1.7756 -3.6212
-48.7279 -2.2463 -3.4855
-49.6234 -2.7663 -3.4095
-49.4565 -3.2345 -3.2587
-47.8973 -3.5955 -3.0213
-47.5142 -4.0267 -2.8639
-7.2586 -0.8974 -0.3563
-43.1155 -11.8063 -0.3075
-40.8872 -11.6204 -0.1760
-38.9256 -11.4691 -0.0572
-38.3587 -11.7047 0.0526
-38.3658 -12.1122 0.1620
-38.3729 -12.5223 0.2718
-38.3801 -12.9353 0.3820
-21.6279 -7.5222 0.2776
-21.6287 -7.7571 0.3401
-21.6296 -7.9938 0.4030
-21.6305 -8.2322 0.4661
-21.6313 -8.4725 0.5295
-21.6322 -8.7147 0.5932
-21.6331 -8.9589 0.6572
-21.6340 -9.2052 0.7216
-21.6349 -9.4537 0.7863
-21.6358 -9.7043 0.8514
-21.6367 -9.9573 0.9170
-21.6377 -10.2127 0.9829
-21.6386 -10.4705 1.0493
-21.6395 -10.7310 1.1161
-21.6405 -10.9940 1.1834
-21.5566 -11.2157 1.2463
-21.5576 -11.4833 1.3143
-21.6425 -11.7997 1.3883
-21.6435 -12.0743 1.4577
-21.6445 -12.3521 1.5277
-21.6456 -12.6332 1.5984
-21.6466 -12.9177 1.6696
-21.6477 -13.2057 1.7415
-21.6487 -13.4972 1.8141
-21.6498 -13.7926 1.8874
-21.6509 -14.0918 1.9615
-21.6520 -14.3951 2.0364
-21.6531 -14.7025 2.1120
-21.6542 -15.0142 2.1885
-21.6554 -15.3304 2.2659
-21.6566 -15.6512 2.3441
-21.6577 -15.9769 2.4233
-21.6590 -16.3075 2.5035
-21.5742 -16.5772 2.5745
-21.8154 -17.1051 2.6860
-21.1554 -16.9252 2.6860
-20.5260 -16.7545 2.6860
-19.9248 -16.5924 2.6860
-19.7075 -16.7420 2.7356
-19.6939 -17.0665 2.8137
-19.3090 -17.0684 2.8384
-18.7742 -16.9277 2.8384
-18.2603 -16.7933 2.8384
-17.7662 -16.6650 2.8384
-17.2905 -16.5424 2.8384
-16.8321 -16.4250 2.8384
-16.3901 -16.3127 2.8384
-15.9633 -16.2051 2.8384
-15.5511 -16.1020 2.8384
-15.1523 -16.0030 2.8384
-14.7665 -15.9080 2.8384
-14.3927 -15.8168 2.8384
-14.0305 -15.7292 2.8384
-13.6791 -15.6450 2.8384
-13.3380 -15.5640 2.8384
-13.0066 -15.4860 2.8384
-12.6845 -15.4110 2.8384
-12.3711 -15.3388 2.8384
-12.0662 -15.2692 2.8384
-11.7691 -15.2021 2.8384
-7.1683 -9.4525 1.7724
-7.1061 -9.5671 1.8013
-10.9218 -15.0150 2.8384
-10.6528 -14.9570 2.8384
-10.3901 -14.9010 2.8384
-10.1333 -14.8470 2.8384
-9.8822 -14.7948 2.8384
-9.1191 -13.9528 2.6860
-8.8914 -13.9067 2.6860
-8.6685 -13.8623 2.6860
-8.4500 -13.8194 2.6860
-8.2358 -13.7779 2.6860
-8.0257 -13.7378 2.6860
-7.8195 -13.6991 2.6860
-7.2227 -13.5906 2.6860
-7.6170 -13.6617 2.6860
-7.0306 -13.5568 2.6860
-7.4182 -13.6255 2.6860
-6.8416 -13.5242 2.6860
-6.1148 -13.4046 2.6860
-6.6557 -13.4928 2.6860
-5.9397 -13.3773 2.6860
-6.4727 -13.4624 2.6860
-5.7671 -13.3509 2.6860
-6.2924 -13.4330 2.6860
-5.7519 -13.6945 2.7604
-5.3884 -14.0063 2.8384
-5.7368 -14.0555 2.8384
-5.2174 -13.9830 2.8384
-5.5615 -14.0304 2.8384
-5.0484 -13.9606 2.8384
-4.3905 -13.8793 2.8384
-4.8812 -13.9391 2.8384
-4.2303 -13.8610 2.8384
-4.7159 -13.9184 2.8384
-4.0715 -13.8434 2.8384
-4.5524 -13.8985 2.8384
-3.9142 -13.8265 2.8384
-3.4504 -13.7802 2.8384
-3.7583 -13.8104 2.8384
-3.2983 -13.7661 2.8384
-3.6037 -13.7949 2.8384
-3.1473 -13.7528 2.8384
-2.5534 -13.7058 2.8384
-2.9973 -13.7400 2.8384
-2.4072 -13.6957 2.8384
-2.8484 -13.7280 2.8384
-2.2619 -13.6862 2.8384
-2.7005 -13.7166 2.8384
-0.9138 -5.9032 1.2251
-0.7282 -5.8933 1.2251
-0.8517 -5.8997 1.2251
-0.6669 -5.8904 1.2251
-0.7898 -5.8963 1.2251
-0.6057 -5.8879 1.2251
-0.3629 -5.8801 1.2251
-0.5448 -5.8856 1.2251
-0.3025 -5.8788 1.2251
-0.2422 -5.8777 1.2251
-0.4840 -5.8835 1.2251
-0.1820 -5.8768 1.2251
-0.4234 -5.8817 1.2251
-0.1219 -5.8762 1.2251
-0.0618 -5.8759 1.2251
-0.0017 -5.8757 1.2251
0.0584 -5.8758 1.2251
0.1185 -5.8762 1.2251
0.1786 -5.8768 1.2251
0.2388 -5.8776 1.2251
0.2990 -5.8787 1.2251
0.3594 -5.8800 1.2251
0.4199 -5.8816 1.2251
0.4805 -5.8834 1.2251
-39.4936 6.3745 -3.3422
-39.4117 5.9709 -3.2175
-39.3306 5.5704 -3.0939
-39.2502 5.1727 -2.9713
-39.1705 4.7777 -2.8498
-38.7685 4.3493 -2.7066
-39.1081 4.0055 -2.6159
-39.1910 3.6322 -2.5071
-39.2740 3.2581 -2.3983
-39.2806 2.8775 -2.2849
-39.2873 2.4974 -2.1717
-39.2175 2.1135 -2.0549
-30.2550 1.3382 -1.4983
-30.0880 1.0404 -1.4038
-39.3137 0.9803 -1.7217
-39.2439 0.6003 -1.6065
-39.1741 0.2218 -1.4920
-39.1807 -0.1555 -1.3807
-39.1965 -0.5331 -1.2698
-49.6718 -1.6328 -1.3271
-49.1982 -2.0917 -1.1750
-7.2674 -0.8728 -0.0087
-7.2666 -0.9438 0.0119
-21.6049 -3.6574 0.2821
-21.6056 -3.8721 0.3440
-21.6064 -4.0876 0.4062
-21.6072 -4.3039 0.4684
-21.6080 -4.5212 0.5309
-21.6088 -4.7394 0.5936
-21.6096 -4.9586 0.6564
-21.6104 -5.1788 0.7195
-21.6112 -5.4002 0.7828
-21.6120 -5.6227 0.8463
-21.6128 -5.8464 0.9102
-21.5297 -6.0478 0.9705
-21.5305 -6.2731 1.0346
-21.5314 -6.4999 1.0991
-21.6244 -6.7570 1.1688
-21.6252 -6.9876 1.2342
-21.6261 -7.2198 1.3000
-21.6269 -7.4537 1.3661
-21.6278 -7.6892 1.4326
-21.6286 -7.9265 1.4995
-21.6295 -8.1656 1.5669
-21.6304 -8.4066 1.6347
-21.6313 -8.6495 1.7029
-21.6321 -8.8945 1.7717
-21.6330 -9.1416 1.8409
-21.6339 -9.3909 1.9107
-21.6349 -9.6424 1.9810
-21.6358 -9.8963 2.0519
-21.6367 -10.1526 2.1234
-21.6376 -10.4114 2.1955
-21.6386 -10.6728 2.2683
-21.6395 -10.9370 2.3417
-21.5557 -11.1600 2.4063
-21.5566 -11.4288 2.4808
-21.5585 -11.7010 2.5561
-22.0007 -12.2209 2.6860
-21.3773 -12.1498 2.6860
-20.7828 -12.0825 2.6860
-20.2144 -12.0186 2.6860
-19.7116 -11.9826 2.6916
-19.6914 -12.2364 2.7620
-19.6786 -12.4978 2.8342
-19.2000 -12.4601 2.8384
-18.7124 -12.4067 2.8384
-18.2431 -12.3555 2.8384
-17.7912 -12.3065 2.8384
-17.3555 -12.2596 2.8384
-16.9352 -12.2146 2.8384
-16.5293 -12.1715 2.8384
-16.1371 -12.1300 2.8384
-15.7577 -12.0902 2.8384
-15.3904 -12.0519 2.8384
-15.0347 -12.0151 2.8384
-14.6898 -11.9797 2.8384
-14.3553 -11.9455 2.8384
-14.0306 -11.9127 2.8384
-13.7152 -11.8810 2.8384
-13.4086 -11.8504 2.8384
-13.1105 -11.8210 2.8384
-12.8203 -11.7925 2.8384
-12.5379 -11.7651 2.8384
-12.2626 -11.7386 2.8384
-11.9942 -11.7130 2.8384
-11.7325 -11.6882 2.8384
-11.4771 -11.6643 2.8384
-11.2277 -11.6411 2.8384
-10.9841 -11.6187 2.8384
-10.7460 -11.5970 2.8384
-10.5132 -11.5761 2.8384
-10.2854 -11.5558 2.8384
-10.0625 -11.5361 2.8384
-9.8442 -11.5171 2.8384
-9.1132 -10.8812 2.6860
-8.9149 -10.8643 2.6860
-8.7204 -10.8480 2.6860
-8.5296 -10.8320 2.6860
-7.2194 -9.3606 2.3244
-7.1567 -9.4753 2.3561
-7.0935 -9.5912 2.3881
-7.8008 -10.7732 2.6860
-7.6265 -10.7596 2.6860
-7.4551 -10.7464 2.6860
-7.2865 -10.7337 2.6860
-7.1206 -10.7213 2.6860
-6.9573 -10.7092 2.6860
-6.7965 -10.6976 2.6860
-6.6382 -10.6862 2.6860
-6.4821 -10.6753 2.6860
-6.3283 -10.6646 2.6860
-6.1766 -10.6543 2.6860
-6.0270 -10.6443 2.6860
-5.8794 -10.6346 2.6860
-5.7550 -10.6648 2.6960
-5.7449 -10.9106 2.7605
-5.7344 -11.1654 2.8273
-5.6085 -11.2001 2.8384
-5.4619 -11.1913 2.8384
-5.3170 -11.1829 2.8384
-5.1737 -11.1746 2.8384
-5.0319 -11.1667 2.8384
-4.8917 -11.1590 2.8384
-4.7529 -11.1516 2.8384
-4.6155 -11.1444 2.8384
-4.4794 -11.1375 2.8384
-4.3446 -11.1308 2.8384
-4.2110 -11.1243 2.8384
-4.0786 -11.1180 2.8384
-3.9474 -11.1120 2.8384
-3.8172 -11.1062 2.8384
-3.6881 -11.1006 2.8384
-3.5600 -11.0953 2.8384
-3.4328 -11.0901 2.8384
-3.3066 -11.0851 2.8384
-3.1812 -11.0804 2.8384
-3.0567 -11.0758 2.8384
-2.9330 -11.0714 2.8384
-2.8100 -11.0672 2.8384
-2.6878 -11.0633 2.8384
-2.5663 -11.0595 2.8384
-2.4454 -11.0558 2.8384
-2.3252 -11.0524 2.8384
-2.2055 -11.0491 2.8384
-0.9008 -4.7691 1.2254
-0.8496 -4.7678 1.2254
-0.7987 -4.7667 1.2254
-0.7479 -4.7656 1.2254
-0.6973 -4.7645 1.2254
-0.6469 -4.7636 1.2254
-0.5966 -4.7627 1.2254
-0.5465 -4.7619 1.2254
-0.4965 -4.7611 1.2254
-0.4467 -4.7605 1.2254
-0.3969 -4.7599 1.2254
-0.3473 -4.7594 1.2254
-0.2977 -4.7589 1.2254
-0.2482 -4.7585 1.2254
-0.1988 -4.7582 1.2254
-0.1494 -4.7580 1.2254
-0.1001 -4.7578 1.2254
-0.0507 -4.7577 1.2254
-0.0014 -4.7577 1.2254
0.0479 -4.7577 1.2254
0.0972 -4.7578 1.2254
0.1466 -4.7579 1.2254
0.1959 -4.7582 1.2254
0.2454 -4.7585 1.2254
0.2949 -4.7589 1.2254
0.3444 -4.7593 1.2254
0.3941 -4.7598 1.2254
-38.7414 6.7717 -1.5212
-38.5242 6.3513 -1.4006
-39.0723 6.0551 -1.3072
-39.0790 5.6707 -1.1944
-39.0857 5.2874 -1.0819
-39.0924 4.9050 -0.9696
-39.0991 4.5234 -0.8575
-38.5744 4.0864 -0.7354
-39.1123 3.7626 -0.6338
-39.2716 3.3963 -0.5242
-37.8882 2.9092 -0.3976
-37.8792 2.5417 -0.2896
-37.8870 2.1759 -0.1818
-39.1454 1.8700 -0.0765
-30.1194 1.1482 0.0268
-39.1585 1.1152 0.1461
-39.1651 0.7380 0.2574
-39.1717 0.3608 0.3688
-21.5949 -0.0091 0.2647
-21.5956 -0.2172 0.3261
-21.5964 -0.4252 0.3876
-21.5095 -0.6308 0.4473
-21.5102 -0.8383 0.5087
-21.5110 -1.0460 0.5701
-21.5156 -1.2542 0.6317
-21.5963 -1.4678 0.6960
-21.5970 -1.6771 0.7580
-21.5978 -1.8868 0.8201
-21.5985 -2.0969 0.8824
-21.5993 -2.3075 0.9448
-7.3056 -0.8518 0.3407
-7.2541 -0.9168 0.3594
-21.6016 -2.9422 1.1332
-21.6024 -3.1550 1.1964
-21.6031 -3.3685 1.2599
-21.6039 -3.5826 1.3236
-21.6047 -3.7976 1.3875
-21.6055 -4.0134 1.4517
-21.6063 -4.2300 1.5162
-21.6070 -4.4475 1.5810
-21.6078 -4.6661 1.6461
-21.6086 -4.8856 1.7115
-21.6094 -5.1062 1.7773
-21.6102 -5.3279 1.8435
-21.6110 -5.5508 1.9100
-21.6118 -5.7749 1.9769
-21.5371 -5.9793 2.0371
-21.5296 -6.2028 2.1038
-21.5304 -6.4301 2.1717
-21.6235 -6.6873 2.2497
-21.6243 -6.9185 2.3189
-21.6251 -7.1513 2.3885
-21.6260 -7.3857 2.4587
-21.6268 -7.6218 2.5294
-21.6277 -7.8597 2.6007
-21.7365 -8.1399 2.6860
-21.1635 -8.1615 2.6860
-20.6154 -8.1820 2.6860
-20.0905 -8.2015 2.6860
-19.6933 -8.2648 2.7005
-19.6810 -8.4868 2.7670
-19.6691 -8.7108 2.8342
-19.2264 -8.7407 2.8384
-18.7726 -8.7573 2.8384
-18.3353 -8.7731 2.8384
-17.9137 -8.7883 2.8384
-17.5068 -8.8028 2.8384
-17.1138 -8.8168 2.8384
-16.7339 -8.8303 2.8384
-16.3664 -8.8432 2.8384
-16.0106 -8.8556 2.8384
-15.6660 -8.8676 2.8384
-15.3319 -8.8791 2.8384
-15.0077 -8.8903 2.8384
-14.6931 -8.9010 2.8384
-14.3875 -8.9113 2.8384
-14.0905 -8.9213 2.8384
-13.8017 -8.9310 2.8384
-13.5207 -8.9403 2.8384
-13.2470 -8.9492 2.8384
-12.9805 -8.9580 2.8384
-12.7207 -8.9664 2.8384
-12.4674 -8.9746 2.8384
-12.2203 -8.9825 2.8384
-11.9790 -8.9901 2.8384
-11.7434 -8.9975 2.8384
-11.5132 -9.0047 2.8384
-11.2882 -9.0116 2.8384
-11.0682 -9.0183 2.8384
-10.8529 -9.0249 2.8384
-10.6422 -9.0312 2.8384
-10.4359 -9.0374 2.8384
-10.2337 -9.0433 2.8384
-10.0357 -9.0491 2.8384
-9.8415 -9.0547 2.8384
-9.1329 -8.5737 2.6860
-8.9560 -8.5788 2.6860
-8.7825 -8.5836 2.6860
-8.6121 -8.5883 2.6860
-8.4447 -8.5930 2.6860
-8.2803 -8.5974 2.6860
-8.1187 -8.6018 2.6860
-7.9598 -8.6060 2.6860
-7.8035 -8.6101 2.6860
-7.6497 -8.6141 2.6860
-7.4984 -8.6180 2.6860
-7.3494 -8.6217 2.6860
-7.2027 -8.6254 2.6860
-7.0581 -8.6290 2.6860
-6.9157 -8.6325 2.6860
-6.7753 -8.6358 2.6860
-6.6369 -8.6391 2.6860
-6.5003 -8.6423 2.6860
-6.3656 -8.6454 2.6860
-6.2327 -8.6485 2.6860
-6.1015 -8.6514 2.6860
-5.9720 -8.6543 2.6860
-5.8440 -8.6571 2.6860
-5.7493 -8.7077 2.7008
-5.7404 -8.8911 2.7569
-5.7313 -9.0800 2.8146
-5.6506 -9.1592 2.8384
-5.5230 -9.1618 2.8384
-5.3969 -9.1642 2.8384
-5.2720 -9.1666 2.8384
-5.1484 -9.1690 2.8384
-5.0261 -9.1713 2.8384
-4.9050 -9.1735 2.8384
-4.7851 -9.1756 2.8384
-4.6662 -9.1777 2.8384
-4.5485 -9.1797 2.8384
-4.4318 -9.1816 2.8384
-4.3161 -9.1836 2.8384
-4.2014 -9.1854 2.8384
-4.0877 -9.1872 2.8384
-3.9748 -9.1890 2.8384
-3.8629 -9.1906 2.8384
-3.7518 -9.1922 2.8384
-3.6415 -9.1938 2.8384
-3.5319 -9.1953 2.8384
-3.4232 -9.1968 2.8384
-3.3152 -9.1982 2.8384
-3.2079 -9.1996 2.8384
-3.1012 -9.2009 2.8384
-2.9952 -9.2021 2.8384
-2.8898 -9.2034 2.8384
-2.7850 -9.2045 2.8384
-2.6808 -9.2057 2.8384
-2.5772 -9.2067 2.8384
-2.4740 -9.2078 2.8384
-2.3714 -9.2088 2.8384
-2.2692 -9.2097 2.8384
-2.1675 -9.2106 2.8384
-0.8923 -3.9779 1.2257
-0.8487 -3.9782 1.2257
-0.8053 -3.9785 1.2257
-0.7621 -3.9789 1.2257
-0.7190 -3.9792 1.2257
-0.6761 -3.9794 1.2257
-0.6333 -3.9797 1.2257
-0.5906 -3.9800 1.2257
-0.5480 -3.9802 1.2257
-0.5055 -3.9804 1.2257
-0.4632 -3.9806 1.2257
-0.4209 -3.9808 1.2257
-0.3787 -3.9809 1.2257
-0.3366 -3.9811 1.2257
-0.2945 -3.9812 1.2257
-0.2525 -3.9813 1.2257
-0.2105 -3.9814 1.2257
-0.1686 -3.9815 1.2257
-0.1267 -3.9815 1.2257
-0.0849 -3.9816 1.2257
-0.0430 -3.9816 1.2257
-0.0012 -3.9816 1.2257
0.0406 -3.9816 1.2257
0.0825 -3.9816 1.2257
0.1243 -3.9815 1.2257
0.1662 -3.9815 1.2257
0.2081 -3.9814 1.2257
0.2501 -3.9813 1.2257
0.2921 -3.9812 1.2257
0.3341 -3.9811 1.2257
-39.0498 7.3490 0.2399
-39.0565 6.9616 0.3505
-21.5811 3.6327 0.2546
-21.5818 3.4195 0.3156
-21.5826 3.2070 0.3764
-21.5834 2.9951 0.4373
-21.5841 2.7838 0.4981
-21.5849 2.5730 0.5589
-21.5856 2.3626 0.6196
-21.5864 2.1527 0.6804
-21.5872 1.9432 0.7412
-21.5879 1.7340 0.8021
-21.5887 1.5251 0.8630
-21.5894 1.3165 0.9239
-21.5902 1.1081 0.9849
-21.5909 0.8999 1.0460
-21.5917 0.6918 1.1072
-21.5924 0.4837 1.1685
-21.5932 0.2758 1.2299
-21.5939 0.0678 1.2915
-21.5947 -0.1402 1.3531
-21.5954 -0.3483 1.4150
-21.5962 -0.5565 1.4770
-21.5093 -0.7617 1.5329
-21.5100 -0.9695 1.5951
-21.5146 -1.1776 1.6577
-21.5953 -1.3911 1.7267
-21.5961 -1.6005 1.7897
-21.5968 -1.8103 1.8530
-21.5976 -2.0204 1.9165
-21.5984 -2.2311 1.9803
-21.5991 -2.4423 2.0444
-7.2581 -0.8918 0.7086
-7.3110 -0.9702 0.7357
-21.6014 -3.0793 2.2386
-21.6022 -3.2930 2.3040
-21.6030 -3.5074 2.3698
-21.6037 -3.7226 2.4359
-21.6045 -3.9385 2.5024
-21.6053 -4.1554 2.5694
-22.0103 -4.4551 2.6860
-21.4587 -4.5606 2.6860
-20.9312 -4.6612 2.6860
-20.4257 -4.7574 2.6860
-19.9407 -4.8491 2.6860
-19.6820 -4.9894 2.7145
-19.6709 -5.1907 2.7768
-19.6513 -5.3907 2.8384
-19.2128 -5.4721 2.8384
-18.7901 -5.5503 2.8384
-18.3822 -5.6252 2.8384
-17.9884 -5.6973 2.8384
-17.6079 -5.7665 2.8384
-17.2399 -5.8332 2.8384
-16.8838 -5.8972 2.8384
-16.5390 -5.9590 2.8384
-16.2048 -6.0184 2.8384
-15.8807 -6.0758 2.8384
-15.5663 -6.1311 2.8384
-15.2609 -6.1845 2.8384
-14.9643 -6.2361 2.8384
-14.6760 -6.2859 2.8384
-14.3955 -6.3340 2.8384
-14.1226 -6.3806 2.8384
-13.8568 -6.4256 2.8384
-13.5979 -6.4692 2.8384
-13.3456 -6.5113 2.8384
-13.0995 -6.5522 2.8384
-12.8594 -6.5918 2.8384
-12.6251 -6.6301 2.8384
-12.3962 -6.6673 2.8384
-12.1726 -6.7034 2.8384
-11.9540 -6.7384 2.8384
-11.7403 -6.7723 2.8384
-11.5313 -6.8053 2.8384
-11.3267 -6.8373 2.8384
-11.1264 -6.8684 2.8384
-10.9302 -6.8986 2.8384
-10.7380 -6.9279 2.8384
-10.5496 -6.9564 2.8384
-10.3649 -6.9841 2.8384
-10.1837 -7.0111 2.8384
-10.0059 -7.0372 2.8384
-9.8314 -7.0628 2.8384
-9.1414 -6.7070 2.6860
-8.9821 -6.7298 2.6860
-8.8256 -6.7521 2.6860
-8.6719 -6.7737 2.6860
-8.5207 -6.7948 2.6860
-8.3720 -6.8153 2.6860
-8.2257 -6.8353 2.6860
-8.0818 -6.8548 2.6860
-7.9401 -6.8737 2.6860
-7.8006 -6.8922 2.6860
-7.6632 -6.9102 2.6860
-7.5279 -6.9277 2.6860
-7.3945 -6.9448 2.6860
-7.2631 -6.9615 2.6860
-7.1335 -6.9777 2.6860
-7.0057 -6.9935 2.6860
-6.8796 -7.0090 2.6860
-6.7552 -7.0240 2.6860
-6.6324 -7.0386 2.6860
-6.5112 -7.0529 2.6860
-6.3915 -7.0669 2.6860
-6.2733 -7.0804 2.6860
-6.1565 -7.0937 2.6860
-6.0411 -7.1066 2.6860
-5.9271 -7.1192 2.6860
-5.8143 -7.1315 2.6860
-5.7447 -7.1958 2.7057
-5.7368 -7.3395 2.7552
-5.7287 -7.4868 2.8060
-5.6806 -7.5848 2.8384
-5.5678 -7.5962 2.8384
-5.4561 -7.6073 2.8384
-5.3454 -7.6182 2.8384
-5.2359 -7.6287 2.8384
-5.1274 -7.6390 2.8384
-5.0199 -7.6490 2.8384
-4.9135 -7.6588 2.8384
-4.8079 -7.6683 2.8384
-4.7033 -7.6776 2.8384
-4.5995 -7.6866 2.8384
-4.4967 -7.6954 2.8384
-4.3947 -7.7039 2.8384
-4.2934 -7.7122 2.8384
-4.1930 -7.7203 2.8384
-4.0934 -7.7281 2.8384
-3.9944 -7.7358 2.8384
-3.8962 -7.7432 2.8384
-3.7987 -7.7504 2.8384
-3.7019 -7.7574 2.8384
-3.6057 -7.7642 2.8384
-3.5101 -7.7708 2.8384
-3.4152 -7.7771 2.8384
-3.3208 -7.7834 2.8384
-3.2270 -7.7893 2.8384
-3.1338 -7.7952 2.8384
-3.0410 -7.8008 2.8384
-2.9488 -7.8062 2.8384
-2.8571 -7.8115 2.8384
-2.7658 -7.8166 2.8384
-2.6750 -7.8215 2.8384
-2.5847 -7.8262 2.8384
-2.4948 -7.8307 2.8384
-2.4052 -7.8351 2.8384
-2.3161 -7.8393 2.8384
-2.2273 -7.8434 2.8384
-2.1389 -7.8472 2.8384
-0.9163 -3.5076 1.2681
-0.8767 -3.5076 1.2675
-0.8373 -3.5076 1.2670
-0.7980 -3.5076 1.2665
-0.7590 -3.5076 1.2660
-0.7201 -3.5076 1.2655
-0.6814 -3.5076 1.2651
-0.6428 -3.5076 1.2646
-0.6044 -3.5076 1.2642
-0.5660 -3.5076 1.2639
-0.5278 -3.5076 1.2635
-0.4898 -3.5076 1.2632
-0.4518 -3.5076 1.2629
-0.4139 -3.5076 1.2627
-0.3761 -3.5076 1.2624
-0.3384 -3.5076 1.2622
-0.3007 -3.5076 1.2620
-0.2631 -3.5076 1.2618
-0.2256 -3.5076 1.2617
-0.1881 -3.5076 1.2615
-0.1506 -3.5076 1.2614
-0.1132 -3.5076 1.2613
-0.0758 -3.5076 1.2613
-0.0384 -3.5076 1.2612
-0.0011 -3.5076 1.2612
0.0363 -3.5076 1.2612
0.0737 -3.5076 1.2613
0.1111 -3.5076 1.2613
0.1485 -3.5076 1.2614
0.1859 -3.5076 1.2615
0.2234 -3.5076 1.2617
0.2610 -3.5076 1.2618
0.2985 -3.5076 1.2620
-21.4940 4.3347 1.1134
-21.4978 4.1210 1.1727
-21.5793 3.9222 1.2365
-21.5801 3.7086 1.2960
-21.5809 3.4958 1.3555
-21.5816 3.2835 1.4150
-21.5824 3.0718 1.4747
-21.5832 2.8607 1.5344
-21.5839 2.6501 1.5942
-21.5847 2.4399 1.6541
-21.5855 2.2302 1.7142
-21.5862 2.0208 1.7743
-21.5870 1.8118 1.8346
-21.5877 1.6031 1.8951
-21.5885 1.3946 1.9558
-21.5892 1.1863 2.0166
-21.5900 0.9781 2.0776
-21.5907 0.7701 2.1388
-21.5915 0.5622 2.2002
-21.5922 0.3542 2.2619
-21.5930 0.1463 2.3238
-21.5937 -0.0616 2.3859
-21.5945 -0.2697 2.4484
-21.5952 -0.4779 2.5111
-21.5083 -0.6835 2.5636
-21.9954 -0.9114 2.6860
-21.4774 -1.0975 2.6860
-20.9814 -1.2753 2.6860
-20.5053 -1.4453 2.6860
-20.0479 -1.6078 2.6860
-19.6815 -1.7699 2.6960
-19.6672 -1.9604 2.7535
-19.6568 -2.1517 2.8119
-7.2671 -0.8668 1.0618
-7.2616 -0.9375 1.0834
-18.6373 -2.5900 2.8384
-18.2628 -2.7186 2.8384
-17.9005 -2.8424 2.8384
-17.5498 -2.9616 2.8384
-17.2101 -3.0764 2.8384
-16.8809 -3.1871 2.8384
-16.5616 -3.2939 2.8384
-16.2517 -3.3970 2.8384
-15.9508 -3.4965 2.8384
-15.6584 -3.5925 2.8384
-15.3742 -3.6854 2.8384
-15.0977 -3.7753 2.8384
-14.8286 -3.8622 2.8384
-14.5666 -3.9462 2.8384
-14.3113 -4.0277 2.8384
-14.0625 -4.1065 2.8384
-13.8199 -4.1829 2.8384
-13.5831 -4.2570 2.8384
-13.3521 -4.3288 2.8384
-13.1264 -4.3984 2.8384
-12.9060 -4.4660 2.8384
-12.6905 -4.5316 2.8384
-12.4799 -4.5953 2.8384
-12.2738 -4.6571 2.8384
-12.0722 -4.7172 2.8384
-11.8748 -4.7756 2.8384
-11.6816 -4.8324 2.8384
-11.4922 -4.8876 2.8384
-11.3067 -4.9413 2.8384
-11.1248 -4.9935 2.8384
-10.9464 -5.0444 2.8384
-10.7714 -5.0938 2.8384
-10.5997 -5.1419 2.8384
-10.4311 -5.1888 2.8384
-10.2656 -5.2345 2.8384
-10.1030 -5.2789 2.8384
-9.9433 -5.3223 2.8384
-9.7863 -5.3645 2.8384
-9.1147 -5.1154 2.6860
-8.9711 -5.1533 2.6860
-8.8298 -5.1904 2.6860
-8.6908 -5.2264 2.6860
-8.5540 -5.2616 2.6860
-8.4193 -5.2960 2.6860
-8.2866 -5.3294 2.6860
-8.1559 -5.3621 2.6860
-8.0272 -5.3940 2.6860
-7.9003 -5.4251 2.6860
-7.7753 -5.4555 2.6860
-7.6520 -5.4851 2.6860
-7.5304 -5.5140 2.6860
-7.4105 -5.5422 2.6860
-7.2921 -5.5698 2.6860
-7.1753 -5.5967 2.6860
-7.0600 -5.6231 2.6860
-6.9462 -5.6488 2.6860
-6.8338 -5.6738 2.6860
-6.7228 -5.6983 2.6860
-6.6131 -5.7222 2.6860
-6.5047 -5.7456 2.6860
-6.3975 -5.7684 2.6860
-6.2916 -5.7907 2.6860
-6.1869 -5.8125 2.6860
-6.0834 -5.8338 2.6860
-5.9809 -5.8546 2.6860
-5.8796 -5.8749 2.6860
-5.7793 -5.8947 2.6860
-5.7402 -5.9767 2.7144
-5.7331 -6.0938 2.7588
-5.7258 -6.2134 2.8041
-5.6939 -6.3083 2.8384
-5.5931 -6.3270 2.8384
-5.4932 -6.3451 2.8384
-5.3943 -6.3629 2.8384
-5.2962 -6.3803 2.8384
-5.1990 -6.3973 2.8384
-5.1027 -6.4139 2.8384
-5.0072 -6.4300 2.8384
-4.9124 -6.4458 2.8384
-4.8185 -6.4612 2.8384
-4.7253 -6.4763 2.8384
-4.6329 -6.4910 2.8384
-4.5412 -6.5053 2.8384
-4.4501 -6.5193 2.8384
-4.3598 -6.5329 2.8384
-4.2701 -6.5462 2.8384
-4.1810 -6.5592 2.8384
-4.0925 -6.5718 2.8384
-4.0047 -6.5841 2.8384
-3.9174 -6.5962 2.8384
-3.8307 -6.6078 2.8384
-3.7446 -6.6193 2.8384
-3.6590 -6.6303 2.8384
-3.5739 -6.6411 2.8384
-3.4893 -6.6516 2.8384
-3.4053 -6.6618 2.8384
-3.3216 -6.6718 2.8384
-3.2385 -6.6814 2.8384
-3.1558 -6.6908 2.8384
-3.0735 -6.6999 2.8384
-2.9916 -6.7088 2.8384
-2.9102 -6.7173 2.8384
-2.8291 -6.7257 2.8384
-2.7485 -6.7338 2.8384
-2.6682 -6.7416 2.8384
-2.5882 -6.7491 2.8384
-2.5086 -6.7564 2.8384
-2.4293 -6.7635 2.8384
-2.3503 -6.7703 2.8384
-2.2717 -6.7769 2.8384
-2.1933 -6.7832 2.8384
-2.1152 -6.7894 2.8384
-2.0374 -6.7952 2.8384
-1.9599 -6.8009 2.8384
-1.8826 -6.8063 2.8384
-1.8055 -6.8115 2.8384
-0.8896 -3.5077 1.4606
-0.8495 -3.5076 1.4596
-0.8097 -3.5076 1.4586
-0.7701 -3.5076 1.4577
-0.7306 -3.5077 1.4568
-0.6913 -3.5076 1.4560
-0.6521 -3.5077 1.4552
-0.6131 -3.5077 1.4545
-0.5742 -3.5076 1.4538
-0.5355 -3.5076 1.4532
-0.4968 -3.5076 1.4526
-0.4583 -3.5076 1.4520
-0.4198 -3.5076 1.4515
-0.3815 -3.5076 1.4511
-0.3432 -3.5077 1.4507
-0.3050 -3.5077 1.4503
-0.2669 -3.5077 1.4500
-0.2288 -3.5077 1.4497
-0.1908 -3.5077 1.4494
-0.1528 -3.5077 1.4492
-0.1148 -3.5077 1.4491
-0.0769 -3.5076 1.4490
-0.0390 -3.5076 1.4489
-0.0011 -3.5076 1.4489
0.0368 -3.5076 1.4489
0.0747 -3.5077 1.4490
0.1127 -3.5077 1.4491
0.1506 -3.5077 1.4492
0.1886 -3.5077 1.4494
0.2266 -3.5077 1.4497
0.2647 -3.5077 1.4499
0.3028 -3.5077 1.4503
-21.5790 4.6455 2.1127
-21.4931 4.4121 2.1617
-21.4939 4.1982 2.2193
-21.4976 3.9856 2.2773
-21.5791 3.7873 2.3440
-21.5799 3.5746 2.4023
-21.5807 3.3626 2.4607
-21.5814 3.1512 2.5194
-21.5822 2.9403 2.5782
-21.9823 2.7805 2.6860
-21.4993 2.5102 2.6860
-21.0359 2.2518 2.6860
-20.5904 2.0044 2.6860
-20.1615 1.7675 2.6860
-19.7484 1.5398 2.6860
-19.6633 1.3440 2.7294
-19.6538 1.1538 2.7834
-19.6443 0.9639 2.8376
-19.2706 0.7599 2.8384
-18.9040 0.5633 2.8384
-18.5493 0.3743 2.8384
-18.2057 0.1921 2.8384
-17.8727 0.0164 2.8384
-17.5498 -0.1529 2.8384
-17.2365 -0.3163 2.8384
-16.9323 -0.4741 2.8384
-16.6368 -0.6265 2.8384
-16.3495 -0.7738 2.8384
-16.0702 -0.9162 2.8384
-15.7983 -1.0539 2.8384
-15.5337 -1.1872 2.8384
-15.2759 -1.3163 2.8384
-15.0246 -1.4413 2.8384
-14.7797 -1.5624 2.8384
-14.5408 -1.6798 2.8384
-7.2496 -0.9088 1.4382
-14.0799 -1.9040 2.8384
-13.8576 -2.0112 2.8384
-13.6403 -2.1152 2.8384
-13.4279 -2.2162 2.8384
-13.2202 -2.3143 2.8384
-13.0171 -2.4096 2.8384
-12.8182 -2.5023 2.8384
-12.6235 -2.5924 2.8384
-12.4329 -2.6799 2.8384
-12.2461 -2.7651 2.8384
-12.0630 -2.8480 2.8384
-11.8835 -2.9287 2.8384
-11.7075 -3.0072 2.8384
-11.5349 -3.0838 2.8384
-11.3654 -3.1582 2.8384
-11.1991 -3.2308 2.8384
-11.0358 -3.3015 2.8384
-10.8754 -3.3704 2.8384
-10.7178 -3.4376 2.8384
-10.5629 -3.5031 2.8384
-10.4106 -3.5670 2.8384
-10.2609 -3.6293 2.8384
-10.1137 -3.6900 2.8384
-9.9688 -3.7493 2.8384
-9.8262 -3.8072 2.8384
-9.1658 -3.6563 2.6860
-9.0351 -3.7084 2.6860
-8.9063 -3.7594 2.6860
-8.7794 -3.8091 2.6860
-8.6545 -3.8577 2.6860
-8.5313 -3.9052 2.6860
-8.4099 -3.9515 2.6860
-8.2902 -3.9969 2.6860
-8.1721 -4.0412 2.6860
-8.0557 -4.0844 2.6860
-7.9408 -4.1267 2.6860
-7.8274 -4.1680 2.6860
-7.7155 -4.2084 2.6860
-7.6050 -4.2479 2.6860
-7.4960 -4.2865 2.6860
-7.3882 -4.3243 2.6860
-7.2818 -4.3612 2.6860
-7.1767 -4.3973 2.6860
-7.0728 -4.4327 2.6860
-6.9701 -4.4673 2.6860
-6.8686 -4.5010 2.6860
-6.7683 -4.5341 2.6860
-6.6690 -4.5665 2.6860
-6.5709 -4.5981 2.6860
-6.4738 -4.6291 2.6860
-6.3777 -4.6594 2.6860
-6.2827 -4.6891 2.6860
-6.1886 -4.7181 2.6860
-6.0954 -4.7465 2.6860
-6.0032 -4.7743 2.6860
-5.9119 -4.8015 2.6860
-5.8214 -4.8280 2.6860
-5.7414 -4.8622 2.6904
-5.7351 -4.9591 2.7297
-5.7286 -5.0577 2.7698
-5.7221 -5.1579 2.8107
-5.6870 -5.2338 2.8384
-5.5965 -5.2585 2.8384
-5.5068 -5.2827 2.8384
-5.4179 -5.3063 2.8384
-5.3297 -5.3295 2.8384
-5.2422 -5.3521 2.8384
-5.1554 -5.3743 2.8384
-5.0693 -5.3959 2.8384
-4.9838 -5.4171 2.8384
-4.8990 -5.4378 2.8384
-4.8148 -5.4581 2.8384
-4.7313 -5.4780 2.8384
-4.6483 -5.4973 2.8384
-4.5660 -5.5163 2.8384
-4.4842 -5.5348 2.8384
-4.4029 -5.5530 2.8384
-4.3222 -5.5707 2.8384
-4.2420 -5.5880 2.8384
-4.1624 -5.6049 2.8384
-4.0832 -5.6215 2.8384
-4.0046 -5.6376 2.8384
-3.9264 -5.6534 2.8384
-3.8486 -5.6688 2.8384
-3.7714 -5.6838 2.8384
-3.6945 -5.6985 2.8384
-3.6181 -5.7128 2.8384
-3.5421 -5.7268 2.8384
-3.4665 -5.7404 2.8384
-3.3913 -5.7537 2.8384
-3.3165 -5.7667 2.8384
-3.2420 -5.7793 2.8384
-3.1680 -5.7916 2.8384
-3.0942 -5.8036 2.8384
-3.0208 -5.8152 2.8384
-2.9478 -5.8266 2.8384
-2.8750 -5.8376 2.8384
-2.8026 -5.8483 2.8384
-2.7305 -5.8588 2.8384
-2.6587 -5.8689 2.8384
-2.5872 -5.8787 2.8384
-2.5159 -5.8883 2.8384
-2.4449 -5.8975 2.8384
-2.3742 -5.9065 2.8384
-2.3037 -5.9152 2.8384
-2.2335 -5.9236 2.8384
-2.1635 -5.9317 2.8384
-2.0937 -5.9395 2.8384
-2.0241 -5.9471 2.8384
-1.9548 -5.9544 2.8384
-1.8856 -5.9615 2.8384
-1.8167 -5.9682 2.8384
-1.7479 -5.9747 2.8384
-1.6793 -5.9810 2.8384
-1.6109 -5.9870 2.8384
-0.9030 -3.5077 1.6614
-0.8623 -3.5077 1.6599
-0.8219 -3.5077 1.6584
-0.7816 -3.5077 1.6570
-0.7415 -3.5077 1.6557
-0.7016 -3.5077 1.6545
-0.6618 -3.5077 1.6534
-0.6222 -3.5077 1.6523
-0.5827 -3.5077 1.6513
-0.5434 -3.5077 1.6503
-0.5042 -3.5077 1.6494
-0.4650 -3.5077 1.6486
-0.4260 -3.5077 1.6479
-0.3871 -3.5077 1.6472
-0.3483 -3.5077 1.6466
-0.3095 -3.5077 1.6460
-0.2708 -3.5077 1.6455
-0.2322 -3.5077 1.6451
-0.1936 -3.5077 1.6447
-0.1550 -3.5077 1.6444
-0.1165 -3.5077 1.6442
-0.0780 -3.5077 1.6441
-0.0396 -3.5077 1.6440
-0.0011 -3.5077 1.6439
0.0374 -3.5077 1.6440
0.0758 -3.5077 1.6440
0.1143 -3.5077 1.6442
0.1528 -3.5077 1.6444
0.1914 -3.5077 1.6447
0.2299 -3.5077 1.6451
0.2686 -3.5077 1.6455
0.3073 -3.5077 1.6460
-19.6193 4.4945 2.8384
-19.2745 4.2223 2.8384
-18.9402 3.9600 2.8384
-18.6159 3.7070 2.8384
-18.3011 3.4630 2.8384
-17.9954 3.2274 2.8384
-17.6983 2.9999 2.8384
-17.4095 2.7800 2.8384
-17.1285 2.5674 2.8384
-16.8550 2.3618 2.8384
-16.5887 2.1629 2.8384
-16.3292 1.9703 2.8384
-16.0763 1.7838 2.8384
-15.8296 1.6031 2.8384
-15.5890 1.4280 2.8384
-15.3541 1.2581 2.8384
-15.1248 1.0934 2.8384
-14.9007 0.9336 2.8384
-14.6818 0.7784 2.8384
-14.4677 0.6278 2.8384
-14.2584 0.4815 2.8384
-14.0536 0.3393 2.8384
-13.8531 0.2012 2.8384
-13.6568 0.0668 2.8384
-13.4646 -0.0638 2.8384
-13.2763 -0.1909 2.8384
-13.0917 -0.3145 2.8384
-12.9107 -0.4348 2.8384
-12.7332 -0.5520 2.8384
-12.5591 -0.6661 2.8384
-12.3883 -0.7772 2.8384
-12.2206 -0.8855 2.8384
-12.0559 -0.9910 2.8384
-11.8942 -1.0938 2.8384
-11.7352 -1.1941 2.8384
-11.5791 -1.2918 2.8384
-7.2595 -0.8814 1.8034
-7.2672 -0.9541 1.8295
-11.1263 -1.5710 2.8384
-10.9803 -1.6595 2.8384
-10.8367 -1.7460 2.8384
-10.6953 -1.8304 2.8384
-10.5561 -1.9128 2.8384
-10.4191 -1.9934 2.8384
-10.2841 -2.0719 2.8384
-10.1511 -2.1488 2.8384
-10.0201 -2.2238 2.8384
-9.8910 -2.2972 2.8384
-9.7638 -2.3689 2.8384
-9.1208 -2.3080 2.6860
-9.0037 -2.3728 2.6860
-8.8882 -2.4362 2.6860
-8.7742 -2.4982 2.6860
-8.6618 -2.5589 2.6860
-8.5508 -2.6182 2.6860
-8.4413 -2.6762 2.6860
-8.3332 -2.7330 2.6860
-8.2264 -2.7885 2.6860
-8.1209 -2.8429 2.6860
-8.0167 -2.8961 2.6860
-7.9138 -2.9482 2.6860
-7.8121 -2.9992 2.6860
-7.7116 -3.0491 2.6860
-7.6122 -3.0980 2.6860
-7.5139 -3.1458 2.6860
-7.4168 -3.1927 2.6860
-7.3207 -3.2386 2.6860
-7.2257 -3.2835 2.6860
-7.1317 -3.3275 2.6860
-7.0386 -3.3707 2.6860
-6.9466 -3.4129 2.6860
-6.8555 -3.4543 2.6860
-6.7653 -3.4948 2.6860
-6.6760 -3.5346 2.6860
-6.5876 -3.5735 2.6860
-6.5000 -3.6117 2.6860
-6.4133 -3.6491 2.6860
-6.3274 -3.6857 2.6860
-6.2423 -3.7216 2.6860
-6.1579 -3.7568 2.6860
-6.0743 -3.7912 2.6860
-5.9915 -3.8250 2.6860
-5.9094 -3.8581 2.6860
-5.8280 -3.8906 2.6860
-5.7473 -3.9224 2.6860
-5.7346 -4.0006 2.7179
-5.7289 -4.0847 2.7537
-5.7230 -4.1699 2.7902
-5.7170 -4.2564 2.8274
-5.6573 -4.3033 2.8384
-5.5760 -4.3331 2.8384
-5.4954 -4.3623 2.8384
-5.4153 -4.3910 2.8384
-5.3359 -4.4190 2.8384
-5.2570 -4.4465 2.8384
-5.1787 -4.4735 2.8384
-5.1010 -4.4999 2.8384
-5.0238 -4.5258 2.8384
-4.9471 -4.5511 2.8384
-4.8710 -4.5759 2.8384
-4.7953 -4.6003 2.8384
-4.7201 -4.6241 2.8384
-4.6455 -4.6475 2.8384
-4.5712 -4.6704 2.8384
-4.4975 -4.6928 2.8384
-4.4242 -4.7148 2.8384
-4.3513 -4.7362 2.8384
-4.2789 -4.7573 2.8384
-4.2068 -4.7779 2.8384
-4.1352 -4.7981 2.8384
-4.0640 -4.8178 2.8384
-3.9932 -4.8372 2.8384
-3.9228 -4.8561 2.8384
-3.8527 -4.8746 2.8384
-3.7830 -4.8926 2.8384
-3.7136 -4.9104 2.8384
-3.6446 -4.9277 2.8384
-3.5760 -4.9446 2.8384
-3.5076 -4.9612 2.8384
-3.4396 -4.9773 2.8384
-3.3719 -4.9931 2.8384
-3.3045 -5.0085 2.8384
-3.2374 -5.0236 2.8384
-3.1706 -5.0383 2.8384
-3.1041 -5.0527 2.8384
-3.0378 -5.0667 2.8384
-2.9718 -5.0804 2.8384
-2.9061 -5.0937 2.8384
-2.8407 -5.1067 2.8384
-2.7755 -5.1194 2.8384
-2.7105 -5.1317 2.8384
-2.6457 -5.1437 2.8384
-2.5812 -5.1554 2.8384
-2.5169 -5.1668 2.8384
-2.4529 -5.1779 2.8384
-2.3890 -5.1886 2.8384
-2.3253 -5.1990 2.8384
-2.2619 -5.2092 2.8384
-2.1986 -5.2190 2.8384
-2.1355 -5.2285 2.8384
-2.0726 -5.2378 2.8384
-2.0099 -5.2467 2.8384
-1.9473 -5.2554 2.8384
-1.8849 -5.2637 2.8384
-1.8227 -5.2718 2.8384
-1.7606 -5.2796 2.8384
-1.6986 -5.2871 2.8384
-1.6368 -5.2943 2.8384
-1.5751 -5.3013 2.8384
-1.5136 -5.3080 2.8384
-1.4521 -5.3143 2.8384
-0.9170 -3.5078 1.8713
-0.8757 -3.5078 1.8693
-0.8346 -3.5078 1.8673
-0.7936 -3.5078 1.8655
-0.7529 -3.5078 1.8637
-0.7124 -3.5078 1.8620
-0.6720 -3.5078 1.8605
-0.6317 -3.5078 1.8590
-0.5916 -3.5078 1.8576
-0.5517 -3.5078 1.8563
-0.5118 -3.5078 1.8551
-0.4721 -3.5078 1.8540
-0.4325 -3.5078 1.8530
-0.3930 -3.5078 1.8521
-0.3535 -3.5078 1.8512
-0.3142 -3.5078 1.8505
-0.2749 -3.5078 1.8498
-0.2357 -3.5078 1.8492
-0.1965 -3.5078 1.8488
-0.1574 -3.5078 1.8484
-0.1183 -3.5078 1.8481
-0.0792 -3.5078 1.8478
-0.0402 -3.5078 1.8477
-0.0011 -3.5078 1.8477
0.0379 -3.5078 1.8477
0.0770 -3.5078 1.8478
0.1160 -3.5078 1.8480
0.1551 -3.5078 1.8484
0.1942 -3.5078 1.8487
0.2334 -3.5078 1.8492
0.2726 -3.5078 1.8498
0.3119 -3.5078 1.8504
-14.7587 3.5885 2.8384
-14.5689 3.3960 2.8384
-14.3827 3.2087 2.8384
-14.2001 3.0264 2.8384
-14.0210 2.8490 2.8384
-13.8451 2.6763 2.8384
-13.6724 2.5081 2.8384
-13.5028 2.3442 2.8384
-13.3361 2.1845 2.8384
-13.1724 2.0289 2.8384
-13.0115 1.8771 2.8384
-12.8533 1.7292 2.8384
-12.6977 1.5850 2.8384
-12.5447 1.4443 2.8384
-12.3941 1.3070 2.8384
-12.2460 1.1730 2.8384
-12.1002 1.0423 2.8384
-11.9566 0.9146 2.8384
-11.8153 0.7900 2.8384
-11.6760 0.6683 2.8384
-11.5389 0.5494 2.8384
-11.4037 0.4333 2.8384
-11.2706 0.3199 2.8384
-11.1393 0.2090 2.8384
-11.0099 0.1006 2.8384
-10.8823 -0.0054 2.8384
-10.7564 -0.1090 2.8384
-10.6322 -0.2103 2.8384
-10.5098 -0.3093 2.8384
-10.3889 -0.4062 2.8384
-10.2696 -0.5010 2.8384
-10.1518 -0.5938 2.8384
-10.0356 -0.6845 2.8384
-9.9207 -0.7733 2.8384
-9.8074 -0.8602 2.8384
-9.1748 -0.8947 2.6860
-9.0701 -0.9734 2.6860
-7.2876 -0.8539 2.1830
-7.2522 -0.9214 2.1975
-8.7633 -1.2003 2.6860
-8.6634 -1.2728 2.6860
-8.5646 -1.3439 2.6860
-8.4670 -1.4135 2.6860
-8.3704 -1.4816 2.6860
-8.2748 -1.5484 2.6860
-8.1803 -1.6139 2.6860
-8.0868 -1.6781 2.6860
-7.9943 -1.7410 2.6860
-7.9027 -1.8026 2.6860
-7.8121 -1.8631 2.6860
-7.7224 -1.9223 2.6860
-7.6335 -1.9804 2.6860
-7.5456 -2.0374 2.6860
-7.4585 -2.0932 2.6860
-7.3722 -2.1480 2.6860
-7.2868 -2.2017 2.6860
-7.2021 -2.2544 2.6860
-7.1183 -2.3061 2.6860
-7.0352 -2.3568 2.6860
-6.9528 -2.4065 2.6860
-6.8712 -2.4554 2.6860
-6.7903 -2.5032 2.6860
-6.7101 -2.5502 2.6860
-6.6306 -2.5962 2.6860
-6.5518 -2.6415 2.6860
-6.4736 -2.6858 2.6860
-6.3960 -2.7294 2.6860
-6.3191 -2.7721 2.6860
-6.2428 -2.8140 2.6860
-6.1672 -2.8552 2.6860
-6.0921 -2.8956 2.6860
-6.0175 -2.9352 2.6860
-5.9436 -2.9741 2.6860
-5.8702 -3.0123 2.6860
-5.7973 -3.0497 2.6860
-5.7368 -3.0929 2.6915
-5.7317 -3.1660 2.7232
-5.7265 -3.2398 2.7555
-5.7212 -3.3145 2.7883
-5.7158 -3.3901 2.8217
-5.6758 -3.4455 2.8384
-5.6025 -3.4803 2.8384
-5.5298 -3.5144 2.8384
-5.4574 -3.5479 2.8384
-5.3856 -3.5807 2.8384
-5.3142 -3.6129 2.8384
-5.2433 -3.6446 2.8384
-5.1728 -3.6757 2.8384
-5.1027 -3.7062 2.8384
-5.0331 -3.7361 2.8384
-4.9639 -3.7655 2.8384
-4.8951 -3.7943 2.8384
-4.8267 -3.8226 2.8384
-4.7586 -3.8503 2.8384
-4.6910 -3.8776 2.8384
-4.6237 -3.9042 2.8384
-4.5568 -3.9304 2.8384
-4.4903 -3.9562 2.8384
-4.4241 -3.9814 2.8384
-4.3582 -4.0061 2.8384
-4.2927 -4.0304 2.8384
-4.2275 -4.0541 2.8384
-4.1627 -4.0775 2.8384
-4.0981 -4.1003 2.8384
-4.0339 -4.1227 2.8384
-3.9700 -4.1447 2.8384
-3.9064 -4.1663 2.8384
-3.8430 -4.1874 2.8384
-3.7800 -4.2080 2.8384
-3.7172 -4.2283 2.8384
-3.6547 -4.2482 2.8384
-3.5925 -4.2676 2.8384
-3.5305 -4.2867 2.8384
-3.4688 -4.3053 2.8384
-3.4073 -4.3236 2.8384
-3.3461 -4.3414 2.8384
-3.2851 -4.3589 2.8384
-3.2244 -4.3760 2.8384
-3.1639 -4.3928 2.8384
-3.1036 -4.4092 2.8384
-3.0435 -4.4252 2.8384
-2.9836 -4.4408 2.8384
-2.9240 -4.4561 2.8384
-2.8645 -4.4710 2.8384
-2.8053 -4.4856 2.8384
-2.7462 -4.4999 2.8384
-2.6873 -4.5138 2.8384
-2.6286 -4.5274 2.8384
-2.5701 -4.5406 2.8384
-2.5118 -4.5535 2.8384
-2.4536 -4.5661 2.8384
-2.3956 -4.5783 2.8384
-2.3378 -4.5903 2.8384
-2.2801 -4.6018 2.8384
-2.2226 -4.6131 2.8384
-2.1652 -4.6241 2.8384
-2.1080 -4.6348 2.8384
-2.0509 -4.6451 2.8384
-1.9940 -4.6552 2.8384
-1.9371 -4.6650 2.8384
-1.8804 -4.6744 2.8384
-1.8239 -4.6836 2.8384
-1.7674 -4.6924 2.8384
-1.7111 -4.7010 2.8384
-1.6549 -4.7093 2.8384
-1.5987 -4.7173 2.8384
-1.5427 -4.7250 2.8384
-1.4868 -4.7324 2.8384
-1.4310 -4.7395 2.8384
-1.3752 -4.7464 2.8384
-1.3196 -4.7530 2.8384
-1.2641 -4.7593 2.8384
-0.8897 -3.5078 2.0894
-0.8479 -3.5079 2.0869
-0.8063 -3.5079 2.0845
-0.7649 -3.5079 2.0822
-0.7237 -3.5079 2.0801
-0.6826 -3.5078 2.0781
-0.6417 -3.5079 2.0762
-0.6010 -3.5078 2.0744
-0.5604 -3.5078 2.0728
-0.5199 -3.5079 2.0712
-0.4795 -3.5079 2.0698
-0.4393 -3.5079 2.0685
-0.3991 -3.5078 2.0673
-0.3591 -3.5078 2.0662
-0.3191 -3.5079 2.0653
-0.2792 -3.5079 2.0644
-0.2394 -3.5078 2.0637
-0.1996 -3.5079 2.0631
-0.1598 -3.5078 2.0626
-0.1201 -3.5079 2.0622
-0.0804 -3.5079 2.0619
-0.0408 -3.5078 2.0617
-0.0011 -3.5079 2.0617
0.0385 -3.5078 2.0617
0.0782 -3.5079 2.0619
0.1178 -3.5079 2.0622
0.1575 -3.5079 2.0625
0.1973 -3.5079 2.0630
0.2371 -3.5079 2.0637
0.2769 -3.5079 2.0644
0.3168 -3.5079 2.0652
-11.7733 3.0321 2.8384
-11.6563 2.8846 2.8384
-11.5406 2.7402 2.8384
-11.4261 2.5989 2.8384
-11.3130 2.4606 2.8384
-11.2010 2.3252 2.8384
-11.0903 2.1926 2.8384
-10.9807 2.0628 2.8384
-10.8724 1.9357 2.8384
-10.7651 1.8112 2.8384
-10.6590 1.6892 2.8384
-10.5539 1.5697 2.8384
-10.4499 1.4527 2.8384
-10.3470 1.3381 2.8384
-10.2451 1.2257 2.8384
-10.1442 1.1155 2.8384
-10.0443 1.0076 2.8384
-9.9454 0.9017 2.8384
-9.8474 0.7980 2.8384
-9.7504 0.6963 2.8384
-9.1359 0.5645 2.6860
-9.0458 0.4720 2.6860
-8.9565 0.3812 2.6860
-8.8680 0.2922 2.6860
-8.7804 0.2049 2.6860
-8.6935 0.1192 2.6860
-8.6074 0.0352 2.6860
-8.5221 -0.0472 2.6860
-8.4375 -0.1281 2.6860
-8.3536 -0.2075 2.6860
-8.2705 -0.2854 2.6860
-8.1881 -0.3618 2.6860
-8.1063 -0.4368 2.6860
-8.0253 -0.5105 2.6860
-7.9449 -0.5828 2.6860
-7.8652 -0.6537 2.6860
-7.7861 -0.7234 2.6860
-7.7076 -0.7918 2.6860
-7.6298 -0.8590 2.6860
-7.2548 -0.8885 2.5800
-7.2869 -0.9647 2.6180
-7.3999 -1.0533 2.6860
-7.3245 -1.1158 2.6860
-7.2496 -1.1771 2.6860
-7.1753 -1.2374 2.6860
-7.1015 -1.2965 2.6860
-7.0283 -1.3547 2.6860
-6.9556 -1.4118 2.6860
-6.8834 -1.4679 2.6860
-6.8117 -1.5230 2.6860
-6.7406 -1.5771 2.6860
-6.6699 -1.6303 2.6860
-6.5997 -1.6826 2.6860
-6.5300 -1.7340 2.6860
-6.4608 -1.7844 2.6860
-6.3920 -1.8340 2.6860
-6.3237 -1.8827 2.6860
-6.2558 -1.9306 2.6860
-6.1884 -1.9777 2.6860
-6.1214 -2.0240 2.6860
-6.0548 -2.0694 2.6860
-5.9886 -2.1141 2.6860
-5.9229 -2.1580 2.6860
-5.8575 -2.2011 2.6860
-5.7926 -2.2435 2.6860
-5.7351 -2.2880 2.6893
-5.7306 -2.3535 2.7176
-5.7259 -2.4196 2.7463
-5.7212 -2.4862 2.7755
-5.7165 -2.5534 2.8052
-5.7116 -2.6211 2.8353
-5.6519 -2.6637 2.8384
-5.5864 -2.7027 2.8384
-5.5212 -2.7411 2.8384
-5.4564 -2.7788 2.8384
-5.3919 -2.8158 2.8384
-5.3277 -2.8522 2.8384
-5.2639 -2.8880 2.8384
-5.2005 -2.9232 2.8384
-5.1373 -2.9577 2.8384
-5.0745 -2.9917 2.8384
-5.0120 -3.0251 2.8384
-4.9497 -3.0579 2.8384
-4.8878 -3.0901 2.8384
-4.8262 -3.1218 2.8384
-4.7649 -3.1529 2.8384
-4.7039 -3.1835 2.8384
-4.6431 -3.2135 2.8384
-4.5826 -3.2431 2.8384
-4.5224 -3.2720 2.8384
-4.4625 -3.3005 2.8384
-4.4028 -3.3285 2.8384
-4.3434 -3.3560 2.8384
-4.2843 -3.3830 2.8384
-4.2253 -3.4095 2.8384
-4.1667 -3.4355 2.8384
-4.1082 -3.4611 2.8384
-4.0500 -3.4862 2.8384
-3.9921 -3.5108 2.8384
-3.9344 -3.5350 2.8384
-3.8768 -3.5588 2.8384
-3.8196 -3.5821 2.8384
-3.7625 -3.6049 2.8384
-3.7056 -3.6273 2.8384
-3.6490 -3.6494 2.8384
-3.5925 -3.6710 2.8384
-3.5363 -3.6922 2.8384
-3.4802 -3.7129 2.8384
-3.4243 -3.7333 2.8384
-3.3686 -3.7533 2.8384
-3.3132 -3.7729 2.8384
-3.2578 -3.7921 2.8384
-3.2027 -3.8109 2.8384
-3.1477 -3.8293 2.8384
-3.0930 -3.8474 2.8384
-3.0383 -3.8651 2.8384
-2.9839 -3.8824 2.8384
-2.9296 -3.8994 2.8384
-2.8754 -3.9160 2.8384
-2.8214 -3.9322 2.8384
-2.7676 -3.9481 2.8384
-2.7139 -3.9636 2.8384
-2.6603 -3.9788 2.8384
-2.6069 -3.9936 2.8384
-2.5537 -4.0082 2.8384
-2.5005 -4.0223 2.8384
-2.4475 -4.0362 2.8384
-2.3946 -4.0497 2.8384
-2.3419 -4.0629 2.8384
-2.2892 -4.0758 2.8384
-2.2367 -4.0883 2.8384
-2.1843 -4.1005 2.8384
-2.1320 -4.1125 2.8384
-2.0799 -4.1241 2.8384
-2.0278 -4.1353 2.8384
-1.9758 -4.1463 2.8384
-1.9240 -4.1570 2.8384
-1.8722 -4.1674 2.8384
-1.8205 -4.1774 2.8384
-1.7689 -4.1872 2.8384
-1.7174 -4.1967 2.8384
-1.6660 -4.2058 2.8384
-1.6147 -4.2147 2.8384
-1.5635 -4.2233 2.8384
-1.5123 -4.2316 2.8384
-1.4613 -4.2396 2.8384
-1.4103 -4.2474 2.8384
-1.3593 -4.2548 2.8384
-1.3085 -4.2620 2.8384
-1.2576 -4.2688 2.8384
-1.2069 -4.2754 2.8384
-1.0291 -3.8108 2.5262
-0.9045 -3.5079 2.3221
-0.8620 -3.5079 2.3190
-0.8197 -3.5079 2.3160
-0.7776 -3.5079 2.3132
-0.7356 -3.5079 2.3106
-0.6939 -3.5079 2.3081
-0.6523 -3.5079 2.3057
-0.6108 -3.5079 2.3035
-0.5696 -3.5079 2.3015
-0.5284 -3.5079 2.2996
-0.4874 -3.5079 2.2978
-0.4465 -3.5079 2.2962
-0.4056 -3.5079 2.2947
-0.3649 -3.5079 2.2934
-0.3243 -3.5079 2.2922
-0.2837 -3.5079 2.2911
-0.2432 -3.5079 2.2902
-0.2028 -3.5079 2.2895
-0.1624 -3.5079 2.2888
-0.1221 -3.5079 2.2883
-0.0818 -3.5079 2.2880
-0.0415 -3.5079 2.2878
-0.0012 -3.5079 2.2877
0.0391 -3.5079 2.2878
0.0794 -3.5079 2.2880
0.1198 -3.5079 2.2883
0.1601 -3.5079 2.2888
0.2005 -3.5079 2.2894
0.2409 -3.5079 2.2902
0.2814 -3.5079 2.2911
0.3220 -3.5079 2.2921
-9.7461 2.6543 2.8384
-9.1495 2.3994 2.6860
-9.0766 2.2890 2.6860
-9.0040 2.1806 2.6860
-8.9317 2.0740 2.6860
-8.8598 1.9693 2.6860
-8.7882 1.8664 2.6860
-8.7170 1.7653 2.6860
-8.6461 1.6659 2.6860
-8.5756 1.5682 2.6860
-8.5054 1.4722 2.6860
-8.4355 1.3779 2.6860
-8.3660 1.2851 2.6860
-8.2968 1.1939 2.6860
-8.2280 1.1043 2.6860
-8.1595 1.0162 2.6860
-8.0914 0.9295 2.6860
-8.0236 0.8444 2.6860
-7.9561 0.7607 2.6860
-7.8890 0.6783 2.6860
-7.8222 0.5973 2.6860
-7.7557 0.5177 2.6860
-7.6895 0.4394 2.6860
-7.6237 0.3625 2.6860
-7.5582 0.2867 2.6860
-7.4930 0.2122 2.6860
-7.4282 0.1390 2.6860
-7.3636 0.0670 2.6860
-7.2994 -0.0039 2.6860
-7.2355 -0.0736 2.6860
-7.1719 -0.1422 2.6860
-7.1086 -0.2096 2.6860
-7.0456 -0.2760 2.6860
-6.9830 -0.3412 2.6860
-6.9206 -0.4054 2.6860
-6.8585 -0.4686 2.6860
-6.7967 -0.5308 2.6860
-6.7352 -0.5919 2.6860
-6.6740 -0.6521 2.6860
-6.6131 -0.7113 2.6860
-6.5525 -0.7695 2.6860
-6.4921 -0.8268 2.6860
-6.4320 -0.8832 2.6860
-6.3722 -0.9387 2.6860
-6.3127 -0.9933 2.6860
-6.2535 -1.0471 2.6860
-6.1945 -1.0999 2.6860
-6.1358 -1.1520 2.6860
-6.0774 -1.2032 2.6860
-6.0192 -1.2535 2.6860
-5.9612 -1.3031 2.6860
-5.9036 -1.3520 2.6860
-5.8462 -1.4000 2.6860
-5.7890 -1.4472 2.6860
-5.7336 -1.4941 2.6867
-5.7295 -1.5542 2.7116
-5.7255 -1.6147 2.7369
-5.7214 -1.6754 2.7625
-5.7172 -1.7365 2.7886
-5.7129 -1.7980 2.8150
-5.7017 -1.8575 2.8384
-5.6433 -1.9015 2.8384
-5.5852 -1.9447 2.8384
-5.5272 -1.9873 2.8384
-5.4695 -2.0292 2.8384
-5.4121 -2.0704 2.8384
-5.3548 -2.1110 2.8384
-5.2978 -2.1510 2.8384
-5.2410 -2.1902 2.8384
-5.1845 -2.2289 2.8384
-5.1281 -2.2670 2.8384
-5.0720 -2.3044 2.8384
-5.0161 -2.3413 2.8384
-4.9603 -2.3775 2.8384
-4.9048 -2.4132 2.8384
-4.8495 -2.4483 2.8384
-4.7944 -2.4828 2.8384
-4.7395 -2.5168 2.8384
-4.6848 -2.5503 2.8384
-4.6303 -2.5831 2.8384
-4.5760 -2.6155 2.8384
-4.5218 -2.6473 2.8384
-4.4679 -2.6786 2.8384
-4.4141 -2.7094 2.8384
-4.3605 -2.7397 2.8384
-4.3071 -2.7695 2.8384
-4.2539 -2.7988 2.8384
-4.2008 -2.8276 2.8384
-4.1479 -2.8559 2.8384
-4.0952 -2.8838 2.8384
-4.0426 -2.9111 2.8384
-3.9902 -2.9380 2.8384
-3.9380 -2.9645 2.8384
-3.8859 -2.9905 2.8384
-3.8340 -3.0161 2.8384
-3.7822 -3.0412 2.8384
-3.7306 -3.0659 2.8384
-3.6792 -3.0902 2.8384
-3.6278 -3.1140 2.8384
-3.5767 -3.1374 2.8384
-3.5256 -3.1605 2.8384
-3.4747 -3.1831 2.8384
-3.4240 -3.2052 2.8384
-3.3734 -3.2270 2.8384
-3.3229 -3.2484 2.8384
-3.1223 -3.3301 2.8384
-3.2725 -3.2694 2.8384
-3.0724 -3.3496 2.8384
-3.2223 -3.2900 2.8384
-3.0227 -3.3686 2.8384
-3.1722 -3.3102 2.8384
-2.9731 -3.3874 2.8384
-2.8249 -3.4414 2.8384
-2.9236 -3.4058 2.8384
-2.7758 -3.4587 2.8384
-2.8742 -3.4238 2.8384
-2.7267 -3.4757 2.8384
-2.5316 -3.5400 2.8384
-2.6778 -3.4923 2.8384
-2.4831 -3.5552 2.8384
-2.6290 -3.5085 2.8384
-2.4346 -3.5701 2.8384
-2.5802 -3.5244 2.8384
-2.3863 -3.5847 2.8384
-2.2418 -3.6265 2.8384
-2.3380 -3.5990 2.8384
-2.1938 -3.6398 2.8384
-2.2899 -3.6129 2.8384
-2.1459 -3.6528 2.8384
-1.9551 -3.7016 2.8384
-2.0981 -3.6655 2.8384
-1.9076 -3.7130 2.8384
-2.0503 -3.6778 2.8384
-1.8601 -3.7241 2.8384
-2.0027 -3.6898 2.8384
-1.8127 -3.7350 2.8384
-1.6710 -3.7657 2.8384
-1.7655 -3.7455 2.8384
-1.6239 -3.7753 2.8384
-1.7182 -3.7557 2.8384
-1.5769 -3.7847 2.8384
-1.3893 -3.8192 2.8384
-1.5299 -3.7938 2.8384
-1.3425 -3.8272 2.8384
-1.4830 -3.8025 2.8384
-1.2958 -3.8348 2.8384
-1.4361 -3.8110 2.8384
-1.2492 -3.8422 2.8384
