ply
format ascii 1.0
element vertex 2046
property float32 x
property float32 y
property float32 z
end_header
-21.6668 -19.0465 0.3980
-21.6641 -18.3158 0.2693
-21.6682 -19.4215 0.4632
-21.6696 -19.8032 0.5291
-21.6655 -18.6780 0.3334
-21.6710 -20.1920 0.5958
-21.6725 -20.5881 0.6631
-21.6064 -22.1773 0.9372
-21.6740 -20.9918 0.7312
-21.5961 -22.6005 1.0079
-21.6755 -21.4034 0.8000
-21.6938 -23.1477 1.0849
-21.6770 -21.8232 0.8698
-21.6955 -23.6039 1.1583
-21.7045 -26.0445 1.5424
-21.6972 -24.0702 1.2329
-21.7064 -26.5678 1.6230
-21.6989 -24.5469 1.3085
-21.7084 -27.1041 1.7049
-21.7007 -25.0346 1.3852
-21.6131 -27.5300 1.7803
-21.7026 -25.5336 1.4632
-21.6994 -28.2009 1.8721
-21.7015 -28.7795 1.9586
-21.7083 -30.6115 2.2285
-7.4485 -10.0807 0.7024
-7.1891 -9.9309 0.7077
-21.7107 -31.2570 2.3223
-21.7131 -31.9213 2.4181
-22.2970 -34.1984 2.6861
-6.5712 -9.8665 0.7614
-21.4558 -33.6222 2.6859
-19.7414 -33.0364 2.7648
-20.6587 -33.0825 2.6859
-19.9006 -32.5742 2.6859
-19.5383 -33.4362 2.8383
-17.5382 -32.1486 2.8383
-18.8425 -32.9833 2.8383
-16.9257 -31.7635 2.8383
-18.1765 -32.5547 2.8383
-16.3372 -31.3981 2.8383
-15.2255 -30.7214 2.8383
-15.7709 -31.0512 2.8383
-14.6995 -30.4079 2.8383
-13.2257 -29.5554 2.8383
-12.7656 -29.2979 2.8383
-14.1916 -30.1096 2.8383
-12.3195 -29.0525 2.8383
-13.7007 -29.8257 2.8383
-11.8865 -28.8186 2.8383
-11.4659 -28.5956 2.8383
-9.8930 -27.8026 2.8383
-7.1548 -18.3662 1.8366
-9.0126 -26.1435 2.6859
-10.6589 -28.1803 2.8383
-8.6716 -25.9849 2.6859
-8.3383 -25.8338 2.6859
-10.2711 -27.9870 2.8383
-8.0122 -25.6898 2.6859
-6.7721 -25.1798 2.6859
-7.6929 -25.5526 2.6859
-7.3800 -25.4221 2.6859
-6.4764 -25.0676 2.6859
-7.0732 -25.2979 2.6859
-6.1858 -24.9611 2.6859
-5.7795 -25.4743 2.7629
-5.8999 -24.8601 2.6859
-5.6438 -26.0713 2.8380
-4.7858 -25.7974 2.8360
-5.3538 -25.9747 2.8373
-4.5072 -25.7163 2.8353
-5.0679 -25.8835 2.8367
-4.2320 -25.6400 2.8347
-3.6907 -25.5018 2.8334
-3.9599 -25.5686 2.8341
-3.4242 -25.4395 2.8328
-2.6385 -25.2793 2.8309
-3.1600 -25.3818 2.8322
-2.8982 -25.3284 2.8316
-2.3806 -25.2344 2.8303
-1.6164 -25.1246 2.8285
-2.1244 -25.1938 2.8297
-1.3643 -25.0961 2.8279
-1.8697 -25.1572 2.8291
-1.1131 -25.0716 2.8273
-0.8628 -25.0510 2.8268
-0.6132 -25.0343 2.8262
-0.3640 -25.0215 2.8256
-0.1152 -25.0126 2.8250
0.1334 -25.0074 2.8244
-39.5964 -14.2048 -1.4091
-37.8209 -13.9786 -1.2429
-38.4013 -14.6133 -1.1572
-38.4088 -15.0395 -1.0524
-38.4162 -15.4691 -0.9473
-38.4238 -15.9024 -0.8418
-38.3230 -16.2933 -0.7339
-37.8759 -16.5345 -0.6206
-39.9535 -17.9002 -0.5437
-38.9831 -17.9171 -0.4219
-38.0505 -17.9334 -0.3053
-37.1533 -17.9490 -0.1937
-36.2978 -17.9683 -0.0869
-36.0309 -18.2698 0.0159
-36.0384 -18.7116 0.1186
-36.0459 -19.1583 0.2218
-21.5574 -11.7253 0.1947
-21.5584 -11.9963 0.2571
-21.6433 -12.3183 0.3212
-21.6444 -12.5966 0.3846
-21.6454 -12.8783 0.4485
-21.6464 -13.1633 0.5128
-21.6475 -13.4519 0.5776
-21.6485 -13.7440 0.6428
-21.6496 -14.0400 0.7085
-21.6507 -14.3398 0.7748
-21.6518 -14.6437 0.8416
-21.6529 -14.9518 0.9090
-21.6541 -15.2642 0.9770
-21.6552 -15.5810 1.0456
-21.6564 -15.9025 1.1148
-21.6576 -16.2289 1.1848
-21.6588 -16.5601 1.2554
-21.5740 -16.8295 1.3215
-21.5753 -17.1699 1.3934
-21.6606 -17.5841 1.4718
-21.6619 -17.9372 1.5456
-21.6632 -18.2962 1.6202
-21.6645 -18.6614 1.6958
-21.6659 -19.0330 1.7723
-21.6673 -19.4113 1.8499
-21.6687 -19.7965 1.9284
-21.6701 -20.1889 2.0081
-21.6716 -20.5888 2.0888
-21.6731 -20.9964 2.1708
-21.6746 -21.4121 2.2539
-21.6493 -23.5874 2.6859
-21.6761 -21.8362 2.3384
-20.9371 -23.2650 2.6859
-21.6055 -22.1949 2.4161
-20.2586 -22.9599 2.6859
-21.5952 -22.6229 2.5016
-19.7276 -22.8052 2.7018
-19.7128 -23.2453 2.7877
-22.4002 -23.9309 2.6862
-19.4460 -23.3927 2.8383
-17.7225 -22.6460 2.8383
-18.8475 -23.1313 2.8383
-17.1928 -22.4205 2.8383
-18.2735 -22.8827 2.8383
-16.6831 -22.2053 2.8383
-7.1564 -9.9269 1.2922
-16.1921 -22.0001 2.8383
-7.0924 -10.0456 1.3190
-13.9803 -21.1018 2.8383
-14.8203 -21.4374 2.8383
-13.5800 -20.9445 2.8383
-14.3935 -21.2659 2.8383
-13.1919 -20.7939 2.8383
-12.4497 -20.5109 2.8383
-12.8154 -20.6494 2.8383
-12.0943 -20.3779 2.8383
-11.0845 -20.0103 2.8383
-11.7487 -20.2504 2.8383
-10.7651 -19.8973 2.8383
-11.4122 -20.1279 2.8383
-10.4536 -19.7888 2.8383
-9.8525 -19.5843 2.8383
-10.1495 -19.6845 2.8383
-9.0488 -18.4416 2.6859
-8.2599 -18.1888 2.6859
-8.7802 -18.3540 2.6859
-8.0077 -18.1110 2.6859
-8.5173 -18.2697 2.6859
-7.7605 -18.0362 2.6859
-7.2800 -17.8953 2.6859
-7.5180 -17.9643 2.6859
-7.0463 -17.8289 2.6859
-6.8167 -17.7652 2.6859
-6.3689 -17.6453 2.6859
-6.5909 -17.7040 2.6859
-6.1504 -17.5889 2.6859
-5.7547 -18.1936 2.8030
-5.9352 -17.5348 2.6859
-5.6087 -18.3702 2.8380
-5.7692 -17.6236 2.7075
-5.3929 -18.3189 2.8375
-4.9697 -18.2226 2.8365
-5.1799 -18.2697 2.8370
-4.7620 -18.1775 2.8360
-4.1530 -18.0543 2.8345
-3.9543 -18.0170 2.8340
-4.5567 -18.1345 2.8355
-3.7575 -17.9815 2.8336
-4.3537 -18.0934 2.8350
-3.5626 -17.9479 2.8331
-3.3695 -17.9160 2.8326
-2.6121 -17.8055 2.8308
-3.1779 -17.8858 2.8322
-2.4261 -17.7819 2.8304
-2.9879 -17.8574 2.8317
-2.2413 -17.7600 2.8299
-2.7994 -17.8306 2.8313
-2.0575 -17.7396 2.8295
-1.8747 -17.7208 2.8290
-1.1517 -17.6607 2.8273
-1.6929 -17.7035 2.8286
-0.9725 -17.6494 2.8269
-1.5117 -17.6878 2.8282
-0.7938 -17.6396 2.8265
-1.3313 -17.6735 2.8277
-0.6155 -17.6312 2.8260
-0.4375 -17.6243 2.8256
-0.2598 -17.6189 2.8252
-0.0822 -17.6148 2.8248
0.0952 -17.6122 2.8243
-43.0561 -12.1110 -0.2196
-40.9410 -11.9422 -0.0930
-39.1267 -11.8226 0.0222
-38.3843 -12.0024 0.1309
-38.3628 -12.4023 0.2404
-38.3700 -12.8139 0.3503
-21.6259 -7.4543 0.2596
-21.6267 -7.6884 0.3220
-21.6276 -7.9243 0.3847
-21.6284 -8.1619 0.4476
-21.6293 -8.4013 0.5108
-21.6302 -8.6427 0.5744
-21.6311 -8.8860 0.6382
-21.6319 -9.1313 0.7024
-21.6328 -9.3788 0.7670
-21.6337 -9.6285 0.8319
-21.6346 -9.8805 0.8972
-21.6356 -10.1348 0.9629
-21.6365 -10.3915 1.0291
-21.6374 -10.6508 1.0957
-21.6384 -10.9128 1.1628
-21.6393 -11.1774 1.2303
-21.6403 -11.4448 1.2984
-21.5564 -11.6693 1.3616
-21.5574 -11.9416 1.4305
-21.6424 -12.2646 1.5058
-21.6434 -12.5443 1.5762
-21.6444 -12.8273 1.6471
-21.6455 -13.1138 1.7187
-21.6465 -13.4038 1.7910
-21.6476 -13.6976 1.8640
-21.6487 -13.9952 1.9378
-21.6498 -14.2968 2.0123
-21.6509 -14.6025 2.0876
-21.6520 -14.9124 2.1637
-21.6531 -15.2268 2.2407
-21.6543 -15.5457 2.3185
-21.6555 -15.8693 2.3973
-21.6567 -16.1979 2.4771
-21.6579 -16.5315 2.5579
-22.0394 -17.1666 2.6860
-21.3689 -16.9831 2.6859
-20.7304 -16.8096 2.6859
-20.1208 -16.6450 2.6859
-19.7108 -16.6341 2.7096
-19.6972 -16.9564 2.7873
-18.4311 -16.8377 2.8383
-19.4929 -17.1168 2.8383
-17.9311 -16.7076 2.8383
-18.9513 -16.9740 2.8383
-17.4499 -16.5832 2.8383
-16.9863 -16.4642 2.8383
-16.5393 -16.3504 2.8383
-16.1080 -16.2413 2.8383
-14.8987 -15.9403 2.8383
-15.6913 -16.1367 2.8383
-14.5213 -15.8479 2.8383
-15.2885 -16.0365 2.8383
-14.1555 -15.7592 2.8383
-13.4566 -15.5919 2.8383
-13.8008 -15.6739 2.8383
-13.1222 -15.5130 2.8383
-12.1737 -15.2934 2.8383
-12.7973 -15.4370 2.8383
-12.4812 -15.3639 2.8383
-11.8742 -15.2256 2.8383
-7.2077 -9.8342 1.8564
-11.5824 -15.1602 2.8383
-7.1430 -9.9526 1.8861
-11.2979 -15.0971 2.8383
-7.0780 -10.0727 1.9161
-10.2261 -14.8662 2.8383
-9.9733 -14.8135 2.8383
-8.5303 -13.8349 2.6859
-9.2037 -13.9698 2.6859
-8.3148 -13.7929 2.6859
-8.9745 -13.9233 2.6859
-8.1034 -13.7524 2.6859
-8.7501 -13.8783 2.6859
-7.8960 -13.7132 2.6859
-7.6924 -13.6753 2.6859
-6.9130 -13.5363 2.6859
-7.4925 -13.6388 2.6859
-6.7261 -13.5044 2.6859
-7.2960 -13.6034 2.6859
-6.5422 -13.4737 2.6859
-7.1029 -13.5693 2.6859
-6.3611 -13.4439 2.6859
-6.1827 -13.4152 2.6859
-5.7432 -13.9143 2.8078
-6.0068 -13.3875 2.6859
-5.6296 -14.0399 2.8383
-5.8335 -13.3608 2.6859
-5.4559 -14.0154 2.8383
-5.7553 -13.5535 2.7299
-5.2842 -13.9919 2.8383
-5.1146 -13.9692 2.8383
-4.4548 -13.8867 2.8383
-4.9470 -13.9473 2.8383
-4.2941 -13.8680 2.8383
-4.7812 -13.9263 2.8383
-4.1349 -13.8501 2.8383
-4.6171 -13.9061 2.8383
-3.9773 -13.8330 2.8383
-3.8210 -13.8166 2.8383
-3.2087 -13.7579 2.8383
-3.6661 -13.8009 2.8383
-3.0585 -13.7450 2.8383
-3.5124 -13.7859 2.8383
-2.9094 -13.7327 2.8383
-2.7612 -13.7210 2.8383
-3.3600 -13.7716 2.8383
-2.6140 -13.7100 2.8383
-0.8776 -5.9010 1.2250
-2.4676 -13.6996 2.8383
-2.3221 -13.6898 2.8383
-0.8157 -5.8976 1.2250
-2.1773 -13.6807 2.8383
-0.7540 -5.8944 1.2250
-0.6927 -5.8915 1.2250
-0.6315 -5.8889 1.2250
-0.3887 -5.8807 1.2251
-0.5705 -5.8864 1.2250
-0.3283 -5.8792 1.2251
-0.5098 -5.8843 1.2251
-0.2681 -5.8780 1.2251
-0.4492 -5.8823 1.2251
-0.2079 -5.8771 1.2251
-0.1479 -5.8764 1.2251
-0.0878 -5.8759 1.2251
-0.0278 -5.8757 1.2251
0.0322 -5.8757 1.2251
-21.6076 -4.8976 0.6390
-21.6084 -5.1172 0.7019
-21.6092 -5.3380 0.7651
-21.6100 -5.5599 0.8285
-21.6108 -5.7829 0.8921
-21.6116 -6.0073 0.9561
-21.6124 -6.2329 1.0203
-21.5377 -6.4373 1.0810
-21.5302 -6.6623 1.1452
-21.5310 -6.8912 1.2101
-21.6241 -7.1522 1.2809
-21.6249 -7.3853 1.3468
-21.6258 -7.6201 1.4131
-21.6266 -7.8565 1.4799
-21.6275 -8.0948 1.5470
-21.6283 -8.3349 1.6146
-21.6292 -8.5770 1.6826
-21.6301 -8.8210 1.7511
-21.6310 -9.0671 1.8201
-21.6319 -9.3154 1.8897
-21.6328 -9.5660 1.9597
-21.6337 -9.8188 2.0304
-21.6346 -10.0741 2.1016
-21.6355 -10.3318 2.1734
-21.6365 -10.5921 2.2459
-21.6374 -10.8550 2.3190
-21.6384 -11.1208 2.3927
-21.6394 -11.3894 2.4672
-21.5555 -11.6152 2.5325
-22.2005 -12.2439 2.6861
-21.5679 -12.1713 2.6859
-20.9654 -12.1030 2.6859
-20.3897 -12.0381 2.6859
-19.8390 -11.9762 2.6859
-19.6941 -12.1536 2.7392
-19.6815 -12.4138 2.8110
-19.3592 -12.4776 2.8383
-18.8659 -12.4234 2.8383
-18.3915 -12.3715 2.8383
-17.9347 -12.3219 2.8383
-17.4944 -12.2744 2.8383
-17.0697 -12.2288 2.8383
-16.6597 -12.1851 2.8383
-16.2636 -12.1432 2.8383
-15.8805 -12.1029 2.8383
-15.5098 -12.0642 2.8383
-15.1507 -12.0269 2.8383
-14.8028 -11.9911 2.8383
-14.4653 -11.9566 2.8383
-14.1378 -11.9233 2.8383
-13.8197 -11.8913 2.8383
-13.5106 -11.8604 2.8383
-13.2100 -11.8307 2.8383
-12.9175 -11.8019 2.8383
-12.6328 -11.7741 2.8383
-12.3555 -11.7473 2.8383
-12.0851 -11.7215 2.8383
-11.8215 -11.6964 2.8383
-11.5643 -11.6722 2.8383
-11.3131 -11.6488 2.8383
-11.0678 -11.6262 2.8383
-10.8281 -11.6043 2.8383
-10.5938 -11.5831 2.8383
-10.3645 -11.5626 2.8383
-10.1402 -11.5428 2.8383
-9.9205 -11.5236 2.8383
-9.1842 -10.8872 2.6859
-8.9847 -10.8701 2.6859
-8.7891 -10.8535 2.6859
-8.5973 -10.8375 2.6859
-8.4090 -10.8220 2.6859
-8.2242 -10.8069 2.6859
-8.0428 -10.7923 2.6859
-7.1945 -9.8599 2.4571
-7.1290 -9.9799 2.4902
-7.0627 -10.1012 2.5236
-7.3477 -10.7381 2.6859
-7.1810 -10.7256 2.6859
-7.0170 -10.7135 2.6859
-6.8555 -10.7017 2.6859
-6.6965 -10.6902 2.6859
-6.5397 -10.6791 2.6859
-6.3853 -10.6684 2.6859
-6.2330 -10.6580 2.6859
-6.0828 -10.6478 2.6859
-5.9346 -10.6381 2.6859
-5.7883 -10.6286 2.6859
-5.7476 -10.8143 2.7352
-5.7373 -11.0653 2.8011
-5.6647 -11.2033 2.8383
-5.5176 -11.1945 2.8383
-5.3723 -11.1859 2.8383
-5.2285 -11.1776 2.8383
-5.0864 -11.1696 2.8383
-4.9457 -11.1618 2.8383
-4.8065 -11.1543 2.8383
-4.6687 -11.1470 2.8383
-4.5323 -11.1400 2.8383
-4.3972 -11.1332 2.8383
-4.2633 -11.1266 2.8383
-4.1306 -11.1203 2.8383
-3.9990 -11.1142 2.8383
-3.8686 -11.1083 2.8383
-3.7392 -11.1027 2.8383
-3.6109 -11.0972 2.8383
-3.4835 -11.0920 2.8383
-3.3570 -11.0869 2.8383
-3.2315 -11.0821 2.8383
-3.1068 -11.0775 2.8383
-2.9829 -11.0730 2.8383
-2.8598 -11.0688 2.8383
-2.7374 -11.0647 2.8383
-2.6158 -11.0608 2.8383
-2.4948 -11.0571 2.8383
-2.3745 -11.0536 2.8383
-2.2547 -11.0503 2.8383
-0.9220 -4.7697 1.2255
-0.8708 -4.7685 1.2255
-0.8198 -4.7672 1.2255
-0.7690 -4.7661 1.2255
-0.7184 -4.7651 1.2255
-0.6680 -4.7641 1.2255
-0.6177 -4.7632 1.2255
-0.5676 -4.7623 1.2255
-0.5176 -4.7616 1.2255
-0.4678 -4.7609 1.2255
-0.4180 -4.7602 1.2255
-0.3684 -4.7597 1.2255
-0.3189 -4.7592 1.2255
-0.2694 -4.7588 1.2255
-0.2200 -4.7585 1.2255
-0.1707 -4.7582 1.2255
-0.1214 -4.7580 1.2255
-0.0721 -4.7578 1.2255
-0.0228 -4.7578 1.2255
0.0264 -4.7578 1.2255
-21.6059 -4.6053 1.6280
-21.6067 -4.8242 1.6932
-21.6075 -5.0442 1.7588
-21.6083 -5.2654 1.8248
-21.6091 -5.4876 1.8911
-21.6099 -5.7111 1.9578
-21.6107 -5.9358 2.0249
-21.6115 -6.1619 2.0925
-21.5368 -6.3670 2.1529
-21.5292 -6.5925 2.2202
-21.5301 -6.8220 2.2889
-21.6231 -7.0832 2.3681
-21.6240 -7.3169 2.4381
-21.6248 -7.5522 2.5086
-21.6257 -7.7893 2.5796
-21.9098 -8.1333 2.6859
-21.3295 -8.1551 2.6859
-20.7749 -8.1759 2.6859
-20.2439 -8.1957 2.6859
-19.7350 -8.2146 2.6859
-19.6834 -8.4195 2.7469
-19.6716 -8.6427 2.8138
-19.3667 -8.7355 2.8383
-18.9081 -8.7522 2.8383
-18.4665 -8.7682 2.8383
-18.0407 -8.7836 2.8383
-17.6299 -8.7983 2.8383
-17.2331 -8.8125 2.8383
-16.8497 -8.8260 2.8383
-16.4789 -8.8391 2.8383
-16.1200 -8.8517 2.8383
-15.7724 -8.8638 2.8383
-15.4354 -8.8754 2.8383
-15.1086 -8.8867 2.8383
-14.7914 -8.8975 2.8383
-14.4834 -8.9080 2.8383
-14.1840 -8.9181 2.8383
-13.8930 -8.9278 2.8383
-13.6098 -8.9372 2.8383
-13.3342 -8.9463 2.8383
-13.0657 -8.9551 2.8383
-12.8041 -8.9636 2.8383
-12.5490 -8.9718 2.8383
-12.3002 -8.9798 2.8383
-12.0573 -8.9875 2.8383
-11.8202 -8.9950 2.8383
-11.5885 -9.0022 2.8383
-11.3621 -9.0092 2.8383
-11.1407 -9.0160 2.8383
-10.9241 -9.0226 2.8383
-10.7121 -9.0290 2.8383
-10.5046 -9.0352 2.8383
-10.3013 -9.0412 2.8383
-10.1021 -9.0471 2.8383
-9.9069 -9.0527 2.8383
-9.1938 -8.5719 2.6859
-9.0160 -8.5769 2.6859
-8.8416 -8.5818 2.6859
-8.6703 -8.5866 2.6859
-8.5021 -8.5913 2.6859
-8.3369 -8.5958 2.6859
-8.1745 -8.6001 2.6859
-8.0149 -8.6044 2.6859
-7.8578 -8.6086 2.6859
-7.7034 -8.6126 2.6859
-7.5514 -8.6165 2.6859
-7.4017 -8.6203 2.6859
-7.2544 -8.6240 2.6859
-7.1093 -8.6276 2.6859
-6.9663 -8.6311 2.6859
-6.8253 -8.6345 2.6859
-6.6863 -8.6378 2.6859
-6.5493 -8.6411 2.6859
-6.4141 -8.6442 2.6859
-6.2807 -8.6473 2.6859
-6.1491 -8.6502 2.6859
-6.0191 -8.6531 2.6859
-5.8907 -8.6559 2.6859
-5.7639 -8.6586 2.6859
-5.7426 -8.8210 2.7355
-5.7336 -9.0076 2.7925
-5.6983 -9.1581 2.8383
-5.5703 -9.1607 2.8383
-5.4438 -9.1632 2.8383
-5.3186 -9.1656 2.8383
-5.1947 -9.1679 2.8383
-5.0721 -9.1703 2.8383
-4.9507 -9.1725 2.8383
-4.8304 -9.1747 2.8383
-4.7113 -9.1768 2.8383
-4.5933 -9.1788 2.8383
-4.4764 -9.1808 2.8383
-4.3604 -9.1827 2.8383
-4.2455 -9.1846 2.8383
-4.1315 -9.1864 2.8383
-4.0185 -9.1882 2.8383
-3.9063 -9.1898 2.8383
-3.7950 -9.1915 2.8383
-3.6845 -9.1931 2.8383
-3.5748 -9.1946 2.8383
-3.4659 -9.1961 2.8383
-3.3577 -9.1975 2.8383
-3.2502 -9.1989 2.8383
-3.1435 -9.2002 2.8383
-3.0373 -9.2015 2.8383
-2.9318 -9.2028 2.8383
-2.8269 -9.2040 2.8383
-2.7226 -9.2051 2.8383
-2.6189 -9.2062 2.8383
-2.5156 -9.2072 2.8383
-2.4129 -9.2083 2.8383
-2.3107 -9.2092 2.8383
-2.2089 -9.2101 2.8383
-0.9102 -3.9779 1.2258
-0.8666 -3.9783 1.2258
-0.8232 -3.9786 1.2258
-0.7800 -3.9789 1.2258
-0.7369 -3.9792 1.2258
-0.6939 -3.9795 1.2258
-0.6511 -3.9798 1.2258
-0.6084 -3.9801 1.2258
-0.5658 -3.9803 1.2258
-0.5234 -3.9805 1.2258
-0.4810 -3.9807 1.2258
-0.4388 -3.9809 1.2258
-0.3966 -3.9811 1.2258
-0.3545 -3.9812 1.2258
-0.3124 -3.9813 1.2258
-0.2704 -3.9814 1.2258
-0.2285 -3.9815 1.2258
-0.1866 -3.9816 1.2258
-0.1448 -3.9817 1.2258
-0.1030 -3.9817 1.2258
-0.0612 -3.9818 1.2258
-0.0194 -3.9818 1.2258
0.0224 -3.9818 1.2258
-22.1671 -4.4251 2.6861
-21.6087 -4.5317 2.6859
-21.0755 -4.6336 2.6859
-20.5646 -4.7309 2.6859
-20.0746 -4.8237 2.6859
-19.6870 -4.9332 2.6973
-19.6729 -5.1333 2.7590
-19.6619 -5.3351 2.8215
-19.3361 -5.4492 2.8383
-18.9095 -5.5281 2.8383
-18.4979 -5.6039 2.8383
-18.1006 -5.6767 2.8383
-17.7168 -5.7466 2.8383
-17.3457 -5.8139 2.8383
-16.9866 -5.8787 2.8383
-16.6389 -5.9410 2.8383
-16.3021 -6.0010 2.8383
-15.9754 -6.0589 2.8383
-15.6586 -6.1148 2.8383
-15.3509 -6.1687 2.8383
-15.0521 -6.2207 2.8383
-14.7617 -6.2710 2.8383
-14.4792 -6.3195 2.8383
-14.2044 -6.3665 2.8383
-13.9368 -6.4120 2.8383
-13.6762 -6.4559 2.8383
-13.4221 -6.4985 2.8383
-13.1744 -6.5397 2.8383
-12.9328 -6.5796 2.8383
-12.6970 -6.6182 2.8383
-12.4667 -6.6557 2.8383
-12.2418 -6.6922 2.8383
-12.0219 -6.7274 2.8383
-11.8070 -6.7617 2.8383
-11.5967 -6.7949 2.8383
-11.3910 -6.8271 2.8383
-11.1896 -6.8584 2.8383
-10.9923 -6.8889 2.8383
-10.7991 -6.9184 2.8383
-10.6097 -6.9472 2.8383
-10.4241 -6.9751 2.8383
-10.2419 -7.0023 2.8383
-10.0633 -7.0287 2.8383
-9.8879 -7.0544 2.8383
-9.1941 -6.6993 2.6859
-9.0341 -6.7223 2.6859
-8.8769 -6.7447 2.6859
-8.7224 -6.7665 2.6859
-8.5706 -6.7878 2.6859
-8.4212 -6.8084 2.6859
-8.2743 -6.8286 2.6859
-8.1298 -6.8482 2.6859
-7.9876 -6.8673 2.6859
-7.8475 -6.8859 2.6859
-7.7096 -6.9040 2.6859
-7.5737 -6.9217 2.6859
-7.4398 -6.9389 2.6859
-7.3079 -6.9557 2.6859
-7.1778 -6.9721 2.6859
-7.0495 -6.9880 2.6859
-6.9230 -7.0036 2.6859
-6.7982 -7.0187 2.6859
-6.6750 -7.0335 2.6859
-6.5534 -7.0479 2.6859
-6.4333 -7.0619 2.6859
-6.3147 -7.0756 2.6859
-6.1976 -7.0889 2.6859
-6.0819 -7.1020 2.6859
-5.9675 -7.1147 2.6859
-5.8544 -7.1270 2.6859
-5.7464 -7.1437 2.6877
-5.7386 -7.2861 2.7367
-5.7305 -7.4318 2.7870
-5.7217 -7.5805 2.8383
-5.6086 -7.5920 2.8383
-5.4966 -7.6032 2.8383
-5.3857 -7.6141 2.8383
-5.2759 -7.6248 2.8383
-5.1672 -7.6351 2.8383
-5.0594 -7.6452 2.8383
-4.9527 -7.6551 2.8383
-4.8469 -7.6647 2.8383
-4.7421 -7.6740 2.8383
-4.6382 -7.6831 2.8383
-4.5351 -7.6920 2.8383
-4.4329 -7.7006 2.8383
-4.3315 -7.7090 2.8383
-4.2309 -7.7171 2.8383
-4.1311 -7.7251 2.8383
-4.0320 -7.7328 2.8383
-3.9336 -7.7402 2.8383
-3.8360 -7.7475 2.8383
-3.7390 -7.7546 2.8383
-3.6427 -7.7615 2.8383
-3.5470 -7.7681 2.8383
-3.4519 -7.7746 2.8383
-3.3574 -7.7808 2.8383
-3.2635 -7.7869 2.8383
-3.1702 -7.7928 2.8383
-3.0773 -7.7985 2.8383
-2.9850 -7.8040 2.8383
-2.8932 -7.8093 2.8383
-2.8019 -7.8145 2.8383
-2.7111 -7.8194 2.8383
-2.6206 -7.8242 2.8383
-2.5306 -7.8288 2.8383
-2.4411 -7.8333 2.8383
-2.3519 -7.8375 2.8383
-2.2631 -7.8416 2.8383
-2.1746 -7.8456 2.8383
-2.0865 -7.8493 2.8383
-0.8927 -3.5075 1.2677
-0.8533 -3.5075 1.2672
-0.8141 -3.5075 1.2666
-0.7750 -3.5075 1.2661
-0.7361 -3.5075 1.2657
-0.6973 -3.5075 1.2652
-0.6587 -3.5075 1.2648
-0.6203 -3.5075 1.2644
-0.5820 -3.5075 1.2640
-0.5438 -3.5075 1.2637
-0.5057 -3.5075 1.2633
-0.4677 -3.5075 1.2630
-0.4298 -3.5075 1.2627
-0.3920 -3.5075 1.2625
-0.3543 -3.5075 1.2623
-0.3167 -3.5075 1.2620
-0.2791 -3.5075 1.2619
-0.2416 -3.5075 1.2617
-0.2041 -3.5075 1.2616
-0.1667 -3.5075 1.2614
-0.1293 -3.5075 1.2614
-0.0920 -3.5075 1.2613
-0.0546 -3.5075 1.2612
-0.0173 -3.5075 1.2612
0.0200 -3.5075 1.2612
-7.2553 -1.3497 1.2134
-16.6490 -3.2645 2.8383
-16.3369 -3.3686 2.8383
-16.0339 -3.4689 2.8383
-15.7395 -3.5659 2.8383
-15.4534 -3.6595 2.8383
-15.1750 -3.7501 2.8383
-14.9042 -3.8377 2.8383
-14.6405 -3.9224 2.8383
-14.3837 -4.0045 2.8383
-14.1333 -4.0840 2.8383
-13.8892 -4.1610 2.8383
-13.6511 -4.2356 2.8383
-13.4187 -4.3080 2.8383
-13.1917 -4.3782 2.8383
-12.9700 -4.4463 2.8383
-12.7534 -4.5124 2.8383
-12.5416 -4.5766 2.8383
-12.3345 -4.6389 2.8383
-12.1318 -4.6994 2.8383
-11.9334 -4.7582 2.8383
-11.7391 -4.8154 2.8383
-11.5488 -4.8710 2.8383
-11.3624 -4.9251 2.8383
-11.1796 -4.9777 2.8383
-11.0004 -5.0289 2.8383
-10.8246 -5.0787 2.8383
-10.6521 -5.1272 2.8383
-10.4827 -5.1744 2.8383
-10.3165 -5.2204 2.8383
-10.1532 -5.2652 2.8383
-9.9928 -5.3088 2.8383
-9.8351 -5.3513 2.8383
-9.1604 -5.1032 2.6859
-9.0161 -5.1414 2.6859
-8.8743 -5.1786 2.6859
-8.7347 -5.2150 2.6859
-8.5973 -5.2504 2.6859
-8.4621 -5.2850 2.6859
-8.3290 -5.3187 2.6859
-8.1979 -5.3516 2.6859
-8.0686 -5.3836 2.6859
-7.9413 -5.4150 2.6859
-7.8158 -5.4455 2.6859
-7.6921 -5.4754 2.6859
-7.5701 -5.5045 2.6859
-7.4498 -5.5329 2.6859
-7.3311 -5.5607 2.6859
-7.2139 -5.5878 2.6859
-7.0982 -5.6143 2.6859
-6.9841 -5.6401 2.6859
-6.8713 -5.6654 2.6859
-6.7600 -5.6900 2.6859
-6.6500 -5.7141 2.6859
-6.5413 -5.7376 2.6859
-6.4338 -5.7606 2.6859
-6.3276 -5.7831 2.6859
-6.2226 -5.8050 2.6859
-6.1188 -5.8264 2.6859
-6.0161 -5.8474 2.6859
-5.9145 -5.8678 2.6859
-5.8140 -5.8878 2.6859
-5.7415 -5.9353 2.6986
-5.7345 -6.0514 2.7426
-5.7273 -6.1699 2.7875
-5.7199 -6.2909 2.8335
-5.6286 -6.3203 2.8383
-5.5285 -6.3387 2.8383
-5.4293 -6.3566 2.8383
-5.3311 -6.3741 2.8383
-5.2337 -6.3912 2.8383
-5.1372 -6.4079 2.8383
-5.0415 -6.4242 2.8383
-4.9466 -6.4401 2.8383
-4.8525 -6.4556 2.8383
-4.7591 -6.4708 2.8383
-4.6665 -6.4856 2.8383
-4.5747 -6.5000 2.8383
-4.4835 -6.5141 2.8383
-4.3930 -6.5278 2.8383
-4.3031 -6.5412 2.8383
-4.2139 -6.5543 2.8383
-4.1254 -6.5670 2.8383
-4.0374 -6.5795 2.8383
-3.9500 -6.5916 2.8383
-3.8632 -6.6034 2.8383
-3.7770 -6.6149 2.8383
-3.6913 -6.6261 2.8383
-3.6061 -6.6370 2.8383
-3.5215 -6.6476 2.8383
-3.4373 -6.6579 2.8383
-3.3536 -6.6679 2.8383
-3.2704 -6.6777 2.8383
-3.1876 -6.6871 2.8383
-3.1052 -6.6964 2.8383
-3.0233 -6.7053 2.8383
-2.9418 -6.7140 2.8383
-2.8607 -6.7224 2.8383
-2.7800 -6.7305 2.8383
-2.6996 -6.7384 2.8383
-2.6196 -6.7461 2.8383
-2.5400 -6.7535 2.8383
-2.4606 -6.7606 2.8383
-2.3816 -6.7675 2.8383
-2.3030 -6.7742 2.8383
-2.2246 -6.7806 2.8383
-2.1465 -6.7868 2.8383
-2.0687 -6.7928 2.8383
-1.9911 -6.7985 2.8383
-1.9138 -6.8040 2.8383
-1.8367 -6.8093 2.8383
-0.9059 -3.5076 1.4610
-0.8658 -3.5076 1.4599
-0.8260 -3.5076 1.4590
-0.7863 -3.5076 1.4580
-0.7468 -3.5076 1.4571
-0.7075 -3.5076 1.4563
-0.6683 -3.5076 1.4555
-0.6293 -3.5076 1.4548
-0.5904 -3.5076 1.4541
-0.5516 -3.5076 1.4534
-0.5130 -3.5076 1.4528
-0.4744 -3.5076 1.4522
-0.4360 -3.5076 1.4517
-0.3977 -3.5076 1.4512
-0.3594 -3.5076 1.4508
-0.3212 -3.5076 1.4504
-0.2831 -3.5076 1.4501
-0.2451 -3.5076 1.4498
-0.2070 -3.5076 1.4495
-0.1691 -3.5076 1.4493
-0.1312 -3.5076 1.4491
-0.0933 -3.5076 1.4490
-0.0554 -3.5076 1.4489
-0.0175 -3.5076 1.4489
0.0203 -3.5076 1.4489
-13.2769 -2.2875 2.8383
-7.2643 -1.3245 1.5772
-7.2632 -1.3974 1.6014
-12.6774 -2.5674 2.8383
-12.4859 -2.6555 2.8383
-12.2982 -2.7413 2.8383
-12.1143 -2.8247 2.8383
-11.9341 -2.9059 2.8383
-11.7573 -2.9850 2.8383
-11.5839 -3.0620 2.8383
-11.4137 -3.1370 2.8383
-11.2467 -3.2100 2.8383
-11.0828 -3.2811 2.8383
-10.9217 -3.3505 2.8383
-10.7635 -3.4181 2.8383
-10.6080 -3.4840 2.8383
-10.4551 -3.5482 2.8383
-10.3049 -3.6109 2.8383
-10.1571 -3.6721 2.8383
-10.0116 -3.7317 2.8383
-9.8686 -3.7900 2.8383
-9.7277 -3.8468 2.8383
-9.0742 -3.6927 2.6859
-8.9450 -3.7440 2.6859
-8.8177 -3.7941 2.6859
-8.6923 -3.8430 2.6859
-8.5688 -3.8907 2.6859
-8.4469 -3.9373 2.6859
-8.3269 -3.9829 2.6859
-8.2084 -4.0274 2.6859
-8.0916 -4.0710 2.6859
-7.9764 -4.1135 2.6859
-7.8627 -4.1550 2.6859
-7.7505 -4.1957 2.6859
-7.6397 -4.2355 2.6859
-7.5303 -4.2743 2.6859
-7.4223 -4.3123 2.6859
-7.3156 -4.3495 2.6859
-7.2102 -4.3858 2.6859
-7.1060 -4.4213 2.6859
-7.0031 -4.4561 2.6859
-6.9013 -4.4901 2.6859
-6.8007 -4.5234 2.6859
-6.7013 -4.5559 2.6859
-6.6029 -4.5877 2.6859
-6.5055 -4.6189 2.6859
-6.4092 -4.6494 2.6859
-6.3140 -4.6792 2.6859
-6.2197 -4.7084 2.6859
-6.1263 -4.7370 2.6859
-6.0339 -4.7650 2.6859
-5.9424 -4.7923 2.6859
-5.8518 -4.8191 2.6859
-5.7620 -4.8453 2.6859
-5.7362 -4.9251 2.7158
-5.7298 -5.0229 2.7556
-5.7233 -5.1225 2.7961
-5.7166 -5.2237 2.8375
-5.6275 -5.2500 2.8383
-5.5377 -5.2743 2.8383
-5.4486 -5.2981 2.8383
-5.3602 -5.3214 2.8383
-5.2726 -5.3442 2.8383
-5.1856 -5.3665 2.8383
-5.0994 -5.3883 2.8383
-5.0138 -5.4096 2.8383
-4.9289 -5.4305 2.8383
-4.8446 -5.4509 2.8383
-4.7609 -5.4709 2.8383
-4.6778 -5.4904 2.8383
-4.5954 -5.5095 2.8383
-4.5135 -5.5282 2.8383
-4.4321 -5.5464 2.8383
-4.3513 -5.5643 2.8383
-4.2711 -5.5817 2.8383
-4.1913 -5.5987 2.8383
-4.1121 -5.6154 2.8383
-4.0333 -5.6316 2.8383
-3.9550 -5.6476 2.8383
-3.8772 -5.6631 2.8383
-3.7999 -5.6782 2.8383
-3.7230 -5.6930 2.8383
-3.6465 -5.7075 2.8383
-3.5704 -5.7215 2.8383
-3.4948 -5.7353 2.8383
-3.4195 -5.7487 2.8383
-3.3446 -5.7617 2.8383
-3.2701 -5.7745 2.8383
-3.1960 -5.7869 2.8383
-3.1222 -5.7989 2.8383
-3.0488 -5.8107 2.8383
-2.9757 -5.8222 2.8383
-2.9029 -5.8333 2.8383
-2.8305 -5.8442 2.8383
-2.7583 -5.8547 2.8383
-2.6865 -5.8649 2.8383
-2.6149 -5.8748 2.8383
-2.5437 -5.8845 2.8383
-2.4726 -5.8938 2.8383
-2.4019 -5.9029 2.8383
-2.3314 -5.9117 2.8383
-2.2612 -5.9202 2.8383
-2.1911 -5.9284 2.8383
-2.1214 -5.9364 2.8383
-2.0518 -5.9440 2.8383
-1.9824 -5.9515 2.8383
-1.9133 -5.9586 2.8383
-1.8444 -5.9655 2.8383
-1.7756 -5.9721 2.8383
-1.7070 -5.9784 2.8383
-1.6386 -5.9845 2.8383
-0.9195 -3.5077 1.6620
-0.8789 -3.5077 1.6604
-0.8384 -3.5077 1.6590
-0.7981 -3.5077 1.6576
-0.7580 -3.5077 1.6563
-0.7180 -3.5077 1.6550
-0.6783 -3.5077 1.6538
-0.6386 -3.5077 1.6527
-0.5991 -3.5077 1.6516
-0.5598 -3.5077 1.6507
-0.5206 -3.5077 1.6498
-0.4814 -3.5077 1.6489
-0.4424 -3.5077 1.6481
-0.4035 -3.5077 1.6474
-0.3647 -3.5077 1.6468
-0.3259 -3.5077 1.6462
-0.2873 -3.5077 1.6457
-0.2487 -3.5077 1.6452
-0.2101 -3.5077 1.6449
-0.1716 -3.5077 1.6445
-0.1331 -3.5077 1.6443
-0.0946 -3.5077 1.6441
-0.0562 -3.5077 1.6440
-0.0178 -3.5077 1.6439
0.0206 -3.5077 1.6439
-10.8760 -1.7223 2.8383
-10.7341 -1.8072 2.8383
-7.3009 -1.3025 1.9559
-7.2489 -1.3663 1.9676
-10.3217 -2.0500 2.8383
-10.1883 -2.1273 2.8383
-10.0569 -2.2027 2.8383
-9.9274 -2.2765 2.8383
-9.7998 -2.3486 2.8383
-9.1545 -2.2891 2.6859
-9.0371 -2.3543 2.6859
-8.9213 -2.4180 2.6859
-8.8070 -2.4803 2.6859
-8.6943 -2.5413 2.6859
-8.5830 -2.6009 2.6859
-8.4732 -2.6592 2.6859
-8.3648 -2.7163 2.6859
-8.2578 -2.7722 2.6859
-8.1520 -2.8268 2.6859
-8.0476 -2.8803 2.6859
-7.9444 -2.9327 2.6859
-7.8425 -2.9839 2.6859
-7.7417 -3.0341 2.6859
-7.6421 -3.0832 2.6859
-7.5436 -3.1313 2.6859
-7.4463 -3.1784 2.6859
-7.3500 -3.2246 2.6859
-7.2547 -3.2697 2.6859
-7.1605 -3.3140 2.6859
-7.0673 -3.3573 2.6859
-6.9751 -3.3998 2.6859
-6.8838 -3.4414 2.6859
-6.7934 -3.4822 2.6859
-6.7039 -3.5221 2.6859
-6.6153 -3.5612 2.6859
-6.5276 -3.5996 2.6859
-6.4407 -3.6371 2.6859
-6.3547 -3.6740 2.6859
-6.2694 -3.7101 2.6859
-6.1849 -3.7455 2.6859
-6.1012 -3.7801 2.6859
-6.0182 -3.8141 2.6859
-5.9360 -3.8474 2.6859
-5.8544 -3.8800 2.6859
-5.7736 -3.9120 2.6859
-5.7355 -3.9724 2.7058
-5.7297 -4.0561 2.7413
-5.7239 -4.1408 2.7776
-5.7180 -4.2267 2.8145
-5.6845 -4.2932 2.8383
-5.6031 -4.3231 2.8383
-5.5223 -4.3525 2.8383
-5.4422 -4.3813 2.8383
-5.3627 -4.4096 2.8383
-5.2837 -4.4372 2.8383
-5.2053 -4.4643 2.8383
-5.1275 -4.4908 2.8383
-5.0502 -4.5169 2.8383
-4.9734 -4.5424 2.8383
-4.8972 -4.5674 2.8383
-4.8214 -4.5918 2.8383
-4.7462 -4.6158 2.8383
-4.6714 -4.6393 2.8383
-4.5971 -4.6624 2.8383
-4.5233 -4.6849 2.8383
-4.4499 -4.7070 2.8383
-4.3770 -4.7286 2.8383
-4.3045 -4.7498 2.8383
-4.2324 -4.7706 2.8383
-4.1607 -4.7908 2.8383
-4.0895 -4.8107 2.8383
-4.0186 -4.8302 2.8383
-3.9481 -4.8492 2.8383
-3.8780 -4.8678 2.8383
-3.8082 -4.8861 2.8383
-3.7388 -4.9039 2.8383
-3.6698 -4.9213 2.8383
-3.6011 -4.9384 2.8383
-3.5327 -4.9550 2.8383
-3.4646 -4.9713 2.8383
-3.3969 -4.9872 2.8383
-3.3295 -5.0028 2.8383
-3.2623 -5.0180 2.8383
-3.1955 -5.0328 2.8383
-3.1290 -5.0473 2.8383
-3.0627 -5.0614 2.8383
-2.9967 -5.0752 2.8383
-2.9309 -5.0886 2.8383
-2.8655 -5.1017 2.8383
-2.8002 -5.1145 2.8383
-2.7352 -5.1270 2.8383
-2.6705 -5.1391 2.8383
-2.6060 -5.1509 2.8383
-2.5417 -5.1624 2.8383
-2.4776 -5.1735 2.8383
-2.4137 -5.1844 2.8383
-2.3501 -5.1949 2.8383
-2.2866 -5.2052 2.8383
-2.2233 -5.2151 2.8383
-2.1603 -5.2248 2.8383
-2.0974 -5.2341 2.8383
-2.0346 -5.2432 2.8383
-1.9721 -5.2519 2.8383
-1.9097 -5.2604 2.8383
-1.8474 -5.2685 2.8383
-1.7853 -5.2765 2.8383
-1.7234 -5.2840 2.8383
-1.6616 -5.2914 2.8383
-1.6000 -5.2984 2.8383
-1.5384 -5.3052 2.8383
-1.4770 -5.3117 2.8383
-1.4157 -5.3179 2.8383
-0.8925 -3.5077 1.8701
-0.8513 -3.5077 1.8681
-0.8104 -3.5077 1.8662
-0.7696 -3.5077 1.8644
-0.7291 -3.5077 1.8627
-0.6887 -3.5077 1.8611
-0.6484 -3.5077 1.8596
-0.6083 -3.5077 1.8581
-0.5683 -3.5077 1.8568
-0.5285 -3.5077 1.8556
-0.4888 -3.5077 1.8544
-0.4491 -3.5077 1.8534
-0.4096 -3.5077 1.8524
-0.3702 -3.5077 1.8515
-0.3309 -3.5077 1.8508
-0.2916 -3.5077 1.8501
-0.2524 -3.5077 1.8495
-0.2133 -3.5077 1.8489
-0.1742 -3.5077 1.8485
-0.1351 -3.5077 1.8482
-0.0961 -3.5077 1.8479
-0.0571 -3.5077 1.8477
-0.0181 -3.5077 1.8477
0.0209 -3.5077 1.8477
-8.6907 -1.2529 2.6859
-8.5918 -1.3243 2.6859
-8.4939 -1.3942 2.6859
-8.3971 -1.4627 2.6859
-7.2573 -1.3374 2.3481
-7.2819 -1.4158 2.3832
-8.1131 -1.6601 2.6859
-8.0204 -1.7232 2.6859
-7.9286 -1.7851 2.6859
-7.8379 -1.8459 2.6859
-7.7480 -1.9054 2.6859
-7.6590 -1.9637 2.6859
-7.5709 -2.0209 2.6859
-7.4837 -2.0770 2.6859
-7.3973 -2.1321 2.6859
-7.3117 -2.1860 2.6859
-7.2269 -2.2390 2.6859
-7.1429 -2.2909 2.6859
-7.0597 -2.3418 2.6859
-6.9772 -2.3917 2.6859
-6.8955 -2.4408 2.6859
-6.8145 -2.4889 2.6859
-6.7342 -2.5360 2.6859
-6.6545 -2.5823 2.6859
-6.5756 -2.6277 2.6859
-6.4973 -2.6723 2.6859
-6.4197 -2.7161 2.6859
-6.3427 -2.7590 2.6859
-6.2663 -2.8011 2.6859
-6.1905 -2.8424 2.6859
-6.1153 -2.8830 2.6859
-6.0407 -2.9228 2.6859
-5.9666 -2.9619 2.6859
-5.8932 -3.0003 2.6859
-5.8202 -3.0379 2.6859
-5.7478 -3.0749 2.6859
-5.7323 -3.1420 2.7126
-5.7271 -3.2155 2.7446
-5.7218 -3.2899 2.7772
-5.7165 -3.3650 2.8104
-5.6995 -3.4340 2.8383
-5.6262 -3.4690 2.8383
-5.5533 -3.5033 2.8383
-5.4809 -3.5369 2.8383
-5.4090 -3.5699 2.8383
-5.3376 -3.6024 2.8383
-5.2666 -3.6342 2.8383
-5.1961 -3.6654 2.8383
-5.1259 -3.6960 2.8383
-5.0562 -3.7261 2.8383
-4.9870 -3.7557 2.8383
-4.9181 -3.7846 2.8383
-4.8496 -3.8130 2.8383
-4.7816 -3.8409 2.8383
-4.7139 -3.8683 2.8383
-4.6465 -3.8951 2.8383
-4.5796 -3.9215 2.8383
-4.5130 -3.9473 2.8383
-4.4468 -3.9727 2.8383
-4.3809 -3.9976 2.8383
-4.3153 -4.0219 2.8383
-4.2501 -4.0459 2.8383
-4.1852 -4.0693 2.8383
-4.1207 -4.0923 2.8383
-4.0564 -4.1148 2.8383
-3.9924 -4.1369 2.8383
-3.9288 -4.1586 2.8383
-3.8654 -4.1799 2.8383
-3.8024 -4.2007 2.8383
-3.7396 -4.2211 2.8383
-3.6770 -4.2411 2.8383
-3.6148 -4.2606 2.8383
-3.5528 -4.2798 2.8383
-3.4911 -4.2985 2.8383
-3.4296 -4.3169 2.8383
-3.3683 -4.3349 2.8383
-3.3073 -4.3525 2.8383
-3.2466 -4.3698 2.8383
-3.1861 -4.3866 2.8383
-3.1258 -4.4031 2.8383
-3.0657 -4.4192 2.8383
-3.0058 -4.4350 2.8383
-2.9461 -4.4504 2.8383
-2.8867 -4.4654 2.8383
-2.8274 -4.4802 2.8383
-2.7684 -4.4945 2.8383
-2.7095 -4.5085 2.8383
-2.6508 -4.5222 2.8383
-2.5923 -4.5355 2.8383
-2.5340 -4.5486 2.8383
-2.4758 -4.5612 2.8383
-2.4178 -4.5736 2.8383
-2.3600 -4.5856 2.8383
-2.3023 -4.5973 2.8383
-2.2448 -4.6087 2.8383
-2.1875 -4.6198 2.8383
-2.1302 -4.6306 2.8383
-2.0732 -4.6411 2.8383
-2.0162 -4.6513 2.8383
-1.9594 -4.6611 2.8383
-1.9027 -4.6707 2.8383
-1.8462 -4.6800 2.8383
-1.7897 -4.6889 2.8383
-1.7334 -4.6976 2.8383
-1.6772 -4.7060 2.8383
-1.6211 -4.7141 2.8383
-1.5651 -4.7219 2.8383
-1.5093 -4.7294 2.8383
-1.4535 -4.7367 2.8383
-1.3978 -4.7436 2.8383
-1.3422 -4.7503 2.8383
-1.2867 -4.7566 2.8383
-0.9068 -3.5078 2.0904
-0.8650 -3.5078 2.0879
-0.8233 -3.5078 2.0854
-0.7819 -3.5078 2.0831
-0.7407 -3.5078 2.0809
-0.6996 -3.5078 2.0789
-0.6587 -3.5078 2.0769
-0.6179 -3.5078 2.0751
-0.5773 -3.5078 2.0734
-0.5368 -3.5078 2.0718
-0.4965 -3.5078 2.0704
-0.4562 -3.5078 2.0690
-0.4161 -3.5078 2.0678
-0.3760 -3.5078 2.0667
-0.3361 -3.5078 2.0656
-0.2962 -3.5078 2.0648
-0.2564 -3.5078 2.0640
-0.2166 -3.5078 2.0633
-0.1769 -3.5078 2.0628
-0.1372 -3.5078 2.0623
-0.0976 -3.5078 2.0620
-0.0580 -3.5078 2.0618
-0.0183 -3.5078 2.0617
0.0213 -3.5078 2.0617
-7.4970 -0.9719 2.6859
-7.4208 -1.0358 2.6859
-7.3453 -1.0985 2.6859
-7.2704 -1.1600 2.6859
-7.1960 -1.2205 2.6859
-7.1222 -1.2799 2.6859
-7.0489 -1.3383 2.6859
-6.9761 -1.3956 2.6859
-6.9039 -1.4519 2.6859
-6.8321 -1.5072 2.6859
-6.7609 -1.5616 2.6859
-6.6902 -1.6150 2.6859
-6.6199 -1.6675 2.6859
-6.5502 -1.7191 2.6859
-6.4809 -1.7697 2.6859
-6.4121 -1.8195 2.6859
-6.3437 -1.8685 2.6859
-6.2758 -1.9165 2.6859
-6.2083 -1.9638 2.6859
-6.1412 -2.0102 2.6859
-6.0746 -2.0558 2.6859
-6.0084 -2.1007 2.6859
-5.9426 -2.1447 2.6859
-5.8772 -2.1881 2.6859
-5.8122 -2.2307 2.6859
-5.7476 -2.2725 2.6859
-5.7309 -2.3330 2.7084
-5.7263 -2.3988 2.7370
-5.7217 -2.4651 2.7660
-5.7169 -2.5320 2.7954
-5.7121 -2.5995 2.8253
-5.6724 -2.6513 2.8383
-5.6068 -2.6905 2.8383
-5.5416 -2.7290 2.8383
-5.4767 -2.7669 2.8383
-5.4122 -2.8041 2.8383
-5.3481 -2.8407 2.8383
-5.2842 -2.8766 2.8383
-5.2207 -2.9119 2.8383
-5.1575 -2.9466 2.8383
-5.0947 -2.9808 2.8383
-5.0321 -3.0143 2.8383
-4.9699 -3.0472 2.8383
-4.9080 -3.0796 2.8383
-4.8463 -3.1114 2.8383
-4.7850 -3.1427 2.8383
-4.7239 -3.1734 2.8383
-4.6632 -3.2036 2.8383
-4.6027 -3.2332 2.8383
-4.5424 -3.2624 2.8383
-4.4825 -3.2910 2.8383
-4.4228 -3.3191 2.8383
-4.3634 -3.3467 2.8383
-4.3042 -3.3739 2.8383
-4.2453 -3.4005 2.8383
-4.1866 -3.4266 2.8383
-4.1281 -3.4523 2.8383
-4.0699 -3.4776 2.8383
-4.0120 -3.5023 2.8383
-3.9542 -3.5267 2.8383
-3.8967 -3.5505 2.8383
-3.8394 -3.5739 2.8383
-3.7823 -3.5969 2.8383
-3.7255 -3.6195 2.8383
-3.6688 -3.6416 2.8383
-3.6123 -3.6633 2.8383
-3.5561 -3.6847 2.8383
-3.5000 -3.7056 2.8383
-3.4442 -3.7260 2.8383
-3.3885 -3.7461 2.8383
-3.3330 -3.7658 2.8383
-3.2777 -3.7851 2.8383
-3.2225 -3.8041 2.8383
-3.1676 -3.8227 2.8383
-3.1128 -3.8408 2.8383
-3.0582 -3.8586 2.8383
-3.0037 -3.8760 2.8383
-2.9494 -3.8931 2.8383
-2.8953 -3.9098 2.8383
-2.8413 -3.9262 2.8383
-2.7875 -3.9422 2.8383
-2.7338 -3.9578 2.8383
-2.6803 -3.9731 2.8383
-2.6269 -3.9881 2.8383
-2.5736 -4.0027 2.8383
-2.5205 -4.0170 2.8383
-2.4675 -4.0310 2.8383
-2.4146 -4.0446 2.8383
-2.3619 -4.0579 2.8383
-2.3092 -4.0708 2.8383
-2.2567 -4.0835 2.8383
-2.2044 -4.0958 2.8383
-2.1521 -4.1079 2.8383
-2.0999 -4.1195 2.8383
-2.0479 -4.1310 2.8383
-1.9959 -4.1420 2.8383
-1.9441 -4.1528 2.8383
-1.8924 -4.1633 2.8383
-1.8407 -4.1735 2.8383
-1.7892 -4.1833 2.8383
-1.7377 -4.1929 2.8383
-1.6863 -4.2022 2.8383
-1.6350 -4.2112 2.8383
-1.5838 -4.2199 2.8383
-1.5327 -4.2283 2.8383
-1.4817 -4.2364 2.8383
-1.4307 -4.2442 2.8383
-1.3798 -4.2518 2.8383
-1.3289 -4.2590 2.8383
-1.2782 -4.2660 2.8383
-1.2275 -4.2727 2.8383
-1.1768 -4.2791 2.8383
-0.9219 -3.5079 2.3234
-0.8794 -3.5079 2.3202
-0.8370 -3.5079 2.3172
-0.7949 -3.5079 2.3144
-0.7529 -3.5079 2.3116
-0.7111 -3.5079 2.3091
-0.6695 -3.5079 2.3067
-0.6281 -3.5079 2.3044
-0.5868 -3.5079 2.3023
-0.5456 -3.5079 2.3003
-0.5046 -3.5079 2.2985
-0.4637 -3.5079 2.2968
-0.4229 -3.5079 2.2953
-0.3822 -3.5079 2.2939
-0.3415 -3.5079 2.2927
-0.3010 -3.5079 2.2916
-0.2605 -3.5079 2.2906
-0.2201 -3.5079 2.2898
-0.1798 -3.5079 2.2891
-0.1394 -3.5079 2.2885
-0.0992 -3.5079 2.2881
-0.0589 -3.5079 2.2878
-0.0186 -3.5079 2.2877
0.0216 -3.5079 2.2877
-6.5691 -0.7535 2.6859
-6.5087 -0.8110 2.6859
-6.4486 -0.8676 2.6859
-6.3888 -0.9233 2.6859
-6.3293 -0.9780 2.6859
-6.2701 -1.0320 2.6859
-6.2111 -1.0850 2.6859
-6.1524 -1.1372 2.6859
-6.0939 -1.1886 2.6859
-6.0357 -1.2392 2.6859
-5.9778 -1.2889 2.6859
-5.9201 -1.3379 2.6859
-5.8627 -1.3861 2.6859
-5.8055 -1.4335 2.6859
-5.7486 -1.4802 2.6859
-5.7297 -1.5363 2.7038
-5.7257 -1.5965 2.7289
-5.7216 -1.6571 2.7544
-5.7174 -1.7180 2.7803
-5.7132 -1.7792 2.8066
-5.7089 -1.8408 2.8332
-5.6608 -1.8883 2.8383
-5.6026 -1.9317 2.8383
-5.5447 -1.9744 2.8383
-5.4870 -2.0165 2.8383
-5.4295 -2.0579 2.8383
-5.3723 -2.0986 2.8383
-5.3153 -2.1387 2.8383
-5.2585 -2.1782 2.8383
-5.2019 -2.2169 2.8383
-5.1456 -2.2552 2.8383
-5.0894 -2.2927 2.8383
-5.0335 -2.3298 2.8383
-4.9778 -2.3661 2.8383
-4.9223 -2.4019 2.8383
-4.8670 -2.4372 2.8383
-4.8119 -2.4719 2.8383
-4.7570 -2.5059 2.8383
-4.7023 -2.5395 2.8383
-4.6478 -2.5726 2.8383
-4.5934 -2.6050 2.8383
-4.5393 -2.6370 2.8383
-4.4854 -2.6684 2.8383
-4.4316 -2.6994 2.8383
-4.3780 -2.7298 2.8383
-4.3246 -2.7597 2.8383
-4.2714 -2.7891 2.8383
-4.2183 -2.8181 2.8383
-4.1654 -2.8465 2.8383
-4.1127 -2.8745 2.8383
-4.0602 -2.9020 2.8383
-4.0078 -2.9290 2.8383
-3.9555 -2.9556 2.8383
-3.9035 -2.9818 2.8383
-3.8516 -3.0074 2.8383
-3.7998 -3.0327 2.8383
-3.7482 -3.0575 2.8383
-3.6968 -3.0819 2.8383
-3.6454 -3.1058 2.8383
-3.5943 -3.1293 2.8383
-3.5433 -3.1525 2.8383
-3.4924 -3.1752 2.8383
-3.4417 -3.1975 2.8383
-3.3910 -3.2194 2.8383
-3.3406 -3.2409 2.8383
-3.2902 -3.2620 2.8383
-3.2400 -3.2827 2.8383
-3.1900 -3.3031 2.8383
-3.1400 -3.3230 2.8383
-3.0902 -3.3426 2.8383
-3.0405 -3.3618 2.8383
-2.9909 -3.3807 2.8383
-2.9414 -3.3991 2.8383
-2.8920 -3.4172 2.8383
-2.8428 -3.4350 2.8383
-2.7937 -3.4524 2.8383
-2.7446 -3.4695 2.8383
-2.6957 -3.4862 2.8383
-2.6469 -3.5025 2.8383
-2.5982 -3.5186 2.8383
-2.5496 -3.5342 2.8383
-2.5011 -3.5496 2.8383
-2.4526 -3.5646 2.8383
-2.4043 -3.5793 2.8383
-2.3561 -3.5936 2.8383
-2.3079 -3.6077 2.8383
-2.2599 -3.6214 2.8383
-2.1640 -3.6479 2.8383
-2.2119 -3.6348 2.8383
-2.1163 -3.6606 2.8383
-1.9733 -3.6970 2.8383
-2.0685 -3.6731 2.8383
-1.9259 -3.7086 2.8383
-2.0209 -3.6852 2.8383
-1.8784 -3.7198 2.8383
-1.7838 -3.7414 2.8383
-1.8311 -3.7308 2.8383
-1.7366 -3.7517 2.8383
-1.5954 -3.7810 2.8383
-1.6895 -3.7618 2.8383
-1.5485 -3.7902 2.8383
-1.6424 -3.7715 2.8383
-1.5016 -3.7990 2.8383
-1.4079 -3.8159 2.8383
-1.4547 -3.8076 2.8383
-1.3612 -3.8240 2.8383
-1.2213 -3.8464 2.8383
-1.3145 -3.8317 2.8383
-1.1748 -3.8533 2.8383
-1.2679 -3.8392 2.8383
-1.1283 -3.8599 2.8383
-1.0355 -3.8724 2.8383
-1.0819 -3.8663 2.8383
-0.8947 -3.5080 2.5674
-0.7659 -3.5080 2.5570
-0.8516 -3.5080 2.5637
-0.7234 -3.5080 2.5539
-0.8086 -3.5080 2.5602
-0.6811 -3.5080 2.5509
-0.5969 -3.5080 2.5456
-0.6389 -3.5080 2.5482
-0.5550 -3.5080 2.5432
-0.4301 -3.5080 2.5371
-0.5132 -3.5080 2.5410
-0.3887 -3.5080 2.5355
-0.4716 -3.5080 2.5390
-0.3474 -3.5080 2.5339
-0.2650 -3.5080 2.5314
-0.3061 -3.5080 2.5326
-0.2239 -3.5080 2.5304
-0.1008 -3.5080 2.5284
-0.1828 -3.5080 2.5296
-0.0599 -3.5080 2.5281
-0.1418 -3.5080 2.5289
-0.0190 -3.5080 2.5279
0.0220 -3.5080 2.5280
-5.8243 -0.5782 2.6859
-5.7753 -0.6303 2.6859
-5.7303 -0.6821 2.6877
-5.7268 -0.7386 2.7092
-5.7233 -0.7952 2.7310
-5.7198 -0.8520 2.7531
-5.7162 -0.9090 2.7755
-5.7126 -0.9661 2.7982
-5.7089 -1.0235 2.8212
-5.6926 -1.0787 2.8383
-5.6418 -1.1269 2.8383
-5.5911 -1.1745 2.8383
-5.5405 -1.2214 2.8383
-5.4901 -1.2676 2.8383
-5.4397 -1.3131 2.8383
-5.3895 -1.3580 2.8383
-5.3394 -1.4022 2.8383
-5.2893 -1.4457 2.8383
-5.2394 -1.4886 2.8383
-5.1897 -1.5309 2.8383
-5.1400 -1.5726 2.8383
-5.0904 -1.6136 2.8383
-5.0410 -1.6541 2.8383
-4.9916 -1.6939 2.8383
-4.9424 -1.7332 2.8383
-4.8933 -1.7719 2.8383
-4.8443 -1.8100 2.8383
-4.7954 -1.8475 2.8383
-4.7466 -1.8846 2.8383
-4.6979 -1.9210 2.8383
-4.6494 -1.9569 2.8383
-4.6009 -1.9923 2.8383
-4.5526 -2.0271 2.8383
-4.5043 -2.0614 2.8383
-4.4562 -2.0952 2.8383
-4.4082 -2.1284 2.8383
-4.3602 -2.1612 2.8383
-4.3124 -2.1935 2.8383
-4.2647 -2.2252 2.8383
-4.2171 -2.2566 2.8383
-4.1696 -2.2874 2.8383
-4.1222 -2.3177 2.8383
-4.0749 -2.3476 2.8383
-4.0277 -2.3770 2.8383
-3.9806 -2.4059 2.8383
-3.9336 -2.4344 2.8383
-3.8866 -2.4624 2.8383
-3.8398 -2.4901 2.8383
-3.7931 -2.5172 2.8383
-3.7465 -2.5439 2.8383
-3.7000 -2.5702 2.8383
-3.6535 -2.5961 2.8383
-3.6072 -2.6215 2.8383
-3.5609 -2.6466 2.8383
-3.5148 -2.6712 2.8383
-3.4687 -2.6954 2.8383
-3.4227 -2.7192 2.8383
-3.3768 -2.7427 2.8383
-3.3310 -2.7657 2.8383
-3.2853 -2.7883 2.8383
-3.2396 -2.8105 2.8383
-3.1941 -2.8324 2.8383
-3.1486 -2.8539 2.8383
-3.1032 -2.8750 2.8383
-3.0579 -2.8958 2.8383
-3.0127 -2.9161 2.8383
-2.9675 -2.9362 2.8383
-2.9224 -2.9558 2.8383
-2.8775 -2.9751 2.8383
-2.8325 -2.9941 2.8383
-2.7877 -3.0126 2.8383
-2.7429 -3.0309 2.8383
-2.6982 -3.0488 2.8383
-2.6535 -3.0664 2.8383
-2.6090 -3.0836 2.8383
-2.5645 -3.1005 2.8383
-2.5200 -3.1170 2.8383
-2.4757 -3.1332 2.8383
-2.4314 -3.1491 2.8383
-2.3871 -3.1647 2.8383
-2.3430 -3.1799 2.8383
-2.2988 -3.1949 2.8383
-2.2548 -3.2095 2.8383
-2.2108 -3.2237 2.8383
-2.1669 -3.2377 2.8383
-2.1230 -3.2514 2.8383
-2.0792 -3.2648 2.8383
-2.0354 -3.2778 2.8383
-1.9917 -3.2906 2.8383
-1.9480 -3.3031 2.8383
-1.9044 -3.3152 2.8383
-1.8609 -3.3271 2.8383
-1.8174 -3.3386 2.8383
-1.7739 -3.3499 2.8383
-1.7305 -3.3609 2.8383
-1.6871 -3.3716 2.8383
-1.6438 -3.3820 2.8383
-1.6005 -3.3921 2.8383
-1.5573 -3.4019 2.8383
-1.5141 -3.4114 2.8383
-1.4710 -3.4207 2.8383
-1.4278 -3.4297 2.8383
-1.3848 -3.4384 2.8383
-1.3417 -3.4468 2.8383
-1.2987 -3.4549 2.8383
-1.2558 -3.4628 2.8383
-1.2128 -3.4704 2.8383
-1.1699 -3.4777 2.8383
-1.1271 -3.4847 2.8383
-1.0842 -3.4915 2.8383
-1.0414 -3.4980 2.8383
-0.9986 -3.5043 2.8383
-0.9559 -3.5102 2.8383
-0.9131 -3.5160 2.8383
-0.8704 -3.5214 2.8383
-0.8277 -3.5266 2.8383
-0.7851 -3.5315 2.8383
-0.7424 -3.5361 2.8383
-0.6998 -3.5405 2.8383
-0.6572 -3.5446 2.8383
-0.6146 -3.5485 2.8383
-0.5721 -3.5521 2.8383
-0.5295 -3.5554 2.8383
-0.4870 -3.5585 2.8383
-0.4445 -3.5613 2.8383
-0.4019 -3.5639 2.8383
-0.3594 -3.5662 2.8383
-0.3169 -3.5683 2.8383
-0.2745 -3.5701 2.8383
-0.2320 -3.5716 2.8383
-0.1895 -3.5729 2.8383
-0.1470 -3.5739 2.8383
-0.1046 -3.5746 2.8383
-0.0621 -3.5751 2.8383
-0.0197 -3.5754 2.8383
0.0228 -3.5754 2.8383
-5.5065 -0.4584 2.8383
-5.4637 -0.5085 2.8383
-5.4208 -0.5580 2.8383
-5.3780 -0.6068 2.8383
-5.3352 -0.6549 2.8383
-5.2923 -0.7025 2.8383
-5.2495 -0.7493 2.8383
-5.2067 -0.7956 2.8383
-5.1638 -0.8412 2.8383
-5.1210 -0.8862 2.8383
-5.0782 -0.9307 2.8383
-5.0354 -0.9745 2.8383
-4.9926 -1.0177 2.8383
-4.9498 -1.0604 2.8383
-4.9071 -1.1025 2.8383
-4.8643 -1.1440 2.8383
-4.8216 -1.1849 2.8383
-4.7789 -1.2253 2.8383
-4.7362 -1.2652 2.8383
-4.6935 -1.3045 2.8383
-4.6509 -1.3432 2.8383
-4.6083 -1.3815 2.8383
-4.5657 -1.4191 2.8383
-4.5232 -1.4563 2.8383
-4.4806 -1.4930 2.8383
-4.4381 -1.5292 2.8383
-4.3957 -1.5648 2.8383
-4.3533 -1.6000 2.8383
-4.3109 -1.6347 2.8383
-4.2685 -1.6688 2.8383
-4.2262 -1.7025 2.8383
-4.1839 -1.7357 2.8383
-4.1416 -1.7685 2.8383
-4.0994 -1.8008 2.8383
-4.0573 -1.8326 2.8383
-4.0151 -1.8640 2.8383
-3.9730 -1.8949 2.8383
-3.9310 -1.9254 2.8383
-3.8889 -1.9554 2.8383
-3.8470 -1.9850 2.8383
-3.8050 -2.0141 2.8383
-3.7631 -2.0428 2.8383
-3.7213 -2.0712 2.8383
-3.6794 -2.0990 2.8383
-3.6377 -2.1265 2.8383
-3.5959 -2.1535 2.8383
-3.5542 -2.1802 2.8383
-3.5126 -2.2064 2.8383
-3.4710 -2.2322 2.8383
-3.4294 -2.2577 2.8383
-3.3879 -2.2827 2.8383
-3.3464 -2.3074 2.8383
-3.3050 -2.3317 2.8383
-3.2636 -2.3556 2.8383
-3.2222 -2.3791 2.8383
-3.1809 -2.4023 2.8383
-3.1396 -2.4250 2.8383
-3.0984 -2.4474 2.8383
-3.0572 -2.4695 2.8383
-3.0161 -2.4912 2.8383
-2.9750 -2.5125 2.8383
-2.9339 -2.5334 2.8383
-2.8929 -2.5541 2.8383
-2.8519 -2.5743 2.8383
-2.8109 -2.5943 2.8383
-2.7700 -2.6138 2.8383
-2.7292 -2.6330 2.8383
-2.6884 -2.6519 2.8383
-2.6476 -2.6705 2.8383
-2.6068 -2.6887 2.8383
-2.5661 -2.7066 2.8383
-2.5255 -2.7242 2.8383
-2.4848 -2.7415 2.8383
-2.4442 -2.7584 2.8383
-2.4037 -2.7750 2.8383
-2.3632 -2.7913 2.8383
-2.3227 -2.8073 2.8383
-2.2822 -2.8229 2.8383
-2.2418 -2.8383 2.8383
-2.2015 -2.8534 2.8383
-2.1611 -2.8681 2.8383
-2.1208 -2.8825 2.8383
-2.0805 -2.8967 2.8383
-2.0403 -2.9105 2.8383
-2.0001 -2.9241 2.8383
-1.9599 -2.9373 2.8383
-1.9198 -2.9502 2.8383
-1.8796 -2.9629 2.8383
-1.8396 -2.9752 2.8383
-1.7995 -2.9874 2.8383
-1.7595 -2.9991 2.8383
-1.6795 -3.0219 2.8383
-1.7195 -3.0106 2.8383
-1.6396 -3.0328 2.8383
-1.5997 -3.0435 2.8383
-1.5199 -3.0639 2.8383
-1.5598 -3.0538 2.8383
-1.4801 -3.0738 2.8383
-1.3607 -3.1016 2.8383
-1.3210 -3.1103 2.8383
-1.4403 -3.0833 2.8383
-1.2813 -3.1188 2.8383
-1.4005 -3.0926 2.8383
-1.2416 -3.1270 2.8383
-1.2019 -3.1349 2.8383
-1.0434 -3.1640 2.8383
-1.1623 -3.1426 2.8383
-1.0038 -3.1706 2.8383
-1.1226 -3.1500 2.8383
-0.9643 -3.1769 2.8383
-1.0830 -3.1571 2.8383
-0.9247 -3.1830 2.8383
-0.8852 -3.1888 2.8383
-0.7272 -3.2095 2.8383
-0.8457 -3.1944 2.8383
-0.6878 -3.2140 2.8383
-0.8062 -3.1997 2.8383
-0.6483 -3.2183 2.8383
-0.7667 -3.2047 2.8383
-0.6089 -3.2224 2.8383
-0.5695 -3.2261 2.8383
-0.4119 -3.2387 2.8383
-0.2544 -3.2471 2.8383
-0.5300 -3.2296 2.8383
-0.3725 -3.2411 2.8383
-0.2150 -3.2487 2.8383
-0.4906 -3.2329 2.8383
-0.3331 -3.2434 2.8383
-0.1756 -3.2499 2.8383
-0.4512 -3.2359 2.8383
-0.2937 -3.2454 2.8383
-0.1363 -3.2509 2.8383
-0.0969 -3.2516 2.8383
-0.0576 -3.2521 2.8383
-0.0182 -3.2524 2.8383
0.0211 -3.2523 2.8383
-4.9611 -0.3300 2.8383
-4.9252 -0.3758 2.8383
-4.8892 -0.4211 2.8383
-4.8531 -0.4658 2.8383
-4.8170 -0.5100 2.8383
-4.7808 -0.5535 2.8383
-4.7445 -0.5966 2.8383
-4.7081 -0.6392 2.8383
-4.6717 -0.6812 2.8383
-4.6352 -0.7227 2.8383
-4.5987 -0.7637 2.8383
-4.5621 -0.8041 2.8383
-4.5255 -0.8441 2.8383
-4.4888 -0.8836 2.8383
-4.4520 -0.9225 2.8383
-4.4153 -0.9610 2.8383
-4.3784 -0.9990 2.8383
-4.3416 -1.0365 2.8383
-4.3047 -1.0736 2.8383
-4.2677 -1.1101 2.8383
-4.2307 -1.1462 2.8383
-4.1937 -1.1818 2.8383
-4.1567 -1.2170 2.8383
-4.1196 -1.2517 2.8383
-4.0825 -1.2859 2.8383
-4.0454 -1.3197 2.8383
-4.0083 -1.3531 2.8383
-3.9711 -1.3860 2.8383
-3.9339 -1.4185 2.8383
-3.8967 -1.4505 2.8383
-3.8595 -1.4821 2.8383
-3.8223 -1.5133 2.8383
-3.7851 -1.5441 2.8383
-3.7478 -1.5745 2.8383
-3.7105 -1.6044 2.8383
-3.6733 -1.6339 2.8383
-3.6360 -1.6631 2.8383
-3.5987 -1.6918 2.8383
-3.5614 -1.7201 2.8383
-3.5241 -1.7481 2.8383
-3.4868 -1.7756 2.8383
-3.4495 -1.8028 2.8383
-3.4122 -1.8295 2.8383
-3.3749 -1.8559 2.8383
-3.3376 -1.8820 2.8383
-3.3003 -1.9076 2.8383
-3.2630 -1.9329 2.8383
-3.2257 -1.9578 2.8383
-3.1884 -1.9823 2.8383
-3.1511 -2.0065 2.8383
-3.1138 -2.0303 2.8383
-3.0765 -2.0537 2.8383
-3.0392 -2.0768 2.8383
-3.0019 -2.0996 2.8383
-2.9647 -2.1220 2.8383
-2.9274 -2.1441 2.8383
-2.8901 -2.1657 2.8383
-2.8529 -2.1871 2.8383
-2.8156 -2.2082 2.8383
-2.7784 -2.2288 2.8383
-2.7412 -2.2492 2.8383
-2.7040 -2.2693 2.8383
-2.6668 -2.2890 2.8383
-2.6296 -2.3084 2.8383
-2.5924 -2.3274 2.8383
-2.5552 -2.3462 2.8383
-2.5181 -2.3646 2.8383
-2.4809 -2.3827 2.8383
-2.4438 -2.4005 2.8383
-2.4067 -2.4180 2.8383
-2.3696 -2.4351 2.8383
-2.3325 -2.4520 2.8383
-2.2954 -2.4686 2.8383
-2.2583 -2.4848 2.8383
-2.2213 -2.5008 2.8383
-2.1842 -2.5165 2.8383
-2.1472 -2.5319 2.8383
-2.1102 -2.5469 2.8383
-2.0731 -2.5617 2.8383
-2.0361 -2.5762 2.8383
-1.9992 -2.5904 2.8383
-1.9622 -2.6043 2.8383
-1.9252 -2.6179 2.8383
-1.8883 -2.6313 2.8383
-1.8514 -2.6443 2.8383
-1.8144 -2.6571 2.8383
-1.7775 -2.6696 2.8383
-1.7406 -2.6818 2.8383
-1.7037 -2.6937 2.8383
-1.6669 -2.7054 2.8383
-1.6300 -2.7168 2.8383
-1.5932 -2.7279 2.8383
-1.5563 -2.7387 2.8383
-1.5195 -2.7493 2.8383
-1.4827 -2.7596 2.8383
-1.4459 -2.7697 2.8383
-1.4091 -2.7794 2.8383
-1.3723 -2.7889 2.8383
-1.3355 -2.7982 2.8383
-1.2988 -2.8071 2.8383
-1.2620 -2.8159 2.8383
-1.2253 -2.8243 2.8383
-1.1886 -2.8325 2.8383
-1.1519 -2.8404 2.8383
-1.1151 -2.8481 2.8383
-1.0784 -2.8556 2.8383
-1.0418 -2.8627 2.8383
-1.0051 -2.8696 2.8383
-0.9684 -2.8763 2.8383
-0.9317 -2.8827 2.8383
-0.8951 -2.8889 2.8383
-0.8584 -2.8947 2.8383
-0.8218 -2.9004 2.8383
-0.7852 -2.9058 2.8383
-0.7485 -2.9109 2.8383
-0.7119 -2.9158 2.8383
-0.6753 -2.9205 2.8383
-0.6387 -2.9249 2.8383
-0.6021 -2.9291 2.8383
-0.5655 -2.9330 2.8383
-0.5289 -2.9366 2.8383
-0.4923 -2.9400 2.8383
-0.4557 -2.9432 2.8383
-0.4191 -2.9461 2.8383
-0.3826 -2.9488 2.8383
-0.3460 -2.9512 2.8383
-0.3094 -2.9534 2.8383
-0.2729 -2.9553 2.8383
-0.2363 -2.9570 2.8383
-0.1997 -2.9585 2.8383
-0.1632 -2.9597 2.8383
-0.1266 -2.9606 2.8383
-0.0901 -2.9614 2.8383
-0.0535 -2.9618 2.8383
-0.0169 -2.9621 2.8383
0.0196 -2.9621 2.8383
-4.4940 -0.2201 2.8383
-4.4636 -0.2621 2.8383
-4.4330 -0.3036 2.8383
-4.4023 -0.3447 2.8383
-4.3715 -0.3853 2.8383
-4.3405 -0.4254 2.8383
-4.3095 -0.4651 2.8383
-4.2783 -0.5043 2.8383
-4.2470 -0.5431 2.8383
-4.2156 -0.5815 2.8383
-4.1842 -0.6193 2.8383
-4.1526 -0.6567 2.8383
-4.1209 -0.6938 2.8383
-4.0891 -0.7303 2.8383
-4.0573 -0.7665 2.8383
-4.0253 -0.8022 2.8383
-3.9933 -0.8375 2.8383
-3.9612 -0.8723 2.8383
-3.9290 -0.9068 2.8383
-3.8967 -0.9408 2.8383
-3.8644 -0.9744 2.8383
-3.8320 -1.0076 2.8383
-3.7995 -1.0404 2.8383
-3.7670 -1.0728 2.8383
-3.7344 -1.1048 2.8383
-3.7017 -1.1364 2.8383
-3.6690 -1.1676 2.8383
-3.6362 -1.1984 2.8383
-3.6033 -1.2289 2.8383
-3.5704 -1.2589 2.8383
-3.5375 -1.2886 2.8383
-3.5045 -1.3179 2.8383
-3.4714 -1.3468 2.8383
-3.4383 -1.3753 2.8383
-3.4052 -1.4034 2.8383
-3.3720 -1.4313 2.8383
-3.3388 -1.4587 2.8383
-3.3055 -1.4857 2.8383
-3.2722 -1.5125 2.8383
-3.2389 -1.5388 2.8383
-3.2055 -1.5648 2.8383
-3.1721 -1.5905 2.8383
-3.1387 -1.6157 2.8383
-3.1052 -1.6407 2.8383
-3.0717 -1.6653 2.8383
-3.0382 -1.6896 2.8383
-3.0046 -1.7135 2.8383
-2.9710 -1.7371 2.8383
-2.9374 -1.7603 2.8383
-2.9038 -1.7832 2.8383
-2.8701 -1.8058 2.8383
-2.8364 -1.8281 2.8383
-2.6677 -1.9346 2.8383
-2.6339 -1.9549 2.8383
-2.8027 -1.8500 2.8383
-2.6001 -1.9749 2.8383
-2.5662 -1.9947 2.8383
-2.5324 -2.0141 2.8383
-2.4985 -2.0332 2.8383
-2.4647 -2.0520 2.8383
-2.7690 -1.8716 2.8383
-2.4308 -2.0705 2.8383
-2.3969 -2.0887 2.8383
-2.3630 -2.1066 2.8383
-2.3291 -2.1242 2.8383
-2.2951 -2.1415 2.8383
