ply
format ascii 1.0
element vertex 2050
property float32 x
property float32 y
property float32 z
end_header
-27.5344 5.3243 -5.3716
-26.1557 4.0070 -4.7608
-25.4977 4.6728 -4.8899
-25.5664 4.4282 -4.8192
-27.8239 3.9858 -4.9753
-25.6351 4.1832 -4.7487
-27.9458 3.7263 -4.9083
-28.4364 2.6726 -4.6398
-28.8584 2.4301 -4.6202
-32.3775 2.4106 -5.0850
-28.0143 3.4586 -4.8320
-7.2559 0.4696 -1.1176
-32.5467 1.7900 -4.9154
-28.2901 3.2139 -4.7911
-32.6456 1.4787 -4.8328
-32.5386 1.1585 -4.7204
-32.8444 0.8515 -4.6678
-28.3632 2.9436 -4.7153
-32.9444 0.5354 -4.5853
-33.0448 0.2177 -4.5028
-33.2516 -0.1021 -4.4344
-49.2989 -1.1033 -6.2901
-37.8431 -13.3848 -1.3948
-41.4851 -16.0354 -1.1884
-40.3746 -16.0548 -1.0456
-43.8563 -15.9883 -1.4966
-39.3139 -16.0734 -0.9097
-42.6492 -16.0151 -1.3387
-38.2995 -16.0911 -0.7804
-36.0307 -16.3794 -0.4333
-37.3282 -16.1081 -0.6571
-36.0379 -16.8041 -0.3324
-36.4047 -16.1276 -0.5395
-36.0451 -17.2328 -0.2310
-36.0524 -17.6658 -0.1291
-36.0748 -18.9922 0.1798
-36.0598 -18.1033 -0.0267
-36.0825 -19.4439 0.2838
-36.0673 -18.5453 0.0763
-21.6493 -11.9378 0.2331
-21.6504 -12.2129 0.2962
-21.6535 -13.0577 0.4882
-21.6514 -12.4912 0.3598
-21.6545 -13.3462 0.5530
-21.6524 -12.7728 0.4238
-21.6556 -13.6382 0.6184
-21.6601 -14.8452 0.8849
-21.6567 -13.9340 0.6842
-21.5753 -15.0972 0.9491
-21.6578 -14.2337 0.7505
-21.5764 -15.4125 1.0175
-21.6616 -15.7937 1.0908
-21.6589 -14.5373 0.8174
-21.6628 -16.1197 1.1608
-21.6653 -16.7868 1.3029
-21.6641 -16.4507 1.2315
-21.6666 -17.1282 1.3751
-21.6679 -17.4751 1.4481
-21.6692 -17.8278 1.5220
-21.6705 -18.1864 1.5967
-21.6718 -18.5512 1.6723
-21.6732 -18.9223 1.7488
-21.6746 -19.3001 1.8264
-21.6760 -19.6848 1.9049
-21.6775 -20.0767 1.9846
-21.5949 -20.3966 2.0573
-21.5964 -20.8020 2.1389
-5.2061 9.1339 -3.6396
-5.3555 9.1706 -3.6595
-5.5078 9.2079 -3.6799
-5.6632 9.2461 -3.7008
-5.8218 9.2850 -3.7223
-6.0391 9.4111 -3.7789
-5.7697 8.7876 -3.5345
-5.9526 8.8628 -3.5708
-6.1408 8.9399 -3.6082
-6.3350 9.0195 -3.6469
-6.7427 9.3903 -3.8039
-6.8198 9.2918 -3.7712
-6.8353 9.1126 -3.7057
-6.8920 8.9920 -3.6640
-7.2206 9.2208 -3.7651
-7.2751 9.0944 -3.7213
-7.2824 8.9126 -3.6549
-7.3033 8.7516 -3.5970
-7.3373 8.6098 -3.5468
-7.3709 8.4703 -3.4976
-8.0688 9.0813 -3.7591
-8.1518 8.9863 -3.7290
-7.1991 7.7736 -3.2341
-6.9192 7.3188 -3.0529
-7.1412 7.3997 -3.0950
-8.4146 8.5420 -3.5827
-8.5024 8.4558 -3.5567
-8.5902 8.3697 -3.5309
-8.6779 8.2837 -3.5052
-8.7656 8.1977 -3.4795
-28.9520 10.9266 -5.8973
-29.0299 10.6307 -5.8060
-29.1075 10.3355 -5.7152
-29.1848 10.0409 -5.6248
-29.8875 9.9555 -5.6533
-30.2938 9.7615 -5.6228
-30.7083 9.5636 -5.5920
-31.1312 9.3616 -5.5607
-31.3603 9.0965 -5.4937
-32.9620 6.8255 -4.9001
-27.9504 5.5044 -4.0656
-28.0200 5.2354 -3.9868
-31.9051 5.6406 -4.4389
-40.8611 5.1932 -5.0530
-40.7701 4.7802 -4.9179
-40.6800 4.3703 -4.7842
-40.5909 3.9632 -4.6518
-30.2570 2.6585 -3.3771
-30.4618 2.3795 -3.3094
-7.2640 0.4967 -0.7677
-7.2819 0.4272 -0.7481
-40.1579 1.9663 -4.0079
-40.0737 1.5739 -3.8824
-39.9903 1.1836 -3.7581
-39.9075 0.7952 -3.6347
-39.8836 0.4093 -3.5174
-48.7957 0.0293 -4.1629
-49.3714 -0.4471 -4.0705
-48.3152 -0.9041 -3.8453
-49.0648 -1.3920 -3.7651
-48.6165 -1.8490 -3.5925
-47.8862 -2.2842 -3.4028
-49.4592 -3.3167 -3.2350
-48.7389 -2.7964 -3.3255
-49.7151 -3.8158 -3.1116
-44.9012 -11.0133 -0.6716
-42.2185 -10.7882 -0.5125
-39.8290 -10.5881 -0.3710
-38.3571 -11.8002 0.0785
-38.3921 -12.2182 0.1885
-37.7915 -10.4380 -0.2451
-38.3993 -12.6304 0.2987
-38.3707 -10.9978 -0.1400
-21.6326 -7.3479 0.2306
-38.3500 -11.3937 -0.0309
-21.6335 -7.5823 0.2932
-21.6344 -7.8183 0.3560
-21.6352 -8.0561 0.4191
-21.6406 -9.5236 0.8041
-21.6361 -8.2958 0.4824
-21.5567 -9.7373 0.8661
-21.6370 -8.5373 0.5461
-21.5576 -9.9907 0.9317
-21.6379 -8.7807 0.6101
-21.5595 -10.2469 0.9977
-21.6388 -9.0262 0.6744
-21.6435 -10.5457 1.0682
-21.6444 -10.8077 1.1354
-21.6397 -9.2738 0.7391
-21.6454 -11.0723 1.2030
-21.6515 -12.7224 1.6203
-21.6464 -11.3397 1.2712
-21.6474 -11.6100 1.3399
-21.6525 -13.0087 1.6920
-21.6484 -11.8834 1.4091
-21.6536 -13.2987 1.7643
-21.6494 -12.1598 1.4789
-21.6547 -13.5923 1.8373
-21.6504 -12.4394 1.5493
-21.6558 -13.8897 1.9111
-21.6580 -14.4966 2.0610
-21.6569 -14.1911 1.9857
-21.6591 -14.8063 2.1371
-21.6631 -16.4226 2.5311
-21.5743 -15.0604 2.2053
-22.2709 -17.2303 2.6861
-21.5755 -15.3778 2.2829
-21.6607 -15.7610 2.3706
-21.5860 -17.0421 2.6859
-21.6619 -16.0893 2.4504
-20.9349 -16.8650 2.6859
-20.3138 -16.6968 2.6859
-19.7311 -16.5461 2.6873
-19.7066 -16.8590 2.7635
-19.6654 -17.1623 2.8383
-19.1146 -17.0168 2.8383
-18.5861 -16.8781 2.8383
-18.0781 -16.7456 2.8383
-17.5895 -16.6190 2.8383
-5.3697 9.1227 -3.0939
-5.5200 9.1593 -3.1086
-5.6731 9.1965 -3.1236
-5.8293 9.2343 -3.1390
-6.0496 9.3671 -3.1867
-6.4741 9.8007 -3.3370
-6.5702 9.7261 -3.3145
-6.6575 9.6393 -3.2878
-6.5773 9.3164 -3.1805
-6.2063 8.6014 -2.9392
-6.3953 8.6737 -2.9668
-6.5903 8.7484 -2.9953
-6.7917 8.8255 -3.0248
-6.9998 8.9052 -3.0553
-7.1693 8.9308 -3.0673
-7.5209 9.1746 -3.1546
-7.7842 9.2999 -3.2013
-7.8440 9.1789 -3.1633
-7.1214 8.1629 -2.8166
-7.0929 7.9645 -2.7515
-7.0651 7.7723 -2.6885
-6.9241 7.4628 -2.5848
-8.0845 8.5375 -2.9610
-8.2842 8.5719 -2.9771
-8.3707 8.4871 -2.9518
-8.4571 8.4023 -2.9266
-8.5435 8.3176 -2.9015
-8.6299 8.2329 -2.8764
-8.3345 7.7914 -2.7265
-8.3659 7.6637 -2.6862
-40.3822 10.5744 -4.6494
-40.2915 10.1325 -4.5113
-40.2018 9.6950 -4.3747
-40.1130 9.2617 -4.2395
-40.0252 8.8325 -4.1058
-39.9383 8.4072 -3.9735
-39.8523 7.9856 -3.8425
-39.7672 7.5677 -3.7128
-39.6829 7.1533 -3.5843
-39.5993 6.7423 -3.4571
-39.5166 6.3345 -3.3309
-39.4346 5.9299 -3.2060
-39.3533 5.5283 -3.0820
-39.2727 5.1295 -2.9592
-39.1928 4.7335 -2.8373
-38.7931 4.3046 -2.6941
-39.1328 3.9593 -2.6029
-7.2618 0.4519 -0.3985
-39.2158 3.5847 -2.4938
-30.1158 2.4594 -1.8274
-39.3188 2.0652 -2.0442
-7.2968 0.5249 -0.4216
-39.1727 1.6781 -1.9237
-39.1793 1.2992 -1.8114
-39.1859 0.9205 -1.6993
-39.6236 0.5479 -1.6048
-21.6103 -3.7021 0.2948
-21.6945 -3.5011 0.2337
-21.6111 -3.9176 0.3570
-21.5312 -4.9890 0.6679
-21.6119 -4.1340 0.4193
-21.6242 -5.2316 0.7341
-21.6127 -4.3511 0.4818
-21.6250 -5.4539 0.7977
-21.5379 -4.5533 0.5426
-21.6258 -5.6774 0.8615
-21.5304 -4.7697 0.6050
-21.6266 -5.9021 0.9256
-21.6283 -6.3555 1.0546
-21.6275 -6.1282 0.9900
-21.6291 -6.5843 1.1196
-21.6334 -7.7512 1.4499
-21.6300 -6.8145 1.1850
-21.6343 -7.9896 1.5171
-21.6352 -8.2300 1.5848
-21.6308 -7.0463 1.2506
-21.6360 -8.4722 1.6529
-21.6317 -7.2796 1.3167
-21.6369 -8.7164 1.7215
-21.6325 -7.5145 1.3831
-21.6378 -8.9626 1.7906
-21.6387 -9.2110 1.8602
-21.6397 -9.4617 1.9303
-21.6435 -10.7506 2.2897
-21.6445 -11.0163 2.3635
-21.6406 -9.7146 2.0010
-21.6454 -11.2848 2.4380
-21.5567 -9.9308 2.0642
-21.6464 -11.5563 2.5133
-21.5576 -10.1876 2.1358
-21.6474 -11.8309 2.5893
-21.6425 -10.4876 2.2166
-21.8094 -12.1986 2.6859
-21.1937 -12.1287 2.6859
-19.0417 -12.4425 2.8383
-20.6057 -12.0623 2.6859
-18.5587 -12.3896 2.8383
-20.0435 -11.9991 2.6859
-18.0939 -12.3391 2.8383
-17.6463 -12.2906 2.8383
-19.7037 -12.0604 2.7132
-17.2145 -12.2442 2.8383
-19.6910 -12.3205 2.7851
-16.7980 -12.1998 2.8383
-19.5440 -12.4978 2.8383
-16.3957 -12.1570 2.8383
-16.0068 -12.1161 2.8383
-15.6305 -12.0766 2.8383
-15.2663 -12.0388 2.8383
-14.9135 -12.0023 2.8383
-14.5714 -11.9673 2.8383
-14.2394 -11.9335 2.8383
-13.9172 -11.9010 2.8383
-13.6042 -11.8696 2.8383
-13.2998 -11.8394 2.8383
-13.0039 -11.8102 2.8383
-12.7158 -11.7821 2.8383
-5.3057 9.8446 -2.7659
-5.4413 9.8525 -2.7673
-5.5786 9.8605 -2.7688
-5.7177 9.8686 -2.7703
-5.8585 9.8767 -2.7718
-5.5318 9.1120 -2.5564
-5.6829 9.1483 -2.5658
-5.8370 9.1854 -2.5754
-5.9942 9.2230 -2.5851
-6.6509 10.0083 -2.8043
-6.1381 9.0352 -2.5307
-6.2720 9.0327 -2.5291
-6.4077 9.0302 -2.5275
-6.5451 9.0276 -2.5258
-6.6697 9.0051 -2.5185
-6.7519 8.9249 -2.4951
-7.1735 9.2847 -2.5946
-7.0461 8.9308 -2.4946
-7.0704 8.7770 -2.4506
-7.0420 8.5626 -2.3897
-7.0145 8.3552 -2.3307
-6.9877 8.1542 -2.2736
-6.9761 7.9761 -2.2228
-7.6972 8.6232 -2.4019
-6.5572 7.1984 -2.0040
-8.0329 8.6416 -2.4045
-8.1004 8.5400 -2.3749
-8.0460 8.3133 -2.3105
-7.8489 7.9480 -2.2077
-8.1796 8.1180 -2.2536
-8.2121 7.9881 -2.2161
-8.2441 7.8598 -2.1791
-8.2758 7.7330 -2.1425
-39.1054 11.5975 -2.9269
-38.6750 11.0623 -2.7759
-38.6820 10.6591 -2.6582
-39.0211 10.3461 -2.5629
-39.0282 9.9437 -2.4454
-39.0351 9.5433 -2.3284
-39.0421 9.1448 -2.2119
-39.0491 8.7481 -2.0958
-39.0560 8.3530 -1.9803
-39.0628 7.9596 -1.8651
-39.0697 7.5677 -1.7504
-39.0765 7.1773 -1.6360
-39.0833 6.7882 -1.5219
-39.0901 6.4004 -1.4082
-39.0969 6.0138 -1.2948
-39.1036 5.6283 -1.1817
-39.1103 5.2438 -1.0688
-39.2696 4.8791 -0.9599
-37.8871 4.3359 -0.8170
-39.2830 4.1115 -0.7342
-39.2897 3.7287 -0.6217
-30.1472 2.5674 -0.3907
-37.8476 2.8552 -0.3822
-7.2543 0.4768 -0.0525
-37.9104 2.1244 -0.1664
-39.1703 1.8157 -0.0602
-39.1769 1.4370 0.0515
-39.1835 1.0584 0.1632
-39.3701 0.6830 0.2761
-21.5156 0.1654 0.2122
-21.5963 -0.0426 0.2746
-21.5970 -0.2512 0.3362
-21.5978 -0.4598 0.3978
-21.5985 -0.6686 0.4595
-21.5993 -0.8776 0.5213
-21.6001 -1.0867 0.5832
-21.6008 -1.2961 0.6452
-21.6016 -1.5058 0.7073
-21.6024 -1.7158 0.7695
-21.6031 -1.9262 0.8318
-21.6039 -2.1370 0.8943
-21.6047 -2.3483 0.9570
-21.6054 -2.5600 1.0198
-21.6062 -2.7723 1.0828
-21.6070 -2.9853 1.1461
-21.6078 -3.1988 1.2095
-21.6085 -3.4130 1.2732
-21.6093 -3.6280 1.3371
-21.6101 -3.8438 1.4013
-21.6109 -4.0604 1.4658
-21.6117 -4.2779 1.5305
-21.5839 -4.4903 1.5935
-21.5294 -4.6973 1.6545
-21.5302 -4.9169 1.7199
-21.6232 -5.1595 1.7934
-21.6241 -5.3822 1.8598
-21.6249 -5.6062 1.9267
-21.6257 -5.8313 1.9939
-21.6265 -6.0578 2.0615
-21.6274 -6.2856 2.1296
-21.6282 -6.5149 2.1982
-21.6290 -6.7456 2.2672
-21.6299 -6.9779 2.3367
-21.6307 -7.2118 2.4067
-21.6316 -7.4473 2.4772
-21.6325 -7.6846 2.5483
-22.1789 -8.1235 2.6860
-21.5833 -8.1455 2.6859
-21.0155 -8.1668 2.6859
-20.4722 -8.1871 2.6859
-19.9519 -8.2065 2.6859
-19.6931 -8.3266 2.7191
-19.6813 -8.5499 2.7860
-19.5643 -8.7282 2.8383
-19.0966 -8.7453 2.8383
-18.6463 -8.7616 2.8383
-18.2124 -8.7773 2.8383
-17.7940 -8.7923 2.8383
-17.3901 -8.8067 2.8383
-17.0000 -8.8206 2.8383
-16.6228 -8.8340 2.8383
-16.2579 -8.8468 2.8383
-15.9046 -8.8591 2.8383
-15.5623 -8.8710 2.8383
-15.2304 -8.8824 2.8383
-14.9084 -8.8934 2.8383
-14.5959 -8.9041 2.8383
-14.2922 -8.9143 2.8383
-13.9970 -8.9242 2.8383
-13.7100 -8.9338 2.8383
-13.4306 -8.9430 2.8383
-13.1586 -8.9520 2.8383
-12.8936 -8.9606 2.8383
-12.6353 -8.9689 2.8383
-12.3834 -8.9770 2.8383
-12.1376 -8.9848 2.8383
-11.8977 -8.9924 2.8383
-11.6633 -8.9998 2.8383
-11.4343 -9.0069 2.8383
-11.2104 -9.0138 2.8383
-10.9915 -9.0205 2.8383
-10.7773 -9.0270 2.8383
-10.5676 -9.0332 2.8383
-10.3622 -9.0393 2.8383
-10.1611 -9.0452 2.8383
-9.9639 -9.0510 2.8383
-5.4387 9.7632 -2.1912
-5.5735 9.7707 -2.1891
-5.7100 9.7783 -2.1869
-5.8480 9.7857 -2.1846
-5.5432 9.0659 -2.0201
-5.6867 9.0926 -2.0220
-5.8257 9.1087 -2.0216
-5.9669 9.1250 -2.0210
-6.1104 9.1416 -2.0204
-6.2563 9.1584 -2.0196
-6.9417 9.9451 -2.1881
-6.5332 9.1617 -2.0111
-6.8283 9.3743 -2.0528
-6.7297 9.0463 -1.9761
-6.8964 9.0783 -1.9780
-6.7510 8.7039 -1.8914
-7.1965 9.0885 -1.9696
-7.2531 8.9735 -1.9392
-6.9646 8.4419 -1.8191
-7.3646 8.7467 -1.8791
-7.4194 8.6348 -1.8493
-7.6185 8.6891 -1.8550
-6.6258 7.4063 -1.5760
-7.7932 8.5379 -1.8106
-7.8805 8.4623 -1.7883
-7.9678 8.3866 -1.7659
-7.7991 8.0469 -1.6880
-7.4026 7.4871 -1.5645
-7.2592 7.1973 -1.4979
-8.1556 7.9267 -1.6429
-8.1875 7.8009 -1.6099
-39.0503 12.1200 -1.0975
-37.6809 11.2963 -0.9485
-37.1672 10.7514 -0.8271
-37.3271 10.4074 -0.7221
-37.3338 10.0212 -0.6140
-37.4359 9.6616 -0.5075
-37.4426 9.2783 -0.3997
-39.0398 9.2745 -0.3046
-38.9934 8.8664 -0.1926
-39.0537 8.4842 -0.0812
-37.4837 7.7647 0.0289
-39.0674 7.7001 0.1414
-39.0742 7.3103 0.2524
-39.0810 6.9217 0.3633
-21.5861 3.6086 0.2618
-21.5869 3.3949 0.3229
-21.5877 3.1818 0.3840
-21.5885 2.9694 0.4450
-21.5893 2.7575 0.5060
-21.5900 2.5461 0.5669
-21.5908 2.3352 0.6279
-21.5916 2.1247 0.6889
-21.5923 1.9146 0.7499
-21.5931 1.7048 0.8109
-7.2638 0.5030 0.2933
-7.2685 0.4329 0.3141
-21.5954 1.0772 0.9943
-21.5961 0.8683 1.0556
-21.5093 0.6569 1.1124
-21.5100 0.4492 1.1737
-21.5146 0.2415 1.2353
-21.5953 0.0338 1.3016
-21.5961 -0.1748 1.3635
-21.5968 -0.3835 1.4255
-21.5976 -0.5923 1.4877
-21.5984 -0.8012 1.5501
-21.5991 -1.0104 1.6127
-21.5999 -1.2199 1.6755
-21.6006 -1.4296 1.7386
-21.6014 -1.6397 1.8018
-21.6022 -1.8502 1.8654
-21.6029 -2.0611 1.9291
-21.6037 -2.2725 1.9932
-21.6045 -2.4844 2.0575
-21.6053 -2.6969 2.1222
-21.6060 -2.9100 2.1872
-21.6068 -3.1237 2.2525
-21.6076 -3.3382 2.3182
-21.6084 -3.5533 2.3842
-21.6092 -3.7693 2.4506
-21.6100 -3.9862 2.5174
-21.6107 -4.2039 2.5846
-21.8853 -4.4786 2.6859
-21.3381 -4.5834 2.6859
-20.8143 -4.6833 2.6859
-20.3123 -4.7786 2.6859
-19.8305 -4.8698 2.6859
-19.6828 -5.0374 2.7296
-19.6717 -5.2396 2.7922
-19.5441 -5.4104 2.8383
-19.1082 -5.4913 2.8383
-18.6881 -5.5688 2.8383
-18.2827 -5.6433 2.8383
-17.8912 -5.7148 2.8383
-17.5129 -5.7835 2.8383
-17.1470 -5.8497 2.8383
-16.7929 -5.9133 2.8383
-16.4500 -5.9746 2.8383
-16.1176 -6.0337 2.8383
-15.7953 -6.0906 2.8383
-15.4825 -6.1456 2.8383
-15.1787 -6.1986 2.8383
-14.8836 -6.2498 2.8383
-14.5967 -6.2993 2.8383
-14.3177 -6.3471 2.8383
-14.0461 -6.3933 2.8383
-13.7816 -6.4381 2.8383
-13.5239 -6.4813 2.8383
-13.2727 -6.5233 2.8383
-13.0278 -6.5638 2.8383
-12.7888 -6.6032 2.8383
-12.5554 -6.6413 2.8383
-12.3276 -6.6782 2.8383
-12.1049 -6.7140 2.8383
-11.8873 -6.7488 2.8383
-11.6745 -6.7825 2.8383
-11.4663 -6.8153 2.8383
-11.2625 -6.8470 2.8383
-11.0630 -6.8779 2.8383
-10.8676 -6.9079 2.8383
-10.6761 -6.9370 2.8383
-10.4884 -6.9654 2.8383
-10.3043 -6.9929 2.8383
-10.1238 -7.0197 2.8383
-9.9467 -7.0457 2.8383
-9.7728 -7.0710 2.8383
-9.0864 -6.7147 2.6859
-8.9277 -6.7374 2.6859
-8.7718 -6.7595 2.6859
-8.6185 -6.7810 2.6859
-8.4678 -6.8019 2.6859
-8.3195 -6.8223 2.6859
-8.1737 -6.8422 2.6859
-8.0302 -6.8615 2.6859
-7.8890 -6.8803 2.6859
-7.7499 -6.8987 2.6859
-5.5675 9.6833 -1.6278
-5.7014 9.6902 -1.6220
-5.8370 9.6972 -1.6161
-5.9743 9.7043 -1.6099
-6.1133 9.7112 -1.6035
-6.2618 9.7301 -1.5988
-6.4182 9.7576 -1.5953
-5.9969 8.9219 -1.4511
-6.1371 8.9366 -1.4457
-6.2795 8.9514 -1.4400
-6.4242 8.9664 -1.4342
-6.5713 8.9814 -1.4280
-6.7209 8.9966 -1.4217
-7.1384 9.3599 -1.4697
-6.9899 8.9788 -1.4006
-7.3107 9.2008 -1.4255
-7.1413 8.8067 -1.3548
-7.2265 8.7332 -1.3337
-7.3067 8.6541 -1.3116
-6.7220 7.8033 -1.1734
-7.4813 8.5130 -1.2697
-7.5662 8.4396 -1.2482
-7.8972 8.6355 -1.2660
-7.7658 8.3251 -1.2094
-7.8190 8.2179 -1.1825
-7.3148 7.5375 -1.0740
-7.1756 7.2497 -1.0225
-8.0575 7.9817 -1.1138
-8.0927 7.8602 -1.0847
-8.1275 7.7399 -1.0558
-36.0392 32.3479 -4.2493
-35.9264 31.6149 -4.0964
-36.5156 31.5028 -4.0237
-37.1829 31.4475 -3.9568
-37.8624 31.3907 -3.8880
-38.5545 31.3321 -3.8172
-37.8016 17.7548 -0.6881
-37.8753 17.3440 -0.5785
-37.8829 16.9062 -0.4684
-37.8905 16.4722 -0.3587
-37.8706 16.0300 -0.2493
-37.8781 15.6033 -0.1406
-37.8855 15.1800 -0.0322
-37.8928 14.7598 0.0757
-37.9276 14.3532 0.1834
-37.9348 13.9389 0.2907
-37.9420 13.5274 0.3977
-21.5743 7.4580 0.2868
-21.5751 7.2261 0.3473
-21.5760 6.9957 0.4076
-21.5768 6.7668 0.4678
-21.5777 6.5393 0.5279
-21.5785 6.3131 0.5879
-21.5793 6.0883 0.6477
-21.4935 5.8411 0.7047
-21.4943 5.6195 0.7642
-21.4981 5.3998 0.8237
-21.5796 5.1998 0.8864
-21.5804 4.9806 0.9460
-21.5812 4.7624 1.0055
-21.5820 4.5450 1.0651
-21.5828 4.3286 1.1246
-21.5836 4.1130 1.1842
-21.5844 3.8981 1.2438
-21.5852 3.6840 1.3034
-21.5860 3.4705 1.3631
-21.5867 3.2577 1.4228
-21.5875 3.0455 1.4826
-21.5883 2.8338 1.5425
-21.5891 2.6226 1.6026
-21.5898 2.4119 1.6627
-21.5906 2.2017 1.7229
-21.5914 1.9917 1.7833
-21.5921 1.7821 1.8438
-7.3059 0.5322 0.6444
-7.2567 0.4583 0.6605
-21.5944 1.1548 2.0263
-21.5952 0.9461 2.0876
-21.5083 0.7344 2.1403
-21.5091 0.5267 2.2017
-21.5098 0.3190 2.2633
-21.5944 0.1118 2.3342
-21.5951 -0.0968 2.3966
-21.5959 -0.3055 2.4592
-21.5966 -0.5143 2.5222
-21.5974 -0.7232 2.5854
-21.8997 -0.9455 2.6859
-21.3847 -1.1306 2.6859
-20.8911 -1.3074 2.6859
-20.4174 -1.4763 2.6859
-19.9621 -1.6380 2.6859
-19.6788 -1.8069 2.7071
-19.6684 -1.9984 2.7654
-19.6581 -2.1901 2.8240
-19.3434 -2.3455 2.8383
-18.9440 -2.4839 2.8383
-18.5582 -2.6170 2.8383
-18.1852 -2.7449 2.8383
-17.8245 -2.8681 2.8383
-17.4753 -2.9866 2.8383
-17.1370 -3.1009 2.8383
-16.8091 -3.2110 2.8383
-16.4911 -3.3172 2.8383
-16.1824 -3.4197 2.8383
-15.8827 -3.5187 2.8383
-15.5914 -3.6143 2.8383
-15.3083 -3.7067 2.8383
-15.0328 -3.7961 2.8383
-14.7647 -3.8825 2.8383
-14.5036 -3.9662 2.8383
-14.2493 -4.0471 2.8383
-14.0013 -4.1256 2.8383
-13.7596 -4.2016 2.8383
-13.5236 -4.2753 2.8383
-13.2934 -4.3467 2.8383
-13.0684 -4.4160 2.8383
-12.8487 -4.4833 2.8383
-12.6340 -4.5485 2.8383
-12.4240 -4.6119 2.8383
-12.2186 -4.6734 2.8383
-12.0176 -4.7333 2.8383
-11.8209 -4.7913 2.8383
-11.6282 -4.8478 2.8383
-11.4394 -4.9028 2.8383
-11.2544 -4.9562 2.8383
-11.0730 -5.0081 2.8383
-10.8951 -5.0587 2.8383
-10.7206 -5.1079 2.8383
-10.5494 -5.1558 2.8383
-10.3813 -5.2024 2.8383
-10.2162 -5.2478 2.8383
-10.0540 -5.2921 2.8383
-9.8947 -5.3352 2.8383
-9.7381 -5.3771 2.8383
-9.0695 -5.1272 2.6859
-8.9263 -5.1649 2.6859
-8.7853 -5.2018 2.6859
-8.6466 -5.2376 2.6859
-8.5101 -5.2727 2.6859
-8.3757 -5.3068 2.6859
-8.2433 -5.3401 2.6859
-8.1130 -5.3726 2.6859
-7.9845 -5.4043 2.6859
-7.8579 -5.4353 2.6859
-7.7331 -5.4654 2.6859
-7.6101 -5.4949 2.6859
-7.4887 -5.5237 2.6859
-7.3690 -5.5518 2.6859
-7.2509 -5.5792 2.6859
-7.1343 -5.6059 2.6859
-7.0192 -5.6321 2.6859
-6.9056 -5.6576 2.6859
-6.7934 -5.6826 2.6859
-6.6826 -5.7069 2.6859
-6.5731 -5.7307 2.6859
-5.5604 9.5981 -1.0819
-5.6917 9.6044 -1.0726
-5.8246 9.6107 -1.0631
-5.9480 9.5988 -1.0513
-6.0710 9.5845 -1.0389
-6.1950 9.5698 -1.0262
-6.3201 9.5550 -1.0132
-6.4543 9.5517 -1.0012
-6.5794 9.5328 -0.9872
-6.6828 9.4814 -0.9696
-6.7871 9.4308 -0.9519
-6.4390 8.7638 -0.8726
-6.5825 8.7768 -0.8615
-6.7284 8.7899 -0.8501
-7.2979 9.3421 -0.8896
-7.2992 9.1570 -0.8579
-7.3155 8.9948 -0.8286
-6.7287 8.1094 -0.7339
-7.4216 8.7681 -0.7789
-7.3781 8.5453 -0.7445
-7.5254 8.5452 -0.7295
-7.5724 8.4307 -0.7045
-7.6104 8.3080 -0.6787
-7.3710 7.8903 -0.6295
-7.2281 7.5872 -0.5904
-7.7214 7.9480 -0.6023
-36.2215 33.8169 -2.1879
-36.2331 33.1730 -2.0660
-36.2444 32.5403 -1.9455
-36.2169 31.8846 -1.8243
-36.2323 31.2779 -1.7067
-36.2764 30.7055 -1.5915
-36.3251 30.1458 -1.4775
-36.7200 29.8760 -1.3773
-37.4736 29.8892 -1.2881
-38.2459 29.9027 -1.1960
-39.0382 29.9166 -1.1007
-37.6837 28.3030 -0.9476
-37.6935 27.7431 -0.8340
-37.7031 27.1912 -0.7212
-37.7126 26.6469 -0.6092
-37.7220 26.1099 -0.4981
-37.7313 25.5800 -0.3877
-37.2554 24.7349 -0.2745
-37.7859 24.5643 -0.1693
-38.3498 24.4070 -0.0617
-39.0329 24.3153 0.0485
-39.9681 24.3654 0.1629
-40.8766 24.3813 0.2819
-41.8160 24.3977 0.4056
-21.5494 12.2960 0.2691
-21.5504 12.0226 0.3289
-21.5514 11.7523 0.3885
-21.5524 11.4848 0.4478
-21.4761 11.1799 0.5050
-21.4707 10.9156 0.5635
-21.4717 10.6573 0.6219
-21.5626 10.4450 0.6830
-21.5635 10.1904 0.7412
-21.5645 9.9383 0.7993
-21.5654 9.6884 0.8573
-21.5663 9.4406 0.9151
-21.5672 9.1950 0.9728
-21.5681 8.9514 1.0304
-21.5690 8.7098 1.0879
-21.5699 8.4700 1.1453
-21.5707 8.2321 1.2026
-21.5716 7.9960 1.2599
-21.5725 7.7615 1.3171
-21.5733 7.5286 1.3743
-21.5742 7.2973 1.4315
-21.5750 7.0675 1.4886
-21.5759 6.8392 1.5457
-21.5767 6.6122 1.6029
-21.5775 6.3866 1.6601
-21.5784 6.1622 1.7173
-21.4925 5.9152 1.7674
-21.4934 5.6940 1.8245
-21.4971 5.4748 1.8819
-21.5787 5.2755 1.9464
-21.5795 5.0567 2.0039
-21.5803 4.8388 2.0616
-21.5811 4.6219 2.1193
-21.5819 4.4057 2.1772
-21.5827 4.1905 2.2352
-21.5834 3.9759 2.2934
-21.5842 3.7621 2.3517
-21.5850 3.5489 2.4101
-21.5858 3.3364 2.4688
-21.5866 3.1244 2.5276
-21.5873 2.9129 2.5866
-21.9147 2.7429 2.6859
-21.4333 2.4736 2.6859
-20.9713 2.2160 2.6859
-20.5270 1.9696 2.6859
-20.0993 1.7335 2.6859
-19.6867 1.5072 2.6858
-7.2550 0.4852 1.0102
-7.2970 0.4174 1.0366
-19.5884 0.9313 2.8383
-19.2104 0.7278 2.8383
-18.8448 0.5320 2.8383
-18.4909 0.3435 2.8383
-18.1482 0.1620 2.8383
-17.8161 -0.0131 2.8383
-17.4940 -0.1819 2.8383
-17.1815 -0.3447 2.8383
-16.8781 -0.5019 2.8383
-16.5833 -0.6538 2.8383
-16.2968 -0.8005 2.8383
-16.0181 -0.9424 2.8383
-15.7469 -1.0797 2.8383
-15.4829 -1.2125 2.8383
-15.2256 -1.3411 2.8383
-14.9750 -1.4657 2.8383
-14.7306 -1.5864 2.8383
-14.4922 -1.7033 2.8383
-14.2596 -1.8167 2.8383
-14.0324 -1.9268 2.8383
-13.8106 -2.0335 2.8383
-13.5938 -2.1372 2.8383
-13.3819 -2.2378 2.8383
-13.1746 -2.3356 2.8383
-12.9719 -2.4305 2.8383
-12.7734 -2.5228 2.8383
-12.5792 -2.6126 2.8383
-12.3889 -2.6998 2.8383
-12.2025 -2.7847 2.8383
-12.0198 -2.8673 2.8383
-11.8407 -2.9477 2.8383
-11.6650 -3.0259 2.8383
-11.4927 -3.1021 2.8383
-11.3236 -3.1764 2.8383
-11.1576 -3.2486 2.8383
-10.9945 -3.3191 2.8383
-10.8344 -3.3877 2.8383
-10.6771 -3.4546 2.8383
-10.5225 -3.5199 2.8383
-10.3705 -3.5835 2.8383
-10.2210 -3.6456 2.8383
-10.0740 -3.7061 2.8383
-9.9294 -3.7652 2.8383
-9.7870 -3.8228 2.8383
-9.1289 -3.6708 2.6859
-8.9984 -3.7228 2.6859
-8.8698 -3.7735 2.6859
-8.7432 -3.8231 2.6859
-8.6184 -3.8715 2.6859
-8.4954 -3.9188 2.6859
-8.3742 -3.9649 2.6859
-8.2546 -4.0100 2.6859
-8.1367 -4.0541 2.6859
-8.0205 -4.0972 2.6859
-7.9057 -4.1393 2.6859
-7.7925 -4.1805 2.6859
-7.6808 -4.2207 2.6859
-7.5704 -4.2600 2.6859
-7.4615 -4.2985 2.6859
-7.3539 -4.3361 2.6859
-7.2476 -4.3729 2.6859
-7.1426 -4.4088 2.6859
-7.0388 -4.4440 2.6859
-6.9363 -4.4784 2.6859
-6.8349 -4.5120 2.6859
-6.7346 -4.5450 2.6859
-6.6355 -4.5771 2.6859
-6.5374 -4.6087 2.6859
-6.4404 -4.6395 2.6859
-6.3445 -4.6697 2.6859
-6.2495 -4.6992 2.6859
-6.1555 -4.7280 2.6859
-6.0624 -4.7563 2.6859
-5.9703 -4.7840 2.6859
-5.8790 -4.8110 2.6859
-5.7886 -4.8375 2.6859
-5.7423 -4.9002 2.7062
-5.9275 9.3037 -0.4835
-6.0460 9.2884 -0.4686
-6.1655 9.2728 -0.4533
-6.2860 9.2570 -0.4377
-6.3833 9.2059 -0.4201
-6.4820 9.1563 -0.4024
-6.5807 9.1065 -0.3843
-6.6797 9.0563 -0.3660
-6.7788 9.0060 -0.3474
-6.8781 8.9553 -0.3285
-6.9777 8.9044 -0.3093
-6.7305 8.4191 -0.2756
-7.1311 8.7447 -0.2683
-7.1715 8.6220 -0.2464
-7.2112 8.5006 -0.2244
-7.2504 8.3806 -0.2026
-7.2142 8.1771 -0.1789
-7.1188 7.9131 -0.1544
-7.0278 7.6614 -0.1309
-35.1933 35.5045 -0.2359
-35.2992 34.9295 -0.1342
-35.6904 34.6406 -0.0332
-36.2215 33.8226 0.1716
-36.2335 33.1852 0.2729
-36.2445 32.5580 0.3735
-21.5334 18.9712 0.2811
-21.5347 18.6068 0.3399
-21.5361 18.2486 0.3983
-21.5374 17.8962 0.4563
-21.5387 17.5496 0.5139
-21.5399 17.2084 0.5711
-21.5412 16.8725 0.6281
-21.4493 16.4702 0.6817
-21.4506 16.1458 0.7377
-21.4825 15.8488 0.7946
-21.5365 15.5713 0.8523
-21.5376 15.2594 0.9077
-21.5388 14.9517 0.9630
-21.5399 14.6482 1.0180
-21.5410 14.3487 1.0728
-21.5421 14.0530 1.1274
-21.5432 13.7610 1.1818
-21.5443 13.4727 1.2361
-21.5453 13.1878 1.2903
-21.5464 12.9063 1.3443
-21.5474 12.6281 1.3982
-21.5484 12.3530 1.4520
-21.5494 12.0810 1.5056
-21.5504 11.8118 1.5592
-21.5514 11.5456 1.6128
-21.5524 11.2820 1.6663
-21.4698 10.9784 1.7130
-21.4707 10.7210 1.7662
-21.5616 10.5100 1.8270
-21.5625 10.2565 1.8804
-21.5635 10.0052 1.9338
-21.5644 9.7562 1.9872
-21.5653 9.5094 2.0406
-21.5662 9.2646 2.0940
-21.5671 9.0218 2.1475
-21.5680 8.7809 2.2010
-21.5689 8.5420 2.2546
-21.5698 8.3047 2.3083
-21.5706 8.0693 2.3620
-21.5715 7.8354 2.4158
-21.5724 7.6032 2.4698
-21.5732 7.3725 2.5238
-21.5740 7.1433 2.5780
-22.0149 7.0566 2.6860
-21.5689 6.6870 2.6859
-21.1401 6.3333 2.6859
-20.7270 5.9942 2.6859
-20.3284 5.6689 2.6859
-19.9437 5.3566 2.6859
-19.6649 5.0806 2.6986
-19.6543 4.8778 2.7476
-19.6456 4.6766 2.7970
-19.5799 4.4635 2.8383
-19.2353 4.1917 2.8383
-18.9013 3.9299 2.8383
-18.5772 3.6773 2.8383
-18.2627 3.4337 2.8383
-17.9573 3.1984 2.8383
-17.6605 2.9712 2.8383
-17.3719 2.7518 2.8383
-17.0911 2.5395 2.8383
-16.8179 2.3343 2.8383
-16.5518 2.1357 2.8383
-16.2926 1.9435 2.8383
-16.0399 1.7573 2.8383
-15.7935 1.5770 2.8383
-15.5531 1.4021 2.8383
-15.3184 1.2326 2.8383
-7.2656 0.5144 1.3667
-7.2614 0.4439 1.3864
-14.6467 0.7539 2.8383
-14.4328 0.6036 2.8383
-14.2237 0.4576 2.8383
-14.0191 0.3157 2.8383
-13.8188 0.1778 2.8383
-13.6227 0.0438 2.8383
-13.4306 -0.0866 2.8383
-13.2425 -0.2134 2.8383
-13.0580 -0.3367 2.8383
-12.8772 -0.4568 2.8383
-12.6999 -0.5737 2.8383
-12.5259 -0.6875 2.8383
-12.3552 -0.7984 2.8383
-12.1877 -0.9064 2.8383
-12.0231 -1.0116 2.8383
-11.8616 -1.1142 2.8383
-11.7028 -1.2142 2.8383
-11.5468 -1.3117 2.8383
-11.3934 -1.4069 2.8383
-11.2427 -1.4997 2.8383
-11.0944 -1.5902 2.8383
-10.9485 -1.6786 2.8383
-10.8050 -1.7648 2.8383
-10.6637 -1.8490 2.8383
-10.5246 -1.9312 2.8383
-10.3877 -2.0115 2.8383
-10.2528 -2.0899 2.8383
-10.1200 -2.1665 2.8383
-9.9891 -2.2414 2.8383
-9.8601 -2.3145 2.8383
-9.7329 -2.3860 2.8383
-9.0916 -2.3240 2.6859
-8.9746 -2.3887 2.6859
-8.8592 -2.4518 2.6859
-8.7453 -2.5137 2.6859
-8.6330 -2.5741 2.6859
-8.5221 -2.6333 2.6859
-8.4126 -2.6911 2.6859
-8.3045 -2.7477 2.6859
-8.1978 -2.8031 2.6859
-8.0924 -2.8573 2.6859
-7.9883 -2.9104 2.6859
-7.8854 -2.9623 2.6859
-7.7838 -3.0131 2.6859
-7.6833 -3.0629 2.6859
-7.5840 -3.1116 2.6859
-7.4858 -3.1593 2.6859
-7.3887 -3.2060 2.6859
-7.2927 -3.2517 2.6859
-7.1977 -3.2965 2.6859
-7.1037 -3.3404 2.6859
-7.0107 -3.3834 2.6859
-6.9187 -3.4255 2.6859
-6.8276 -3.4667 2.6859
-6.7374 -3.5071 2.6859
-6.6482 -3.5467 2.6859
-6.5598 -3.5855 2.6859
-6.4723 -3.6235 2.6859
-6.3856 -3.6607 2.6859
-6.2997 -3.6973 2.6859
-6.2146 -3.7330 2.6859
-6.1303 -3.7680 2.6859
-6.0467 -3.8024 2.6859
-5.9639 -3.8360 2.6859
-5.8818 -3.8690 2.6859
-5.8004 -3.9014 2.6859
-5.7416 -3.9481 2.6962
-5.7359 -4.0317 2.7317
-5.7301 -4.1165 2.7679
-5.7241 -4.2024 2.8047
-5.7101 -4.2836 2.8383
-5.6282 -4.3139 2.8383
-5.5469 -4.3435 2.8383
-5.4663 -4.3726 2.8383
-5.3863 -4.4011 2.8383
-5.3068 -4.4291 2.8383
-21.4039 32.0375 0.2630
-21.4905 31.5054 0.3212
-6.2482 8.9730 0.1098
-6.3653 8.9559 0.1283
-6.4833 8.9384 0.1473
-6.6024 8.9207 0.1668
-6.7226 8.9026 0.1867
-6.8439 8.8843 0.2071
-7.1778 9.1347 0.2349
-7.0962 8.8544 0.2495
-7.1127 8.7023 0.2673
-7.0183 8.4204 0.2806
-6.9283 8.1521 0.2935
-7.3622 8.4960 0.3293
-21.5085 24.3449 1.0126
-21.5102 23.8814 1.0629
-21.5119 23.4277 1.1129
-21.5136 22.9835 1.1627
-21.5152 22.5484 1.2121
-21.5168 22.1220 1.2614
-21.4387 21.6236 1.3055
-21.4365 21.2114 1.3539
-21.5253 20.8956 1.4080
-21.5267 20.5008 1.4565
-21.5282 20.1132 1.5047
-21.5296 19.7326 1.5528
-21.5310 19.3586 1.6008
-21.5324 18.9911 1.6487
-21.5338 18.6298 1.6964
-21.5351 18.2744 1.7441
-21.5364 17.9249 1.7916
-21.5377 17.5809 1.8391
-21.5390 17.2422 1.8865
-21.5402 16.9088 1.9339
-21.5414 16.5803 1.9812
-21.4496 16.1864 2.0198
-21.4603 15.8759 2.0678
-21.5355 15.6163 2.1221
-21.5367 15.3063 2.1694
-21.5378 15.0006 2.2166
-21.5389 14.6989 2.2639
-21.5400 14.4011 2.3112
-21.5411 14.1070 2.3585
-21.5422 13.8167 2.4059
-21.5433 13.5299 2.4533
-21.5443 13.2465 2.5008
-21.5454 12.9664 2.5483
-21.5464 12.6895 2.5959
-21.8921 12.6144 2.6859
-21.5039 12.1199 2.6859
-21.1287 11.6452 2.6859
-20.7657 11.1892 2.6859
-20.4140 10.7506 2.6859
-20.0733 10.3287 2.6859
-19.7428 9.9229 2.6859
-19.6478 9.6419 2.7171
-19.6404 9.4078 2.7603
-19.6329 9.1759 2.8037
-19.5647 8.9186 2.8383
-19.2625 8.5607 2.8383
-18.9685 8.2151 2.8383
-18.6822 7.8811 2.8383
-18.4033 7.5583 2.8383
-18.1316 7.2461 2.8383
-17.8666 6.9440 2.8383
-17.6082 6.6516 2.8383
-17.3561 6.3685 2.8383
-17.1099 6.0942 2.8383
-16.8695 5.8284 2.8383
-16.6346 5.5706 2.8383
-16.4050 5.3208 2.8383
-16.1806 5.0784 2.8383
-15.9610 4.8431 2.8383
-15.7461 4.6147 2.8383
-15.5359 4.3929 2.8383
-15.3300 4.1775 2.8383
-15.1283 3.9681 2.8383
-14.9306 3.7646 2.8383
-14.7370 3.5667 2.8383
-14.5471 3.3743 2.8383
-14.3609 3.1870 2.8383
-14.1782 3.0049 2.8383
-13.9989 2.8275 2.8383
-13.8229 2.6549 2.8383
-13.6502 2.4868 2.8383
-13.4805 2.3230 2.8383
-13.3138 2.1634 2.8383
-13.1500 2.0079 2.8383
-12.9890 1.8564 2.8383
-12.8308 1.7086 2.8383
-12.6751 1.5644 2.8383
-12.5221 1.4239 2.8383
-12.3715 1.2867 2.8383
-12.2233 1.1528 2.8383
-12.0774 1.0222 2.8383
-11.9338 0.8947 2.8383
-7.2485 0.4734 1.7446
-11.6532 0.6487 2.8383
-11.5160 0.5299 2.8383
-11.3808 0.4139 2.8383
-11.2476 0.3006 2.8383
-11.1163 0.1899 2.8383
-10.9869 0.0816 2.8383
-10.8592 -0.0242 2.8383
-10.7333 -0.1276 2.8383
-10.6092 -0.2288 2.8383
-10.4866 -0.3277 2.8383
-10.3657 -0.4245 2.8383
-10.2464 -0.5191 2.8383
-10.1286 -0.6117 2.8383
-10.0123 -0.7023 2.8383
-9.8975 -0.7910 2.8383
-9.7841 -0.8778 2.8383
-9.1527 -0.9111 2.6859
-9.0480 -0.9898 2.6859
-8.9445 -1.0669 2.6859
-8.8422 -1.1423 2.6859
-8.7412 -1.2162 2.6859
-8.6412 -1.2886 2.6859
-8.5424 -1.3595 2.6859
-8.4448 -1.4290 2.6859
-8.3482 -1.4970 2.6859
-8.2526 -1.5637 2.6859
-8.1581 -1.6291 2.6859
-8.0645 -1.6931 2.6859
-7.9720 -1.7559 2.6859
-7.8804 -1.8174 2.6859
-7.7897 -1.8777 2.6859
-7.7000 -1.9368 2.6859
-7.6112 -1.9948 2.6859
-7.5232 -2.0516 2.6859
-7.4361 -2.1074 2.6859
-7.3498 -2.1620 2.6859
-7.2643 -2.2156 2.6859
-7.1797 -2.2682 2.6859
-7.0958 -2.3197 2.6859
-7.0127 -2.3703 2.6859
-6.9303 -2.4199 2.6859
-6.8487 -2.4686 2.6859
-6.7677 -2.5163 2.6859
-6.6875 -2.5631 2.6859
-6.6080 -2.6091 2.6859
-6.5291 -2.6542 2.6859
-6.4509 -2.6985 2.6859
-6.3733 -2.7419 2.6859
-6.2964 -2.7845 2.6859
-6.2201 -2.8263 2.6859
-6.1444 -2.8673 2.6859
-6.0692 -2.9076 2.6859
-5.9947 -2.9471 2.6859
-5.9207 -2.9859 2.6859
-5.8473 -3.0239 2.6859
-5.7744 -3.0613 2.6859
-5.7383 -3.1177 2.7030
-5.7332 -3.1912 2.7350
-5.7280 -3.2656 2.7676
-5.7226 -3.3409 2.8007
-5.7172 -3.4169 2.8343
-5.6514 -3.4570 2.8383
-5.5781 -3.4916 2.8383
-5.5053 -3.5256 2.8383
-5.4329 -3.5590 2.8383
-5.3610 -3.5917 2.8383
-5.2896 -3.6239 2.8383
-5.2187 -3.6554 2.8383
-5.1481 -3.6863 2.8383
-5.0780 -3.7167 2.8383
-5.0084 -3.7465 2.8383
-4.9391 -3.7758 2.8383
-4.8702 -3.8045 2.8383
-4.8018 -3.8326 2.8383
-4.7337 -3.8603 2.8383
-21.4413 44.6495 1.6413
-21.4454 43.5839 1.6702
-21.3640 42.3896 1.6926
-21.4509 41.5678 1.7286
-21.4545 40.6170 1.7582
-21.4580 39.6999 1.7880
-21.4614 38.8147 1.8180
-21.4647 37.9595 1.8483
-21.3839 36.9877 1.8714
-21.4701 36.3317 1.9093
-21.4731 35.5573 1.9401
-21.4759 34.8071 1.9712
-21.4787 34.0797 2.0024
-21.4814 33.3741 2.0338
-21.4840 32.6891 2.0654
-21.4032 31.8996 2.0891
-21.4899 31.3784 2.1293
-21.4923 30.7495 2.1615
-21.4946 30.1375 2.1938
-21.4968 29.5418 2.2263
-21.4991 28.9614 2.2591
-21.5012 28.3959 2.2919
-21.5033 27.8444 2.3250
-21.5053 27.3064 2.3583
-7.1309 8.8795 0.7930
-21.5002 26.2575 2.4243
-21.5021 25.7567 2.4581
-21.5040 25.2673 2.4920
-21.5058 24.7887 2.5262
-21.5076 24.3205 2.5605
-21.5093 23.8624 2.5950
-21.9711 23.9147 2.6860
-21.6839 23.1574 2.6858
-21.4042 22.4286 2.6859
-21.1298 21.7250 2.6859
-20.8608 21.0457 2.6859
-20.5972 20.3898 2.6859
-20.3388 19.7561 2.6859
-20.0854 19.1437 2.6859
-19.8368 18.5516 2.6859
-19.6385 18.0207 2.6921
-19.6262 17.6701 2.7237
-19.6210 17.3325 2.7564
-19.6157 17.0001 2.7892
-19.6104 16.6734 2.8223
-19.4871 16.2537 2.8383
-19.2567 15.7552 2.8383
-19.0303 15.2721 2.8383
-18.8080 14.8036 2.8383
-18.5895 14.3493 2.8383
-18.3748 13.9086 2.8383
-18.1638 13.4809 2.8383
-17.9563 13.0657 2.8383
-17.7523 12.6626 2.8383
-17.5517 12.2711 2.8383
-17.3543 11.8908 2.8383
-17.1602 11.5212 2.8383
-16.9691 11.1621 2.8383
-16.7812 10.8129 2.8383
-16.5961 10.4734 2.8383
-16.4140 10.1430 2.8383
-16.2347 9.8217 2.8383
-16.0581 9.5091 2.8383
-15.8842 9.2047 2.8383
-15.7129 8.9084 2.8383
-15.5442 8.6200 2.8383
-15.3779 8.3390 2.8383
-15.2140 8.0653 2.8383
-15.0525 7.7985 2.8383
-14.8933 7.5386 2.8383
-14.7364 7.2852 2.8383
-14.5817 7.0382 2.8383
-14.4291 6.7974 2.8383
-14.2786 6.5625 2.8383
-14.1301 6.3333 2.8383
-13.9836 6.1097 2.8383
-13.8391 5.8915 2.8383
-13.6965 5.6786 2.8383
-13.5558 5.4707 2.8383
-13.4169 5.2677 2.8383
-13.2798 5.0695 2.8383
-13.1444 4.8759 2.8383
-13.0107 4.6868 2.8383
-12.8787 4.5021 2.8383
-12.7483 4.3215 2.8383
-12.6196 4.1451 2.8383
-12.4923 3.9727 2.8383
-12.3666 3.8041 2.8383
-12.2424 3.6392 2.8383
-12.1197 3.4781 2.8383
-11.9984 3.3204 2.8383
-11.8784 3.1662 2.8383
-11.7599 3.0154 2.8383
-11.6427 2.8678 2.8383
-11.5268 2.7234 2.8383
-11.4122 2.5821 2.8383
-11.2989 2.4438 2.8383
-11.1868 2.3083 2.8383
-11.0759 2.1758 2.8383
-10.9662 2.0460 2.8383
-10.8577 1.9189 2.8383
-10.7503 1.7944 2.8383
-10.6440 1.6725 2.8383
-10.5389 1.5530 2.8383
-10.4348 1.4360 2.8383
-10.3317 1.3213 2.8383
-10.2297 1.2090 2.8383
-10.1287 1.0989 2.8383
-10.0286 0.9909 2.8383
-9.9296 0.8852 2.8383
-9.8315 0.7814 2.8383
-7.2608 0.5071 2.1171
-7.2627 0.4371 2.1387
-9.0304 0.4565 2.6859
-8.9410 0.3658 2.6859
-8.8524 0.2768 2.6859
-8.7647 0.1896 2.6859
-8.6777 0.1040 2.6859
-8.5915 0.0200 2.6859
-8.5061 -0.0624 2.6859
-8.4214 -0.1432 2.6859
-8.3375 -0.2225 2.6859
-8.2543 -0.3003 2.6859
-8.1718 -0.3767 2.6859
-8.0899 -0.4516 2.6859
-8.0088 -0.5252 2.6859
-7.9283 -0.5974 2.6859
-7.8485 -0.6683 2.6859
-7.7693 -0.7379 2.6859
-7.6908 -0.8062 2.6859
-7.6129 -0.8733 2.6859
-7.5356 -0.9392 2.6859
-7.4589 -1.0038 2.6859
-7.3828 -1.0674 2.6859
-7.3073 -1.1297 2.6859
-7.2323 -1.1910 2.6859
-7.1579 -1.2511 2.6859
-7.0841 -1.3102 2.6859
-7.0108 -1.3683 2.6859
-6.9380 -1.4253 2.6859
-6.8658 -1.4813 2.6859
-6.7940 -1.5363 2.6859
-6.7228 -1.5904 2.6859
-6.6520 -1.6435 2.6859
-6.5818 -1.6957 2.6859
-6.5120 -1.7470 2.6859
-6.4427 -1.7974 2.6859
-6.3739 -1.8469 2.6859
-6.3055 -1.8955 2.6859
-6.2376 -1.9433 2.6859
-6.1701 -1.9902 2.6859
-6.1030 -2.0364 2.6859
-6.0364 -2.0817 2.6859
-5.9701 -2.1263 2.6859
-5.9043 -2.1701 2.6859
-5.8389 -2.2132 2.6859
-5.7739 -2.2555 2.6859
-5.7370 -2.3082 2.6989
-5.7324 -2.3741 2.7275
-5.7277 -2.4406 2.7564
-5.7230 -2.5076 2.7858
-5.7182 -2.5751 2.8157
-5.6976 -2.6360 2.8383
-5.6317 -2.6756 2.8383
-5.5661 -2.7146 2.8383
-5.5008 -2.7528 2.8383
-5.4359 -2.7904 2.8383
-5.3714 -2.8273 2.8383
-5.3072 -2.8637 2.8383
-5.2433 -2.8993 2.8383
-5.1798 -2.9344 2.8383
-5.1166 -2.9689 2.8383
-5.0537 -3.0027 2.8383
-4.9911 -3.0360 2.8383
-4.9288 -3.0687 2.8383
-4.8668 -3.1008 2.8383
-4.8051 -3.1324 2.8383
-4.7437 -3.1634 2.8383
-4.6826 -3.1939 2.8383
-4.6218 -3.2238 2.8383
-4.5613 -3.2532 2.8383
-4.5010 -3.2821 2.8383
-4.4410 -3.3105 2.8383
-4.3813 -3.3384 2.8383
-4.3218 -3.3658 2.8383
-4.2626 -3.3927 2.8383
-15.2720 32.2951 2.8383
-15.3374 31.6558 2.8383
-15.3948 31.0237 2.8383
-15.4445 30.3991 2.8383
-15.4868 29.7824 2.8383
-15.5220 29.1737 2.8383
-15.5503 28.5731 2.8383
-15.5721 27.9808 2.8383
-15.5876 27.3971 2.8383
-15.5972 26.8220 2.8383
-15.6010 26.2555 2.8383
-15.5993 25.6978 2.8383
-15.5925 25.1490 2.8383
-15.5807 24.6090 2.8383
-15.5641 24.0779 2.8383
-15.5431 23.5556 2.8383
-15.5177 23.0422 2.8383
-15.4883 22.5376 2.8383
-15.4551 22.0418 2.8383
-15.4182 21.5548 2.8383
-15.3778 21.0764 2.8383
-15.3342 20.6067 2.8383
-15.2874 20.1455 2.8383
-15.2378 19.6927 2.8383
-7.0068 8.8815 1.3096
-7.1301 8.8652 1.3375
-15.0727 18.3844 2.8383
-15.0129 17.9644 2.8383
-14.9509 17.5526 2.8383
-14.8868 17.1485 2.8383
-14.8208 16.7522 2.8383
-14.7530 16.3635 2.8383
-14.6836 15.9823 2.8383
-14.6125 15.6084 2.8383
-14.5400 15.2419 2.8383
-14.4661 14.8823 2.8383
-14.3910 14.5299 2.8383
-14.3147 14.1844 2.8383
-14.2372 13.8455 2.8383
-14.1588 13.5133 2.8383
-14.0794 13.1877 2.8383
-13.9992 12.8684 2.8383
-13.9182 12.5554 2.8383
-13.8364 12.2485 2.8383
-13.7541 11.9476 2.8383
-13.6711 11.6527 2.8383
-13.5876 11.3635 2.8383
-13.5036 11.0800 2.8383
-13.4191 10.8021 2.8383
-13.3343 10.5296 2.8383
-13.2492 10.2625 2.8383
-13.1638 10.0005 2.8383
-13.0782 9.7437 2.8383
-12.9923 9.4919 2.8383
-12.9063 9.2450 2.8383
-12.8201 9.0029 2.8383
-12.7339 8.7655 2.8383
-12.6476 8.5328 2.8383
-12.5612 8.3044 2.8383
-12.4749 8.0805 2.8383
-12.3885 7.8609 2.8383
-12.3022 7.6456 2.8383
-12.2160 7.4343 2.8383
-12.1299 7.2272 2.8383
-12.0439 7.0239 2.8383
-11.9580 6.8246 2.8383
-11.8723 6.6290 2.8383
-11.7868 6.4371 2.8383
-11.7014 6.2489 2.8383
-11.6163 6.0642 2.8383
-11.5313 5.8829 2.8383
-11.4467 5.7052 2.8383
-11.3622 5.5306 2.8383
-11.2780 5.3594 2.8383
-11.1940 5.1914 2.8383
-11.1104 5.0264 2.8383
-11.0270 4.8646 2.8383
-10.9439 4.7057 2.8383
-10.8611 4.5497 2.8383
-10.7787 4.3966 2.8383
-10.6965 4.2463 2.8383
-10.6147 4.0987 2.8383
-10.5332 3.9539 2.8383
-10.4520 3.8116 2.8383
-10.3712 3.6719 2.8383
-10.2907 3.5348 2.8383
-10.2106 3.4001 2.8383
-10.1308 3.2678 2.8383
-10.0514 3.1378 2.8383
-9.9723 3.0102 2.8383
-9.8936 2.8849 2.8383
-9.8152 2.7618 2.8383
-9.7372 2.6409 2.8383
-9.1409 2.3866 2.6859
-9.0678 2.2762 2.6859
-8.9951 2.1676 2.6859
-8.9226 2.0610 2.6859
-8.8506 1.9562 2.6859
-8.7788 1.8533 2.6859
-8.7075 1.7521 2.6859
-8.6364 1.6527 2.6859
-8.5658 1.5550 2.6859
-8.4954 1.4590 2.6859
-8.4254 1.3646 2.6859
-8.3558 1.2718 2.6859
-8.2865 1.1806 2.6859
-8.2175 1.0910 2.6859
-8.1489 1.0028 2.6859
-8.0806 0.9162 2.6859
-8.0127 0.8310 2.6859
-7.9451 0.7473 2.6859
-7.8778 0.6649 2.6859
-7.8109 0.5840 2.6859
-7.2467 0.4720 2.5133
-7.6780 0.4261 2.6859
-7.6121 0.3491 2.6859
-7.5464 0.2734 2.6859
-7.4812 0.1989 2.6859
-7.4162 0.1257 2.6859
-7.3515 0.0537 2.6859
-7.2872 -0.0171 2.6859
-7.2232 -0.0868 2.6859
-7.1594 -0.1553 2.6859
-7.0960 -0.2227 2.6859
-7.0329 -0.2890 2.6859
-6.9702 -0.3543 2.6859
-6.9077 -0.4184 2.6859
-6.8455 -0.4816 2.6859
-6.7836 -0.5437 2.6859
-6.7220 -0.6048 2.6859
-6.6607 -0.6649 2.6859
-6.5997 -0.7240 2.6859
-6.5389 -0.7822 2.6859
-6.4785 -0.8395 2.6859
-6.4183 -0.8959 2.6859
-6.3584 -0.9513 2.6859
-6.2988 -1.0058 2.6859
-6.2395 -1.0595 2.6859
-6.1804 -1.1123 2.6859
-6.1216 -1.1643 2.6859
-6.0630 -1.2154 2.6859
-6.0048 -1.2658 2.6859
-5.9467 -1.3153 2.6859
-5.8890 -1.3640 2.6859
-5.8315 -1.4120 2.6859
-5.7742 -1.4592 2.6859
-5.7357 -1.5105 2.6946
-5.7316 -1.5709 2.7197
-5.7275 -1.6316 2.7451
-5.7234 -1.6926 2.7710
-5.7192 -1.7540 2.7972
-5.7149 -1.8158 2.8238
-5.6854 -1.8697 2.8383
-5.6270 -1.9136 2.8383
-5.5687 -1.9567 2.8383
-5.5107 -1.9992 2.8383
-5.4529 -2.0411 2.8383
-5.3954 -2.0822 2.8383
-5.3380 -2.1227 2.8383
-5.2809 -2.1626 2.8383
-5.2241 -2.2018 2.8383
-5.1674 -2.2404 2.8383
-5.1110 -2.2784 2.8383
-5.0547 -2.3157 2.8383
-4.9987 -2.3525 2.8383
-4.9429 -2.3887 2.8383
-4.8873 -2.4243 2.8383
-4.8319 -2.4593 2.8383
-4.7767 -2.4937 2.8383
-4.7217 -2.5276 2.8383
-4.6670 -2.5610 2.8383
-4.6124 -2.5937 2.8383
-4.5579 -2.6260 2.8383
-4.5037 -2.6578 2.8383
-4.4497 -2.6890 2.8383
-4.3958 -2.7197 2.8383
-4.3421 -2.7499 2.8383
-4.2886 -2.7795 2.8383
-4.2353 -2.8088 2.8383
-4.1822 -2.8375 2.8383
-4.1292 -2.8657 2.8383
-4.0764 -2.8935 2.8383
-4.0238 -2.9208 2.8383
-3.9713 -2.9476 2.8383
-3.9190 -2.9739 2.8383
-3.8668 -2.9999 2.8383
-8.9894 19.3093 2.6859
-9.0803 19.0381 2.6859
-9.6870 19.8319 2.8383
-9.7740 19.5455 2.8383
-9.8565 19.2595 2.8383
-9.9347 18.9739 2.8383
-10.0086 18.6890 2.8383
-10.0783 18.4049 2.8383
-10.1440 18.1218 2.8383
-10.2055 17.8397 2.8383
-10.2632 17.5589 2.8383
-10.3170 17.2795 2.8383
-10.3670 17.0016 2.8383
-10.4134 16.7253 2.8383
-10.4561 16.4507 2.8383
-10.4954 16.1778 2.8383
-10.5312 15.9069 2.8383
-10.5637 15.6379 2.8383
-10.5930 15.3711 2.8383
-10.6191 15.1063 2.8383
-10.6421 14.8437 2.8383
-10.6621 14.5835 2.8383
-10.6793 14.3254 2.8383
-10.6936 14.0699 2.8383
-10.7052 13.8167 2.8383
-6.9905 8.8513 1.8519
-7.1035 8.8244 1.8807
-7.2352 8.8191 1.9149
-10.7259 12.8290 2.8383
-10.7250 12.5886 2.8383
-10.7218 12.3507 2.8383
-10.7165 12.1155 2.8383
-10.7090 11.8829 2.8383
-10.6995 11.6530 2.8383
-10.6880 11.4258 2.8383
-10.6746 11.2013 2.8383
-10.6593 10.9794 2.8383
-10.6423 10.7603 2.8383
-10.6235 10.5439 2.8383
-10.6031 10.3301 2.8383
-10.5810 10.1190 2.8383
-10.5575 9.9107 2.8383
-10.5324 9.7049 2.8383
-10.5060 9.5019 2.8383
-10.4781 9.3015 2.8383
-10.4489 9.1037 2.8383
-10.4185 8.9086 2.8383
-10.3868 8.7160 2.8383
-10.3540 8.5260 2.8383
-10.3200 8.3387 2.8383
-10.2850 8.1539 2.8383
-10.2489 7.9716 2.8383
-10.2118 7.7918 2.8383
-10.1737 7.6145 2.8383
-10.1348 7.4396 2.8383
-10.0950 7.2672 2.8383
-10.0543 7.0973 2.8383
-10.0128 6.9297 2.8383
-9.9706 6.7645 2.8383
-9.9276 6.6016 2.8383
-9.8840 6.4411 2.8383
-9.8396 6.2828 2.8383
-9.7947 6.1268 2.8383
-9.7491 5.9731 2.8383
-9.7030 5.8215 2.8383
-9.1378 5.3676 2.6859
-9.0931 5.2283 2.6859
-9.0480 5.0911 2.6859
-9.0024 4.9557 2.6859
-8.9564 4.8224 2.6859
-8.9100 4.6911 2.6859
-8.8632 4.5616 2.6859
-8.8160 4.4340 2.6859
-8.7685 4.3083 2.6859
-8.7207 4.1845 2.6859
-8.6726 4.0624 2.6859
-8.6242 3.9421 2.6859
-8.5756 3.8236 2.6859
-8.5267 3.7069 2.6859
-8.4776 3.5919 2.6859
-8.4282 3.4785 2.6859
-8.3787 3.3668 2.6859
-8.3289 3.2567 2.6859
-8.2790 3.1483 2.6859
-8.2289 3.0415 2.6859
-8.1787 2.9363 2.6859
-8.1284 2.8326 2.6859
-8.0779 2.7304 2.6859
-8.0273 2.6297 2.6859
-7.9766 2.5305 2.6859
-7.9258 2.4328 2.6859
-7.8749 2.3365 2.6859
-7.8240 2.2416 2.6859
-7.7730 2.1481 2.6859
-7.7219 2.0560 2.6859
-7.6708 1.9652 2.6859
-7.6197 1.8758 2.6859
-7.5685 1.7877 2.6859
-7.5173 1.7009 2.6859
-7.4661 1.6154 2.6859
-7.4149 1.5310 2.6859
-7.3636 1.4480 2.6859
-7.3124 1.3662 2.6859
-7.2612 1.2856 2.6859
-7.2100 1.2061 2.6859
-7.1589 1.1278 2.6859
-7.1077 1.0507 2.6859
-7.0566 0.9747 2.6859
-7.0055 0.8998 2.6859
-6.9545 0.8260 2.6859
-6.9035 0.7532 2.6859
-6.8526 0.6816 2.6859
-6.8017 0.6110 2.6859
-6.7509 0.5414 2.6859
-6.7001 0.4728 2.6859
-6.6494 0.4052 2.6859
-6.5988 0.3386 2.6859
-6.5482 0.2730 2.6859
-6.4977 0.2083 2.6859
-6.4473 0.1446 2.6859
-6.3970 0.0818 2.6859
-6.3467 0.0199 2.6859
-6.2965 -0.0411 2.6859
-6.2464 -0.1011 2.6859
-6.1965 -0.1604 2.6859
-6.1465 -0.2187 2.6859
-6.0967 -0.2763 2.6859
-6.0470 -0.3329 2.6859
-5.9974 -0.3888 2.6859
-5.9478 -0.4438 2.6859
-5.8984 -0.4981 2.6859
-5.8490 -0.5515 2.6859
-5.7998 -0.6042 2.6859
-5.7507 -0.6561 2.6859
-5.7326 -0.7111 2.7005
-5.7292 -0.7679 2.7222
-5.7256 -0.8249 2.7443
-5.7221 -0.8821 2.7666
-5.7184 -0.9394 2.7893
-5.7147 -0.9969 2.8122
-5.7110 -1.0547 2.8356
-5.6654 -1.1045 2.8383
-5.6145 -1.1526 2.8383
-5.5637 -1.1999 2.8383
-5.5130 -1.2466 2.8383
-5.4624 -1.2926 2.8383
-5.4119 -1.3380 2.8383
-5.3615 -1.3826 2.8383
-5.3113 -1.4266 2.8383
-5.2611 -1.4700 2.8383
-5.2111 -1.5127 2.8383
-5.1612 -1.5548 2.8383
-5.1114 -1.5963 2.8383
-5.0617 -1.6372 2.8383
-5.0121 -1.6774 2.8383
-4.9626 -1.7171 2.8383
-4.9133 -1.7562 2.8383
-4.8640 -1.7947 2.8383
-4.8149 -1.8326 2.8383
-4.7659 -1.8699 2.8383
-4.7170 -1.9068 2.8383
-4.6682 -1.9430 2.8383
-4.6195 -1.9787 2.8383
-4.5709 -2.0139 2.8383
-4.5224 -2.0485 2.8383
-4.4741 -2.0826 2.8383
-4.4258 -2.1162 2.8383
-4.3777 -2.1493 2.8383
-4.3296 -2.1819 2.8383
-4.2817 -2.2140 2.8383
-4.2339 -2.2455 2.8383
-4.1861 -2.2767 2.8383
-4.1385 -2.3073 2.8383
-4.0910 -2.3374 2.8383
-4.0435 -2.3671 2.8383
-3.9962 -2.3963 2.8383
-3.9490 -2.4251 2.8383
-3.9019 -2.4533 2.8383
-3.8548 -2.4812 2.8383
-3.8079 -2.5086 2.8383
-3.7611 -2.5355 2.8383
-3.7143 -2.5621 2.8383
-3.6677 -2.5882 2.8383
-3.6211 -2.6139 2.8383
-3.5747 -2.6391 2.8383
-3.5283 -2.6640 2.8383
-6.4557 14.0904 2.6859
-6.5386 13.9310 2.6859
-6.6188 13.7708 2.6859
-6.6963 13.6097 2.6859
-6.7712 13.4480 2.6859
-6.8434 13.2857 2.6859
-6.9131 13.1228 2.6859
-6.9802 12.9596 2.6859
-7.0447 12.7960 2.6859
-7.1067 12.6322 2.6859
-7.1662 12.4682 2.6859
-7.2232 12.3041 2.6859
-7.2778 12.1401 2.6859
-7.3300 11.9761 2.6859
-7.3798 11.8122 2.6859
-7.4273 11.6485 2.6859
-7.4724 11.4851 2.6859
-7.5153 11.3220 2.6859
-7.5559 11.1593 2.6859
-7.5944 10.9971 2.6859
-7.6306 10.8354 2.6859
-7.6648 10.6742 2.6859
-7.6968 10.5137 2.6859
-7.7268 10.3538 2.6859
-7.7548 10.1947 2.6859
-7.7808 10.0362 2.6859
-6.9853 8.8414 2.4039
-7.0724 8.7845 2.4269
-7.2013 8.7785 2.4648
-7.3320 8.7723 2.5036
-7.8824 9.2569 2.6859
-7.8974 9.1038 2.6859
-7.9106 8.9517 2.6859
-7.9222 8.8006 2.6859
-7.9321 8.6507 2.6859
-7.9404 8.5018 2.6859
-7.9472 8.3540 2.6859
-7.9524 8.2074 2.6859
-7.9562 8.0619 2.6859
-7.9585 7.9175 2.6859
-7.9594 7.7744 2.6859
-7.9589 7.6325 2.6859
-7.9570 7.4917 2.6859
-7.9539 7.3522 2.6859
-7.9495 7.2140 2.6859
-7.9438 7.0769 2.6859
-7.9369 6.9412 2.6859
-7.9289 6.8067 2.6859
-7.9196 6.6735 2.6859
-7.9093 6.5415 2.6859
-7.8979 6.4109 2.6859
-7.8855 6.2815 2.6859
-7.8720 6.1534 2.6859
-7.8575 6.0266 2.6859
-7.8420 5.9011 2.6859
-7.8256 5.7769 2.6859
-7.8083 5.6540 2.6859
-7.7901 5.5324 2.6859
-7.7711 5.4120 2.6859
-7.7512 5.2930 2.6859
-7.7305 5.1753 2.6859
-7.7090 5.0588 2.6859
-7.6867 4.9435 2.6859
-7.6637 4.8296 2.6859
-7.6400 4.7170 2.6859
-7.6157 4.6055 2.6859
-7.5906 4.4954 2.6859
-7.5649 4.3865 2.6859
-7.5385 4.2788 2.6859
-7.5116 4.1724 2.6859
-7.4841 4.0672 2.6859
-7.4560 3.9632 2.6859
-7.4273 3.8605 2.6859
-7.3981 3.7589 2.6859
-7.3684 3.6585 2.6859
-7.3382 3.5593 2.6859
-7.3076 3.4613 2.6859
-7.2764 3.3645 2.6859
-7.2449 3.2688 2.6859
-7.2129 3.1743 2.6859
-7.1804 3.0809 2.6859
-7.1476 2.9886 2.6859
-7.1144 2.8975 2.6859
-7.0808 2.8074 2.6859
-7.0469 2.7185 2.6859
-7.0126 2.6306 2.6859
-6.9780 2.5439 2.6859
-6.9431 2.4582 2.6859
-6.9079 2.3735 2.6859
-6.8724 2.2899 2.6859
-6.8366 2.2074 2.6859
-6.8005 2.1258 2.6859
-6.7641 2.0453 2.6859
-6.7276 1.9658 2.6859
-6.6907 1.8873 2.6859
-6.6537 1.8098 2.6859
-6.6164 1.7332 2.6859
-6.5789 1.6576 2.6859
-6.5412 1.5830 2.6859
-6.5034 1.5093 2.6859
-6.4653 1.4365 2.6859
-6.4271 1.3647 2.6859
-6.3887 1.2938 2.6859
-6.3501 1.2237 2.6859
-6.3114 1.1546 2.6859
-6.2726 1.0863 2.6859
-6.2336 1.0190 2.6859
-6.1945 0.9525 2.6859
-6.1552 0.8868 2.6859
-6.1159 0.8220 2.6859
-6.0764 0.7580 2.6859
-6.0368 0.6948 2.6859
-5.9971 0.6325 2.6859
-5.9574 0.5709 2.6859
-5.9175 0.5102 2.6859
-5.8776 0.4502 2.6859
-5.8376 0.3910 2.6859
-5.7975 0.3326 2.6859
-5.7574 0.2749 2.6859
-5.7316 0.2186 2.6927
-5.7288 0.1633 2.7104
-5.7259 0.1081 2.7285
-5.7230 0.0529 2.7467
-5.7200 -0.0024 2.7653
-5.7170 -0.0576 2.7841
-5.7140 -0.1129 2.8032
-5.7109 -0.1682 2.8226
-5.6998 -0.2233 2.8383
-5.6569 -0.2767 2.8383
-5.6140 -0.3294 2.8383
-5.5710 -0.3815 2.8383
-5.5281 -0.4328 2.8383
-5.4851 -0.4834 2.8383
-5.4421 -0.5334 2.8383
-5.3991 -0.5827 2.8383
-5.3561 -0.6314 2.8383
-5.3131 -0.6794 2.8383
-5.2701 -0.7267 2.8383
-5.2271 -0.7735 2.8383
-5.1841 -0.8196 2.8383
-4.9692 -1.0410 2.8383
-5.1411 -0.8651 2.8383
-4.9263 -1.0835 2.8383
-4.8834 -1.1255 2.8383
-5.0981 -0.9100 2.8383
-4.8405 -1.1668 2.8383
-5.0552 -0.9543 2.8383
-4.7976 -1.2076 2.8383
-5.0122 -0.9979 2.8383
-4.7547 -1.2479 2.8383
-4.4554 -1.5144 2.8383
-4.7119 -1.2876 2.8383
-4.4128 -1.5505 2.8383
-4.3702 -1.5860 2.8383
-4.6691 -1.3267 2.8383
-4.3276 -1.6210 2.8383
-4.6263 -1.3653 2.8383
-4.2851 -1.6555 2.8383
-4.5835 -1.4034 2.8383
-4.2426 -1.6895 2.8383
-4.2001 -1.7230 2.8383
-4.5408 -1.4409 2.8383
-4.1577 -1.7561 2.8383
-4.4981 -1.4780 2.8383
-4.1153 -1.7886 2.8383
-4.0729 -1.8208 2.8383
-3.9461 -1.9144 2.8383
-4.0306 -1.8524 2.8383
-3.9039 -1.9447 2.8383
-3.9883 -1.8837 2.8383
-3.8617 -1.9745 2.8383
-3.6935 -2.0897 2.8383
-3.6516 -2.1173 2.8383
-3.8196 -2.0040 2.8383
-3.6096 -2.1447 2.8383
-3.7775 -2.0329 2.8383
-3.5678 -2.1715 2.8383
-3.7355 -2.0615 2.8383
-3.5259 -2.1980 2.8383
-3.4842 -2.2241 2.8383
-3.4424 -2.2497 2.8383
-3.4007 -2.2750 2.8383
-3.3591 -2.2999 2.8383
-3.3175 -2.3244 2.8383
-3.2759 -2.3485 2.8383
-3.2344 -2.3722 2.8383
-5.2713 11.6960 2.8383
-5.3474 11.5824 2.8383
-5.4215 11.4681 2.8383
-5.4937 11.3528 2.8383
-5.5639 11.2367 2.8383
-5.6323 11.1198 2.8383
-5.6814 10.9686 2.8296
-5.6868 10.7395 2.8006
-5.6920 10.5169 2.7729
-5.6969 10.3015 2.7466
-5.7016 10.0927 2.7216
-5.7061 9.8899 2.6979
-5.7331 9.7311 2.6859
-5.7837 9.6169 2.6859
-5.8326 9.5018 2.6859
-5.8797 9.3866 2.6859
-5.9252 9.2711 2.6859
-5.9690 9.1556 2.6859
-6.0111 9.0398 2.6859
-6.0516 8.9241 2.6859
-6.0904 8.8084 2.6859
-6.1277 8.6926 2.6859
-6.1633 8.5769 2.6859
-6.1974 8.4614 2.6859
-6.2299 8.3459 2.6859
-6.2609 8.2307 2.6859
-6.2904 8.1156 2.6859
-6.3184 8.0008 2.6859
-6.3449 7.8863 2.6859
-6.3700 7.7721 2.6859
-6.3936 7.6582 2.6859
-6.4158 7.5446 2.6859
-6.4367 7.4315 2.6859
-6.4561 7.3188 2.6859
-6.5066 6.9833 2.6859
-6.4743 7.2065 2.6859
-6.5208 6.8726 2.6859
-6.4911 7.0947 2.6859
-6.5338 6.7623 2.6859
-6.5735 6.3270 2.6859
-6.5455 6.6526 2.6859
-6.5805 6.2196 2.6859
-6.5560 6.5434 2.6859
-6.5864 6.1130 2.6859
-6.5653 6.4349 2.6859
-6.5912 6.0070 2.6859
-6.5992 5.6930 2.6859
-6.5998 5.5897 2.6859
-6.5949 5.9016 2.6859
-6.5994 5.4872 2.6859
-6.5976 5.7969 2.6859
-6.5981 5.3854 2.6859
-6.5883 5.0844 2.6859
