ply
format ascii 1.0
element vertex 2191
property float32 x
property float32 y
property float32 z
end_header
4.6643 -3.6850 0.0114
6.4939 -5.4437 0.0725
6.4951 -5.0303 -0.0027
6.4954 -4.9309 -0.0211
4.6572 -3.8280 0.0383
6.4957 -4.8329 -0.0395
6.4973 -4.2737 -0.1469
6.4960 -4.7364 -0.0576
6.4976 -4.1848 -0.1645
6.4979 -4.0970 -0.1819
6.4962 -4.6413 -0.0757
6.4981 -4.0103 -0.1994
6.4965 -4.5475 -0.0937
6.4984 -3.9246 -0.2167
6.4986 -3.8400 -0.2339
6.4968 -4.4550 -0.1115
6.4989 -3.7563 -0.2511
6.4971 -4.3638 -0.1292
6.4991 -3.6735 -0.2683
6.4993 -3.5917 -0.2854
6.4998 -3.4306 -0.3194
6.4996 -3.5108 -0.3024
6.5001 -3.3514 -0.3363
6.4967 -3.0400 -0.4035
6.4968 -2.9644 -0.4202
6.4962 -3.2709 -0.3530
6.4969 -2.8895 -0.4370
6.4971 -2.8153 -0.4537
6.4964 -3.1932 -0.3699
6.4972 -2.7416 -0.4704
6.4965 -3.1162 -0.3867
6.4973 -2.6686 -0.4872
6.4975 -2.5962 -0.5039
6.4980 -2.3117 -0.5707
6.4976 -2.5243 -0.5206
6.4977 -2.4529 -0.5373
6.4979 -2.3821 -0.5540
6.4986 -1.9668 -0.6545
6.4981 -2.2419 -0.5874
6.4987 -1.8991 -0.6713
6.4982 -2.1725 -0.6042
6.4989 -1.8317 -0.6882
6.4984 -2.1035 -0.6209
6.4990 -1.7647 -0.7051
6.4985 -2.0350 -0.6377
6.4991 -1.6980 -0.7220
6.4992 -1.6317 -0.7390
6.4998 -1.3043 -0.8246
6.4994 -1.5657 -0.7560
6.5000 -1.2396 -0.8419
6.5001 -1.1751 -0.8592
6.4995 -1.4999 -0.7731
6.5002 -1.1108 -0.8766
6.4996 -1.4345 -0.7902
6.5003 -1.0467 -0.8941
6.4997 -1.3693 -0.8074
6.5004 -0.9828 -0.9116
6.5005 -0.9191 -0.9293
6.5010 -0.6655 -1.0006
6.5007 -0.8555 -0.9470
6.5011 -0.6024 -1.0186
6.5008 -0.7920 -0.9647
6.5009 -0.7287 -0.9826
6.5013 -0.5393 -1.0368
6.5016 -0.3507 -1.0918
6.5014 -0.4764 -1.0550
6.5017 -0.2878 -1.1104
6.5015 -0.4135 -1.0734
6.5028 -0.2251 -1.1292
6.5029 -0.1623 -1.1481
6.5033 -0.0367 -1.1861
6.5031 -0.0995 -1.1670
6.5034 0.0261 -1.2053
6.5041 0.2780 -1.2834
6.5043 0.3411 -1.3033
6.5036 0.0890 -1.2246
6.5044 0.4044 -1.3234
6.5038 0.1519 -1.2440
6.5046 0.4678 -1.3436
6.5048 0.5313 -1.3640
6.5039 0.2149 -1.2637
6.5049 0.5950 -1.3846
6.5051 0.6588 -1.4053
6.5058 0.9160 -1.4901
6.5053 0.7228 -1.4262
6.5059 0.9808 -1.5118
6.5054 0.7870 -1.4473
6.5056 0.8514 -1.4686
6.5061 1.0459 -1.5337
6.5066 1.2428 -1.6007
6.5063 1.1113 -1.5558
6.5068 1.3090 -1.6235
6.5070 1.3756 -1.6465
6.5065 1.1769 -1.5781
6.5072 1.4424 -1.6698
6.5075 1.5773 -1.7171
6.5073 1.5097 -1.6933
6.5084 1.9215 -1.8402
6.5077 1.6453 -1.7412
6.5086 1.9917 -1.8657
6.5079 1.7137 -1.7655
6.5088 2.0624 -1.8915
6.5081 1.7825 -1.7901
6.5090 2.1336 -1.9176
6.5083 1.8518 -1.8150
6.5092 2.2054 -1.9441
6.5104 2.6487 -2.1104
6.5094 2.2777 -1.9709
6.5106 2.7249 -2.1395
6.5096 2.3507 -1.9981
6.5135 2.8030 -2.1699
6.5098 2.4242 -2.0256
6.5135 2.8806 -2.1998
6.5136 2.9591 -2.2301
6.5100 2.4983 -2.0535
6.5137 3.0383 -2.2609
6.5102 2.5732 -2.0818
6.5137 3.1184 -2.2922
6.5138 3.1994 -2.3239
6.5140 3.4478 -2.4222
6.5139 3.2812 -2.3562
6.5141 3.5325 -2.4561
6.5139 3.3640 -2.3889
6.5144 3.8824 -2.5972
6.5141 3.6183 -2.4904
6.5144 3.9727 -2.6340
6.5142 3.7052 -2.5254
6.5145 4.0643 -2.6715
6.5146 4.1572 -2.7097
6.5143 3.7932 -2.5610
6.5147 4.2514 -2.7486
6.5148 4.3471 -2.7882
10.3442 -18.5550 2.6277
10.5797 -18.5405 2.6101
10.8165 -18.5243 2.5919
6.5244 -10.9225 1.5186
6.4369 -10.5363 1.4552
6.3731 -10.2026 1.3995
6.3752 -9.9837 1.3599
6.3825 -9.7794 1.3223
4.8753 -7.3105 0.9810
4.9112 -7.2083 0.9597
5.0265 -7.2225 0.9538
5.1598 -7.2596 0.9506
5.2702 -7.2615 0.9426
5.3823 -7.2635 0.9343
5.4959 -7.2655 0.9257
5.6113 -7.2675 0.9170
5.7285 -7.2695 0.9079
5.8475 -7.2716 0.8986
5.9683 -7.2737 0.8891
6.0471 -7.2231 0.8728
6.1754 -7.2304 0.8634
6.4855 -7.4437 0.8779
6.4857 -7.2975 0.8496
6.4859 -7.1546 0.8218
6.4860 -7.0149 0.7945
6.4862 -6.8781 0.7677
6.4864 -6.7443 0.7413
6.4865 -6.6132 0.7154
6.1946 -6.1927 0.6588
6.2186 -6.0960 0.6372
6.2207 -5.9795 0.6136
6.2227 -5.8652 0.5904
6.2246 -5.7530 0.5674
6.2265 -5.6428 0.5448
6.2284 -5.5345 0.5224
6.2303 -5.4280 0.5004
6.2321 -5.3234 0.4785
6.2339 -5.2205 0.4570
4.7829 -3.9265 0.3342
4.8813 -3.9283 0.3244
4.9822 -3.9300 0.3144
5.0856 -3.9318 0.3040
5.1918 -3.9337 0.2933
5.2631 -3.9077 0.2802
5.3742 -3.9096 0.2687
5.5319 -3.9426 0.2589
6.4963 -4.5353 0.2835
6.2014 -4.2405 0.2512
6.2299 -4.1717 0.2330
6.2314 -4.0857 0.2138
6.2329 -4.0007 0.1948
6.2344 -3.9168 0.1759
6.2988 -3.8726 0.1587
6.4981 -3.9089 0.1443
6.4984 -3.8238 0.1250
6.4987 -3.7397 0.1058
6.4989 -3.6566 0.0868
6.4991 -3.5744 0.0678
6.4994 -3.4931 0.0490
6.4996 -3.4126 0.0302
6.4999 -3.3330 0.0116
6.4961 -3.2523 -0.0069
6.4967 -2.9446 -0.0803
6.4963 -3.1742 -0.0254
6.4968 -2.8694 -0.0984
6.4964 -3.0970 -0.0438
6.4969 -2.7949 -0.1165
6.4965 -3.0204 -0.0620
6.4971 -2.7211 -0.1345
6.4973 -2.5751 -0.1704
6.4972 -2.6478 -0.1525
6.4975 -2.5030 -0.1883
6.4980 -2.2198 -0.2593
6.4976 -2.4315 -0.2061
6.4981 -2.1503 -0.2770
6.4977 -2.3604 -0.2239
6.4983 -2.0811 -0.2947
6.4979 -2.2899 -0.2416
6.4984 -2.0124 -0.3124
6.4986 -1.8763 -0.3476
6.4988 -1.8088 -0.3652
6.4985 -1.9441 -0.3300
6.4989 -1.7416 -0.3829
6.4992 -1.5422 -0.4357
6.4990 -1.6748 -0.4005
6.4994 -1.4763 -0.4533
6.4991 -1.6083 -0.4181
6.4995 -1.4108 -0.4710
6.4998 -1.2156 -0.5240
6.4996 -1.3455 -0.4886
6.5000 -1.1510 -0.5418
6.4997 -1.2804 -0.5063
6.5001 -1.0867 -0.5595
6.5004 -0.8947 -0.6130
6.5002 -1.0225 -0.5773
6.5006 -0.8310 -0.6309
6.5003 -0.9585 -0.5951
6.5007 -0.7675 -0.6489
6.5008 -0.7041 -0.6669
6.5010 -0.5777 -0.7031
6.5009 -0.6408 -0.6850
6.5011 -0.5146 -0.7213
6.5013 -0.4516 -0.7396
6.5016 -0.2630 -0.7948
6.5014 -0.3887 -0.7579
6.5026 -0.2002 -0.8135
6.5015 -0.3258 -0.7763
6.5028 -0.1374 -0.8321
6.5029 -0.0746 -0.8509
6.5033 0.0511 -0.8886
6.5031 -0.0118 -0.8697
6.5034 0.1139 -0.9077
6.5041 0.3661 -0.9849
6.5036 0.1768 -0.9268
6.5043 0.4293 -1.0045
6.5038 0.2398 -0.9461
6.5044 0.4927 -1.0242
6.5039 0.3029 -0.9654
6.5046 0.5562 -1.0440
6.5049 0.6836 -1.0842
6.5048 0.6198 -1.0640
6.5051 0.7476 -1.1044
6.5058 1.0055 -1.1870
6.5053 0.8118 -1.1248
6.5060 1.0705 -1.2081
6.5054 0.8761 -1.1454
6.5061 1.1358 -1.2293
6.5056 0.9407 -1.1661
6.5063 1.2013 -1.2507
6.5066 1.3333 -1.2941
6.5065 1.2672 -1.2723
6.5068 1.3998 -1.3161
6.5075 1.6691 -1.4061
6.5070 1.4665 -1.3383
6.5077 1.7373 -1.4292
6.5072 1.5337 -1.3607
6.5079 1.8060 -1.4525
6.5074 1.6012 -1.3833
6.5081 1.8752 -1.4760
6.5083 1.9448 -1.4998
6.5094 2.3730 -1.6482
6.5085 2.0149 -1.5238
6.5096 2.4463 -1.6740
6.5086 2.0854 -1.5482
6.5098 2.5203 -1.7001
6.5088 2.1565 -1.5727
6.5100 2.5949 -1.7265
6.5090 2.2281 -1.5976
6.5102 2.6701 -1.7532
6.5092 2.3002 -1.6228
6.5104 2.7461 -1.7803
6.5131 3.1381 -1.9218
6.5129 2.8238 -1.8084
6.5132 3.2187 -1.9511
6.5129 2.9012 -1.8361
6.5132 3.3002 -1.9809
6.5130 2.9794 -1.8643
6.5133 3.3827 -2.0112
6.5130 3.0583 -1.8928
6.5134 3.4661 -2.0419
6.5134 3.5505 -2.0730
6.5138 3.9884 -2.2364
6.5135 3.6359 -2.1046
6.5138 4.0795 -2.2707
6.5136 3.7223 -2.1368
6.5139 4.1719 -2.3056
6.5136 3.8099 -2.1694
6.5140 4.2656 -2.3411
6.5137 3.8986 -2.2026
6.5141 4.3606 -2.3772
6.5141 4.4570 -2.4140
7.6303 -13.4783 2.6452
7.8048 -13.4679 2.6358
6.6758 -11.2567 2.1967
6.4571 -10.6422 2.0706
6.3916 -10.2991 1.9977
6.3732 -10.0426 1.9417
6.3805 -9.8343 1.8952
4.8493 -7.3122 1.4044
4.8849 -7.2078 1.3796
5.0259 -7.2580 1.3842
5.0979 -7.2065 1.3692
5.2464 -7.2611 1.3743
5.3594 -7.2631 1.3692
5.4740 -7.2651 1.3640
5.5903 -7.2671 1.3586
5.7084 -7.2692 1.3531
5.8284 -7.2713 1.3474
5.9503 -7.2734 1.3415
6.0301 -7.2228 1.3258
6.1595 -7.2301 1.3205
6.4858 -7.4614 1.3557
6.4860 -7.3133 1.3217
6.4862 -7.1686 1.2885
6.4864 -7.0271 1.2558
6.4865 -6.8887 1.2239
6.4867 -6.7533 1.1925
6.4869 -6.6207 1.1617
6.1945 -6.1981 1.0804
6.2185 -6.1002 1.0561
6.2206 -5.9825 1.0284
6.2226 -5.8671 1.0012
6.2246 -5.7537 0.9744
6.2266 -5.6425 0.9480
6.2285 -5.5332 0.9221
6.2303 -5.4258 0.8965
6.2322 -5.3203 0.8712
6.2340 -5.2165 0.8464
6.2137 -5.0963 0.8189
6.2594 -5.0316 0.8004
6.2393 -4.9151 0.7737
6.2410 -4.8178 0.7501
6.2426 -4.7220 0.7268
5.3770 -3.9848 0.6061
5.3855 -3.9098 0.5872
5.5354 -3.9363 0.5835
5.6591 -3.9414 0.5763
5.7778 -3.9406 0.5678
5.9044 -3.9428 0.5596
6.0348 -3.9451 0.5510
6.2331 -3.9882 0.5477
6.2687 -3.9252 0.5295
6.4977 -3.9808 0.5270
6.4979 -3.8942 0.5053
6.4982 -3.8087 0.4839
6.4984 -3.7242 0.4626
6.4987 -3.6406 0.4415
6.4989 -3.5581 0.4206
6.4992 -3.4764 0.3999
6.4994 -3.3956 0.3793
6.4997 -3.3156 0.3589
6.4960 -3.2346 0.3384
6.4961 -3.1563 0.3183
6.4963 -3.0787 0.2983
6.4964 -3.0019 0.2785
6.4965 -2.9258 0.2587
6.4967 -2.8503 0.2391
6.4968 -2.7756 0.2196
6.4970 -2.7015 0.2002
6.4971 -2.6280 0.1809
6.4972 -2.5551 0.1617
6.4974 -2.4827 0.1426
6.4975 -2.4110 0.1236
6.4976 -2.3397 0.1047
6.4978 -2.2690 0.0858
6.4979 -2.1988 0.0670
6.4980 -2.1290 0.0483
6.4981 -2.0597 0.0297
6.4983 -1.9909 0.0111
6.4984 -1.9225 -0.0075
6.4985 -1.8544 -0.0260
6.4986 -1.7868 -0.0444
6.4988 -1.7195 -0.0628
6.4989 -1.6526 -0.0811
6.4990 -1.5860 -0.0995
6.4991 -1.5197 -0.1178
6.4993 -1.4537 -0.1360
6.4994 -1.3881 -0.1543
6.4995 -1.3226 -0.1725
6.4996 -1.2575 -0.1907
6.4997 -1.1926 -0.2089
6.4999 -1.1280 -0.2270
6.5000 -1.0635 -0.2452
6.5001 -0.9993 -0.2634
6.5002 -0.9352 -0.2816
6.5003 -0.8713 -0.2998
6.5005 -0.8076 -0.3180
6.5006 -0.7440 -0.3362
6.5007 -0.6806 -0.3544
6.5008 -0.6173 -0.3727
6.5009 -0.5541 -0.3909
6.5010 -0.4909 -0.4092
6.5012 -0.4279 -0.4276
6.5013 -0.3650 -0.4460
6.5014 -0.3021 -0.4644
6.5023 -0.2392 -0.4829
6.5024 -0.1764 -0.5014
6.5026 -0.1136 -0.5199
6.5028 -0.0507 -0.5386
6.5029 0.0121 -0.5572
6.5031 0.0749 -0.5760
6.5033 0.1378 -0.5948
6.5034 0.2007 -0.6136
6.5036 0.2637 -0.6326
6.5038 0.3267 -0.6516
6.5039 0.3899 -0.6707
6.5041 0.4531 -0.6899
6.5043 0.5165 -0.7092
6.5044 0.5799 -0.7286
6.5046 0.6436 -0.7481
6.5048 0.7073 -0.7676
6.5049 0.7713 -0.7873
6.5058 1.0938 -0.8875
6.5051 0.8354 -0.8071
6.5060 1.1591 -0.9080
6.5053 0.8997 -0.8270
6.5061 1.2245 -0.9285
6.5054 0.9642 -0.8471
6.5063 1.2903 -0.9493
6.5056 1.0289 -0.8672
6.5065 1.3564 -0.9701
6.5067 1.4227 -0.9911
6.5075 1.7598 -1.0988
6.5068 1.4894 -1.0123
6.5077 1.8283 -1.1209
6.5070 1.5564 -1.0337
6.5079 1.8973 -1.1432
6.5072 1.6238 -1.0552
6.5081 1.9668 -1.1657
6.5074 1.6916 -1.0769
6.5083 2.0367 -1.1884
6.5085 2.1071 -1.2113
6.5094 2.4671 -1.3294
6.5096 2.5408 -1.3537
6.5086 2.1780 -1.2344
6.5098 2.6152 -1.3784
6.5088 2.2494 -1.2578
6.5100 2.6902 -1.4033
6.5090 2.3214 -1.2814
6.5092 2.3940 -1.3053
6.5122 2.7669 -1.4290
6.5123 2.8433 -1.4545
6.5125 3.2367 -1.5867
6.5123 2.9204 -1.4803
6.5126 3.3178 -1.6142
6.5124 2.9982 -1.5064
6.5127 3.3999 -1.6421
6.5124 3.0769 -1.5328
6.5127 3.4829 -1.6703
6.5125 3.1563 -1.5596
6.5128 3.5669 -1.6990
6.5128 3.6519 -1.7280
6.5132 4.0932 -1.8799
6.5132 4.1850 -1.9117
6.5129 3.7380 -1.7575
6.5133 4.2781 -1.9440
6.5130 3.8251 -1.7874
6.5134 4.3726 -1.9769
6.5130 3.9133 -1.8177
6.5134 4.4684 -2.0103
6.5131 4.0027 -1.8486
6.5135 4.5656 -2.0442
6.1236 -10.6506 2.6859
6.2750 -10.6608 2.6859
6.4285 -10.6714 2.6859
6.4111 -10.4013 2.6153
6.3710 -10.1045 2.5380
6.3785 -9.8920 2.4819
6.3858 -9.6857 2.4274
4.8575 -7.2074 1.8042
4.9659 -7.2093 1.8026
5.0722 -7.2061 1.7996
5.2215 -7.2607 1.8110
5.3353 -7.2627 1.8091
5.4508 -7.2647 1.8072
5.5681 -7.2667 1.8052
5.6872 -7.2688 1.8032
5.8081 -7.2709 1.8011
5.9310 -7.2731 1.7989
6.0158 -7.2271 1.7848
6.1490 -7.2375 1.7845
6.2708 -7.2321 1.7803
6.4864 -7.3305 1.8014
6.4865 -7.1839 1.7623
6.4867 -7.0406 1.7241
6.4869 -6.9005 1.6866
6.4870 -6.7635 1.6500
6.4872 -6.6294 1.6141
6.1943 -6.2046 1.5076
6.2185 -6.1053 1.4803
6.2205 -5.9864 1.4484
6.2226 -5.8698 1.4170
6.2246 -5.7554 1.3861
6.2265 -5.6430 1.3558
6.2285 -5.5327 1.3260
6.2304 -5.4244 1.2967
6.2322 -5.3179 1.2679
6.2341 -5.2132 1.2396
6.2138 -5.0922 1.2074
6.2658 -5.0317 1.1895
6.2394 -4.9094 1.1571
6.2411 -4.8114 1.1304
6.2428 -4.7148 1.1041
5.3772 -3.9781 0.9284
5.3960 -3.9100 0.9093
5.5472 -3.9365 0.9121
5.6984 -3.9598 0.9140
5.8234 -3.9619 0.9109
5.9521 -3.9642 0.9077
6.0848 -3.9665 0.9044
6.2333 -3.9764 0.9026
6.2894 -3.9256 0.8869
6.4975 -3.9672 0.8920
6.4977 -3.8801 0.8680
6.4980 -3.7942 0.8443
6.4982 -3.7092 0.8209
6.4985 -3.6253 0.7977
6.4987 -3.5423 0.7747
6.4990 -3.4603 0.7520
6.4992 -3.3791 0.7295
6.4957 -3.2970 0.7068
6.4958 -3.2175 0.6847
6.4960 -3.1389 0.6628
6.4961 -3.0610 0.6411
6.4963 -2.9839 0.6196
6.4964 -2.9075 0.5982
6.4966 -2.8318 0.5771
6.4967 -2.7568 0.5561
6.4968 -2.6824 0.5352
6.4970 -2.6087 0.5145
6.4971 -2.5356 0.4939
6.4972 -2.4631 0.4735
6.4974 -2.3911 0.4532
6.4975 -2.3196 0.4331
6.4976 -2.2487 0.4130
6.4978 -2.1783 0.3931
6.4979 -2.1084 0.3733
6.4980 -2.0389 0.3536
6.4981 -1.9699 0.3340
6.4983 -1.9013 0.3145
6.4984 -1.8332 0.2951
6.4985 -1.7654 0.2758
6.4987 -1.6979 0.2565
6.4988 -1.6309 0.2374
6.4989 -1.5642 0.2183
6.4990 -1.4978 0.1993
6.4991 -1.4317 0.1803
6.4993 -1.3659 0.1614
6.4994 -1.3005 0.1426
6.4995 -1.2352 0.1238
6.4996 -1.1702 0.1050
6.4997 -1.1055 0.0863
6.4999 -1.0410 0.0677
6.5000 -0.9766 0.0491
6.5001 -0.9125 0.0305
6.5002 -0.8486 0.0119
6.5003 -0.7848 -0.0066
6.5005 -0.7212 -0.0252
6.5006 -0.6577 -0.0437
6.5007 -0.5943 -0.0621
6.5008 -0.5311 -0.0806
6.5009 -0.4679 -0.0991
6.5010 -0.4049 -0.1176
6.5025 -0.0904 -0.2101
6.5026 -0.0276 -0.2286
6.5012 -0.3419 -0.1361
6.5028 0.0352 -0.2472
6.5029 0.0981 -0.2658
6.5013 -0.2789 -0.1545
6.5031 0.1609 -0.2845
6.5033 0.2239 -0.3031
6.5021 -0.2161 -0.1731
6.5034 0.2868 -0.3218
6.5036 0.3499 -0.3406
6.5023 -0.1532 -0.1916
6.5038 0.4130 -0.3594
6.5039 0.4762 -0.3783
6.5041 0.5395 -0.3972
6.5049 0.8582 -0.4927
6.5051 0.9224 -0.5121
6.5043 0.6030 -0.4162
6.5053 0.9869 -0.5315
6.5054 1.0515 -0.5510
6.5044 0.6665 -0.4352
6.5056 1.1164 -0.5706
6.5046 0.7303 -0.4543
6.5058 1.1816 -0.5903
6.5060 1.2470 -0.6101
6.5048 0.7941 -0.4735
6.5061 1.3126 -0.6300
6.5063 1.3786 -0.6501
6.5067 1.5115 -0.6905
6.5065 1.4449 -0.6702
6.5068 1.5784 -0.7109
6.5075 1.8498 -0.7938
6.5070 1.6457 -0.7314
6.5077 1.9186 -0.8150
6.5079 1.9879 -0.8362
6.5072 1.7133 -0.7521
6.5081 2.0577 -0.8577
6.5074 1.7813 -0.7729
6.5083 2.1279 -0.8793
6.5085 2.1987 -0.9011
6.5094 2.5605 -1.0129
6.5096 2.6346 -1.0359
6.5087 2.2699 -0.9230
6.5098 2.7094 -1.0592
6.5088 2.3417 -0.9452
6.5116 2.7856 -1.0829
6.5090 2.4140 -0.9676
6.5117 2.8618 -1.1066
6.5117 2.9386 -1.1305
6.5092 2.4870 -0.9902
6.5118 3.0162 -1.1547
6.5120 3.3345 -1.2543
6.5118 3.0945 -1.1792
6.5119 3.1737 -1.2039
6.5120 3.4162 -1.2799
6.5119 3.2536 -1.2290
6.5121 3.4988 -1.3058
6.5123 3.7526 -1.3857
6.5123 3.8392 -1.4130
6.5122 3.5824 -1.3321
6.5124 3.9270 -1.4407
6.5122 3.6670 -1.3587
6.5125 4.0159 -1.4688
6.5125 4.1059 -1.4973
6.5126 4.1972 -1.5262
6.5126 4.2897 -1.5555
6.5127 4.3836 -1.5852
6.5128 4.4788 -1.6155
6.5128 4.5754 -1.6462
6.5129 4.6734 -1.6774
5.0652 -8.6728 2.6859
5.1845 -8.6705 2.6859
5.3052 -8.6681 2.6859
5.4271 -8.6656 2.6859
5.5505 -8.6631 2.6859
5.6753 -8.6605 2.6859
4.8771 -7.2783 2.2579
4.9386 -7.2088 2.2371
6.0588 -8.6522 2.6859
6.1898 -8.6492 2.6859
6.3226 -8.6463 2.6859
6.4571 -8.6432 2.6859
6.4854 -8.4985 2.6419
6.4856 -8.3210 2.5877
6.4858 -8.1483 2.5350
6.4860 -7.9802 2.4837
6.4862 -7.8163 2.4337
6.1754 -7.2894 2.2706
6.2541 -7.2318 2.2536
6.4867 -7.3485 2.2910
6.4869 -7.2000 2.2457
6.4870 -7.0549 2.2015
6.4872 -6.9130 2.1583
6.4874 -6.7743 2.1161
6.4875 -6.6387 2.0748
6.1942 -6.2116 1.9424
6.2184 -6.1110 1.9119
6.2205 -5.9908 1.8754
6.2225 -5.8730 1.8396
6.2245 -5.7574 1.8045
6.2265 -5.6440 1.7700
6.2285 -5.5326 1.7362
6.2304 -5.4233 1.7030
6.2323 -5.3158 1.6704
6.2341 -5.2103 1.6384
6.2139 -5.0884 1.6012
6.2718 -5.0318 1.5846
6.2395 -4.9040 1.5455
6.2412 -4.8052 1.5155
5.3489 -4.0337 1.2733
5.3773 -3.9715 1.2547
5.4062 -3.9102 1.2364
5.5886 -3.9578 1.2526
5.7114 -3.9600 1.2545
5.8378 -3.9622 1.2564
5.9680 -3.9645 1.2584
6.1022 -3.9668 1.2604
6.2335 -3.9647 1.2611
6.3099 -3.9260 1.2502
6.4972 -3.9537 1.2605
6.4975 -3.8662 1.2341
6.4978 -3.7798 1.2080
6.4980 -3.6945 1.1822
6.4983 -3.6101 1.1568
6.4985 -3.5268 1.1317
6.4988 -3.4443 1.1068
6.4990 -3.3628 1.0823
6.4956 -3.2804 1.0574
6.4957 -3.2006 1.0334
6.4959 -3.1216 1.0096
6.4960 -3.0435 0.9861
6.4961 -2.9660 0.9628
6.4963 -2.8894 0.9398
6.4964 -2.8134 0.9170
6.4966 -2.7382 0.8944
6.4967 -2.6636 0.8720
6.4968 -2.5896 0.8498
6.4970 -2.5163 0.8278
6.4971 -2.4435 0.8060
6.4972 -2.3713 0.7843
6.4974 -2.2997 0.7629
6.4975 -2.2286 0.7416
6.4976 -2.1580 0.7204
6.4978 -2.0879 0.6995
6.4979 -2.0183 0.6786
6.4980 -1.9491 0.6579
6.4982 -1.8804 0.6374
6.4983 -1.8121 0.6170
6.4984 -1.7441 0.5967
6.4985 -1.6766 0.5765
6.4987 -1.6094 0.5565
6.4988 -1.5426 0.5366
6.4989 -1.4761 0.5167
6.4990 -1.4099 0.4970
6.4992 -1.3440 0.4774
6.4993 -1.2785 0.4579
6.4994 -1.2131 0.4384
6.4995 -1.1481 0.4191
6.4996 -1.0832 0.3998
6.4998 -1.0186 0.3806
6.4999 -0.9543 0.3614
6.5000 -0.8901 0.3424
6.5001 -0.8261 0.3234
6.5002 -0.7622 0.3044
6.5004 -0.6986 0.2855
6.5005 -0.6350 0.2667
6.5006 -0.5716 0.2479
6.5007 -0.5083 0.2292
6.5008 -0.4451 0.2105
6.5009 -0.3821 0.1918
6.5011 -0.3191 0.1731
6.5012 -0.2561 0.1545
6.5020 -0.1932 0.1359
6.5021 -0.1304 0.1174
6.5023 -0.0675 0.0988
6.5025 -0.0047 0.0803
6.5026 0.0581 0.0617
6.5028 0.1209 0.0432
6.5030 0.1838 0.0247
6.5031 0.2467 0.0061
6.5033 0.3097 -0.0124
6.5034 0.3727 -0.0310
6.5036 0.4358 -0.0496
6.5038 0.4989 -0.0681
6.5039 0.5622 -0.0868
6.5041 0.6256 -0.1054
6.5043 0.6892 -0.1241
6.5044 0.7528 -0.1428
6.5046 0.8167 -0.1615
6.5048 0.8807 -0.1803
6.5049 0.9449 -0.1991
6.5051 1.0092 -0.2180
6.5053 1.0738 -0.2369
6.5055 1.1386 -0.2559
6.5056 1.2037 -0.2750
6.5058 1.2690 -0.2941
6.5060 1.3346 -0.3133
6.5061 1.4005 -0.3325
6.5063 1.4666 -0.3519
6.5065 1.5331 -0.3713
6.5067 1.5999 -0.3908
6.5068 1.6671 -0.4104
6.5070 1.7346 -0.4301
6.5072 1.8025 -0.4499
6.5074 1.8708 -0.4698
6.5076 1.9395 -0.4899
6.5077 2.0086 -0.5100
6.5079 2.0782 -0.5303
6.5081 2.1483 -0.5507
6.5083 2.2189 -0.5712
6.5085 2.2899 -0.5919
6.5087 2.3615 -0.6127
6.5088 2.4337 -0.6337
6.5090 2.5064 -0.6548
6.5092 2.5797 -0.6761
6.5094 2.6536 -0.6975
6.5096 2.7281 -0.7192
6.5110 2.8039 -0.7411
6.5111 2.8798 -0.7631
6.5111 2.9563 -0.7853
6.5112 3.0336 -0.8077
6.5112 3.1117 -0.8303
6.5113 3.1905 -0.8531
6.5113 3.2701 -0.8761
6.5114 3.3506 -0.8994
6.5114 3.4320 -0.9229
6.5115 3.5142 -0.9467
6.5115 3.5974 -0.9708
6.5116 3.6816 -0.9951
6.5117 3.7667 -1.0197
6.5117 3.8529 -1.0445
6.5118 3.9402 -1.0697
6.5118 4.0286 -1.0952
6.5119 4.1181 -1.1210
6.5119 4.2089 -1.1472
6.5120 4.3008 -1.1737
6.5120 4.3941 -1.2005
6.5121 4.4887 -1.2277
6.5122 4.5846 -1.2553
6.5122 4.6820 -1.2834
6.5123 4.7809 -1.3118
4.5631 -7.6896 2.8383
4.6669 -7.6806 2.8383
4.7199 -7.5884 2.8076
4.7304 -7.4316 2.7530
4.7412 -7.2802 2.7003
4.8177 -7.2319 2.6859
4.9108 -7.2083 2.6807
5.0239 -7.2123 2.6859
5.1286 -7.2021 2.6859
5.2343 -7.1916 2.6859
5.3411 -7.1809 2.6859
5.4489 -7.1699 2.6859
5.5580 -7.1586 2.6859
5.6682 -7.1470 2.6859
5.7796 -7.1351 2.6859
5.8923 -7.1228 2.6859
6.0063 -7.1103 2.6859
6.1216 -7.0975 2.6859
6.2383 -7.0843 2.6859
6.3565 -7.0708 2.6859
6.4761 -7.0569 2.6859
6.4876 -6.9257 2.6413
5.6677 -5.9277 2.2654
5.6932 -5.8336 2.2342
5.7400 -5.7627 2.2119
5.8070 -5.7121 2.1974
5.8859 -5.6729 2.1874
5.9845 -5.6514 2.1843
6.1452 -5.6860 2.2031
6.2265 -5.6448 2.1926
5.7003 -5.0633 1.9718
5.8205 -5.0654 1.9779
5.9436 -5.0675 1.9842
6.0696 -5.0697 1.9907
6.1987 -5.0720 1.9974
6.2268 -4.9908 1.9713
6.2396 -4.8983 1.9408
6.2413 -4.7987 1.9074
5.3490 -4.0276 1.6062
5.3774 -3.9647 1.5865
5.4169 -3.9103 1.5702
5.6007 -3.9581 1.5951
5.7248 -3.9602 1.6019
5.8527 -3.9625 1.6090
5.9844 -3.9648 1.6163
6.1120 -3.9618 1.6217
6.2067 -3.9357 1.6178
6.3311 -3.9263 1.6211
6.4970 -3.9400 1.6341
6.4973 -3.8520 1.6051
6.4975 -3.7652 1.5765
6.4978 -3.6794 1.5483
6.4981 -3.5946 1.5205
6.4983 -3.5109 1.4931
6.4986 -3.4281 1.4660
6.4988 -3.3462 1.4393
6.4954 -3.2635 1.4121
6.4956 -3.1834 1.3861
6.4957 -3.1041 1.3603
6.4959 -3.0256 1.3349
6.4960 -2.9479 1.3098
6.4962 -2.8710 1.2849
6.4963 -2.7948 1.2603
6.4964 -2.7192 1.2360
6.4966 -2.6444 1.2120
6.4967 -2.5702 1.1882
6.4969 -2.4967 1.1647
6.4970 -2.4237 1.1414
6.4971 -2.3513 1.1183
6.4973 -2.2795 1.0955
6.4974 -2.2082 1.0728
6.4975 -2.1375 1.0504
6.4977 -2.0672 1.0282
6.4978 -1.9974 1.0061
6.4979 -1.9281 0.9843
6.4980 -1.8592 0.9626
6.4982 -1.7907 0.9411
6.4983 -1.7227 0.9198
6.4984 -1.6550 0.8986
6.4985 -1.5877 0.8776
6.4987 -1.5208 0.8568
6.4988 -1.4542 0.8361
6.4989 -1.3879 0.8155
6.4990 -1.3220 0.7951
6.4992 -1.2563 0.7748
6.4993 -1.1909 0.7546
6.4994 -1.1257 0.7346
6.4995 -1.0608 0.7147
6.4996 -0.9962 0.6949
6.4998 -0.9317 0.6751
6.4999 -0.8675 0.6555
6.5000 -0.8034 0.6360
6.5001 -0.7395 0.6166
6.5002 -0.6758 0.5973
6.5004 -0.6122 0.5781
6.5005 -0.5488 0.5589
6.5006 -0.4855 0.5398
6.5007 -0.4223 0.5208
6.5008 -0.3591 0.5019
6.5009 -0.2961 0.4830
6.5016 -0.2332 0.4642
6.5018 -0.1703 0.4455
6.5020 -0.1074 0.4268
6.5021 -0.0446 0.4081
6.5023 0.0183 0.3895
6.5025 0.0811 0.3709
6.5026 0.1439 0.3524
6.5028 0.2068 0.3339
6.5030 0.2696 0.3154
6.5031 0.3326 0.2970
6.5033 0.3956 0.2786
6.5035 0.4586 0.2602
6.5036 0.5218 0.2418
6.5038 0.5850 0.2234
6.5040 0.6484 0.2051
6.5041 0.7119 0.1867
6.5043 0.7755 0.1683
6.5044 0.8393 0.1500
6.5046 0.9032 0.1316
6.5048 0.9673 0.1132
6.5050 1.0316 0.0948
6.5051 1.0961 0.0764
6.5053 1.1609 0.0580
6.5055 1.2258 0.0395
6.5056 1.2911 0.0210
6.5058 1.3565 0.0025
6.5060 1.4223 -0.0161
6.5061 1.4884 -0.0347
6.5063 1.5547 -0.0533
6.5065 1.6214 -0.0720
6.5067 1.6885 -0.0908
6.5068 1.7559 -0.1096
6.5070 1.8236 -0.1285
6.5072 1.8918 -0.1474
6.5074 1.9603 -0.1665
6.5076 2.0293 -0.1856
6.5077 2.0988 -0.2047
6.5079 2.1686 -0.2240
6.5081 2.2390 -0.2434
6.5083 2.3099 -0.2628
6.5085 2.3813 -0.2824
6.5087 2.4532 -0.3020
6.5089 2.5257 -0.3218
6.5090 2.5988 -0.3417
6.5092 2.6725 -0.3616
6.5094 2.7468 -0.3818
6.5105 2.8222 -0.4021
6.5105 2.8977 -0.4225
6.5106 2.9740 -0.4430
6.5106 3.0510 -0.4637
6.5107 3.1287 -0.4845
6.5107 3.2072 -0.5055
6.5107 3.2865 -0.5267
6.5108 3.3666 -0.5481
6.5108 3.4477 -0.5696
6.5109 3.5295 -0.5913
6.5109 3.6123 -0.6132
6.5110 3.6961 -0.6354
6.5110 3.7808 -0.6577
6.5111 3.8665 -0.6803
6.5111 3.9533 -0.7031
6.5112 4.0412 -0.7261
6.5112 4.1303 -0.7494
6.5113 4.2205 -0.7729
6.5114 4.3119 -0.7967
6.5114 4.4045 -0.8208
6.5115 4.4985 -0.8452
6.5115 4.5938 -0.8699
6.5116 4.6906 -0.8949
6.5116 4.7887 -0.9202
6.5117 4.8884 -0.9459
3.9738 -6.5883 2.8383
4.0617 -6.5760 2.8383
4.1502 -6.5635 2.8383
4.2394 -6.5506 2.8383
4.3291 -6.5374 2.8383
4.4195 -6.5238 2.8383
4.5106 -6.5099 2.8383
4.6024 -6.4956 2.8383
4.6949 -6.4810 2.8383
4.7243 -6.3799 2.8005
4.7336 -6.2545 2.7520
4.7426 -6.1322 2.7047
4.8000 -6.0742 2.6859
4.8912 -6.0586 2.6859
4.9832 -6.0426 2.6859
5.0760 -6.0263 2.6859
5.1697 -6.0095 2.6859
5.2642 -5.9924 2.6859
5.3596 -5.9748 2.6859
5.4560 -5.9568 2.6859
5.5533 -5.9384 2.6859
5.6515 -5.9195 2.6859
5.7508 -5.9002 2.6859
5.8511 -5.8804 2.6859
5.9524 -5.8602 2.6859
6.0549 -5.8395 2.6859
6.1585 -5.8183 2.6859
6.2632 -5.7965 2.6859
6.3691 -5.7743 2.6859
6.4762 -5.7515 2.6859
6.4915 -5.6472 2.6479
5.7039 -4.8605 2.2886
5.6988 -4.7565 2.2492
5.7267 -4.6814 2.2235
5.7757 -4.6240 2.2062
5.8409 -4.5794 2.1951
5.9139 -4.5402 2.1868
5.3491 -4.0208 1.9463
5.3775 -3.9574 1.9253
5.4284 -3.9105 1.9126
5.6137 -3.9583 1.9464
5.7393 -3.9605 1.9583
5.8687 -3.9627 1.9707
6.0019 -3.9651 1.9835
6.1152 -3.9519 1.9890
6.2088 -3.9242 1.9875
6.4965 -4.0151 2.0468
6.4968 -3.9255 2.0145
6.4970 -3.8371 1.9828
6.4973 -3.7498 1.9515
6.4976 -3.6636 1.9208
6.4978 -3.5784 1.8905
6.4981 -3.4943 1.8606
6.4984 -3.4111 1.8312
6.4986 -3.3289 1.8022
6.4953 -3.2459 1.7726
6.4954 -3.1654 1.7444
6.4956 -3.0859 1.7165
6.4957 -3.0071 1.6891
6.4959 -2.9291 1.6620
6.4960 -2.8519 1.6352
6.4962 -2.7754 1.6088
6.4963 -2.6997 1.5827
6.4964 -2.6246 1.5569
6.4966 -2.5502 1.5314
6.4967 -2.4764 1.5062
6.4969 -2.4032 1.4813
6.4970 -2.3306 1.4567
6.4971 -2.2586 1.4324
6.4973 -2.1872 1.4083
6.4974 -2.1162 1.3845
6.4975 -2.0458 1.3609
6.4977 -1.9759 1.3376
6.4978 -1.9064 1.3145
6.4979 -1.8374 1.2916
6.4981 -1.7688 1.2689
6.4982 -1.7006 1.2465
6.4983 -1.6328 1.2242
6.4984 -1.5654 1.2022
6.4986 -1.4984 1.1804
6.4987 -1.4317 1.1587
6.4988 -1.3653 1.1372
6.4989 -1.2993 1.1159
6.4991 -1.2335 1.0948
6.4992 -1.1680 1.0738
6.4993 -1.1028 1.0530
6.4994 -1.0378 1.0324
6.4995 -0.9731 1.0119
6.4997 -0.9086 0.9915
6.4998 -0.8443 0.9713
6.4999 -0.7802 0.9512
6.5000 -0.7163 0.9313
6.5001 -0.6525 0.9115
6.5003 -0.5889 0.8917
6.5004 -0.5254 0.8722
6.5005 -0.4621 0.8527
6.5006 -0.3989 0.8333
6.5007 -0.3357 0.8140
6.5008 -0.2727 0.7949
6.5015 -0.2097 0.7758
6.5016 -0.1468 0.7569
6.5018 -0.0839 0.7380
6.5020 -0.0211 0.7192
6.5021 0.0417 0.7004
6.5023 0.1045 0.6818
6.5025 0.1673 0.6632
6.5026 0.2302 0.6447
6.5028 0.2930 0.6262
6.5030 0.3559 0.6078
6.5031 0.4189 0.5895
6.5033 0.4819 0.5712
6.5035 0.5450 0.5529
6.5036 0.6082 0.5347
6.5038 0.6715 0.5166
6.5040 0.7350 0.4985
6.5041 0.7985 0.4804
6.5043 0.8623 0.4623
6.5045 0.9261 0.4443
6.5046 0.9902 0.4263
6.5048 1.0544 0.4083
6.5050 1.1188 0.3904
6.5051 1.1835 0.3724
6.5053 1.2484 0.3545
6.5055 1.3135 0.3365
6.5056 1.3789 0.3186
6.5058 1.4446 0.3007
6.5060 1.5105 0.2827
6.5062 1.5768 0.2648
6.5063 1.6433 0.2468
6.5065 1.7102 0.2288
6.5067 1.7775 0.2108
6.5069 1.8451 0.1928
6.5070 1.9131 0.1748
6.5072 1.9815 0.1567
6.5074 2.0504 0.1386
6.5076 2.1196 0.1204
6.5077 2.1894 0.1022
6.5079 2.2595 0.0839
6.5081 2.3302 0.0656
6.5083 2.4014 0.0473
6.5085 2.4732 0.0289
6.5087 2.5454 0.0104
6.5089 2.6183 -0.0082
6.5090 2.6917 -0.0268
6.5099 2.7661 -0.0455
6.5099 2.8407 -0.0643
6.5099 2.9160 -0.0832
6.5100 2.9920 -0.1022
6.5100 3.0687 -0.1212
6.5101 3.1461 -0.1404
6.5101 3.2243 -0.1597
6.5102 3.3033 -0.1791
6.5102 3.3831 -0.1986
6.5102 3.4637 -0.2183
6.5103 3.5452 -0.2380
6.5103 3.6276 -0.2579
6.5104 3.7109 -0.2780
6.5104 3.7952 -0.2982
6.5105 3.8805 -0.3186
6.5105 3.9669 -0.3391
6.5106 4.0543 -0.3598
6.5106 4.1428 -0.3807
6.5107 4.2325 -0.4018
6.5107 4.3234 -0.4230
6.5108 4.4154 -0.4445
6.5108 4.5088 -0.4662
6.5109 4.6035 -0.4880
6.5109 4.6996 -0.5102
6.5110 4.7971 -0.5325
6.5110 4.8960 -0.5551
6.5111 4.9965 -0.5780
3.5154 -5.7316 2.8383
3.5914 -5.7176 2.8383
3.6679 -5.7034 2.8383
3.7449 -5.6888 2.8383
3.8222 -5.6739 2.8383
3.9001 -5.6585 2.8383
3.9783 -5.6428 2.8383
4.0571 -5.6268 2.8383
4.1363 -5.6103 2.8383
4.2161 -5.5935 2.8383
4.2963 -5.5762 2.8383
4.3771 -5.5586 2.8383
4.4584 -5.5405 2.8383
4.5403 -5.5221 2.8383
4.6227 -5.5031 2.8383
4.7057 -5.4839 2.8383
4.7267 -5.3926 2.8012
4.7350 -5.2891 2.7576
4.7431 -5.1877 2.7150
4.7731 -5.1121 2.6859
4.8547 -5.0916 2.6859
4.9369 -5.0707 2.6859
5.0198 -5.0494 2.6859
5.1033 -5.0275 2.6859
5.1875 -5.0052 2.6859
5.2725 -4.9825 2.6859
5.3581 -4.9591 2.6859
5.4446 -4.9353 2.6859
5.5318 -4.9110 2.6859
5.6198 -4.8861 2.6859
5.7086 -4.8607 2.6859
5.7982 -4.8347 2.6859
5.8887 -4.8082 2.6859
5.9801 -4.7810 2.6859
6.0723 -4.7533 2.6859
6.1655 -4.7250 2.6859
5.3493 -4.0131 2.2953
5.3507 -3.9292 2.2615
5.4415 -3.9108 2.2656
6.4945 -4.5676 2.6639
6.4948 -4.4695 2.6247
6.4951 -4.3728 2.5862
6.4954 -4.2776 2.5484
6.2326 -4.0143 2.4095
6.2316 -3.9246 2.3740
6.4963 -3.9998 2.4389
6.4965 -3.9098 2.4037
6.4968 -3.8209 2.3690
6.4971 -3.7332 2.3350
6.4974 -3.6465 2.3015
6.4976 -3.5610 2.2685
6.4979 -3.4765 2.2360
6.4981 -3.3929 2.2041
6.4984 -3.3104 2.1726
6.4951 -3.2271 2.1405
6.4953 -3.1463 2.1100
6.4954 -3.0664 2.0799
6.4956 -2.9874 2.0503
6.4957 -2.9091 2.0210
6.4959 -2.8316 1.9922
6.4960 -2.7549 1.9638
6.4962 -2.6789 1.9358
6.4963 -2.6036 1.9081
6.4965 -2.5289 1.8808
6.4966 -2.4550 1.8539
6.4967 -2.3816 1.8273
6.4969 -2.3088 1.8011
6.4970 -2.2366 1.7751
6.4971 -2.1650 1.7495
6.4973 -2.0939 1.7242
6.4974 -2.0234 1.6992
6.4975 -1.9533 1.6744
6.4977 -1.8837 1.6500
6.4978 -1.8145 1.6258
6.4979 -1.7458 1.6019
6.4981 -1.6775 1.5783
6.4982 -1.6096 1.5548
6.4983 -1.5421 1.5317
6.4984 -1.4750 1.5088
6.4986 -1.4082 1.4861
6.4987 -1.3417 1.4636
6.4988 -1.2756 1.4413
6.4989 -1.2097 1.4193
6.4991 -1.1442 1.3975
6.4992 -1.0789 1.3758
6.4993 -1.0139 1.3544
6.4994 -0.9491 1.3331
6.4995 -0.8845 1.3120
6.4997 -0.8202 1.2911
6.4998 -0.7560 1.2704
6.4999 -0.6921 1.2498
6.5000 -0.6283 1.2294
6.5001 -0.5646 1.2092
6.5003 -0.5011 1.1891
6.5004 -0.4378 1.1691
6.5005 -0.3745 1.1493
6.5006 -0.3114 1.1297
6.5007 -0.2483 1.1101
6.5013 -0.1854 1.0908
6.5015 -0.1225 1.0715
6.5017 -0.0596 1.0524
6.5018 0.0032 1.0334
6.5020 0.0660 1.0144
6.5021 0.1288 0.9956
6.5023 0.1916 0.9769
6.5025 0.2544 0.9583
6.5026 0.3173 0.9398
6.5028 0.3801 0.9214
6.5030 0.4431 0.9031
6.5031 0.5060 0.8848
6.5033 0.5691 0.8667
6.5035 0.6323 0.8486
6.5036 0.6955 0.8306
6.5038 0.7589 0.8126
6.5040 0.8224 0.7948
6.5041 0.8861 0.7770
6.5043 0.9499 0.7592
6.5045 1.0139 0.7416
6.5046 1.0780 0.7239
6.5048 1.1424 0.7064
6.5050 1.2069 0.6888
6.5051 1.2717 0.6713
6.5053 1.3368 0.6539
6.5055 1.4020 0.6365
6.5056 1.4676 0.6191
6.5058 1.5334 0.6018
6.5060 1.5996 0.5845
6.5062 1.6660 0.5672
6.5063 1.7328 0.5499
6.5065 1.7999 0.5327
6.5067 1.8674 0.5154
6.5069 1.9353 0.4982
6.5070 2.0035 0.4810
6.5072 2.0722 0.4638
6.5074 2.1413 0.4466
6.5076 2.2108 0.4294
6.5078 2.2808 0.4122
6.5079 2.3513 0.3949
6.5081 2.4223 0.3777
6.5083 2.4938 0.3604
6.5085 2.5659 0.3431
6.5087 2.6385 0.3258
6.5089 2.7117 0.3085
6.5093 2.7857 0.2911
6.5093 2.8601 0.2737
6.5094 2.9351 0.2563
6.5094 3.0108 0.2388
6.5096 3.3209 0.1683
6.5094 3.0872 0.2212
6.5096 3.4003 0.1505
6.5095 3.1644 0.2036
6.5096 3.4805 0.1327
6.5095 3.2422 0.1860
6.5097 3.5617 0.1147
6.5098 3.7266 0.0786
6.5097 3.6437 0.0967
6.5098 3.8105 0.0605
6.5100 4.1562 -0.0132
6.5099 3.8954 0.0422
6.5100 4.2454 -0.0319
6.5099 3.9812 0.0238
6.5101 4.3357 -0.0508
6.5099 4.0682 0.0054
6.5101 4.4272 -0.0697
6.5102 4.6141 -0.1081
6.5102 4.5200 -0.0888
6.5103 4.7095 -0.1274
6.5103 4.8063 -0.1470
6.5104 4.9046 -0.1667
6.5104 5.0043 -0.1866
6.5105 5.1056 -0.2066
3.1471 -5.0433 2.8383
3.2140 -5.0287 2.8383
3.2812 -5.0137 2.8383
3.3487 -4.9984 2.8383
3.4165 -4.9827 2.8383
3.4846 -4.9665 2.8383
3.5531 -4.9501 2.8383
3.6218 -4.9332 2.8383
3.6909 -4.9160 2.8383
3.7604 -4.8984 2.8383
3.8302 -4.8803 2.8383
3.9003 -4.8619 2.8383
3.9709 -4.8431 2.8383
4.0418 -4.8238 2.8383
4.1131 -4.8041 2.8383
4.1848 -4.7840 2.8383
4.2569 -4.7635 2.8383
4.3294 -4.7426 2.8383
4.4024 -4.7211 2.8383
4.4758 -4.6992 2.8383
4.5497 -4.6769 2.8383
4.6240 -4.6541 2.8383
4.6987 -4.6308 2.8383
4.7271 -4.5617 2.8104
4.7346 -4.4739 2.7709
4.7420 -4.3877 2.7323
4.7527 -4.3061 2.6964
4.8073 -4.2648 2.6859
4.8809 -4.2399 2.6859
4.9551 -4.2145 2.6859
5.0298 -4.1885 2.6859
5.1051 -4.1620 2.6859
5.1809 -4.1350 2.6859
5.2573 -4.1074 2.6859
5.3343 -4.0792 2.6859
5.3606 -4.0122 2.6605
5.3509 -3.9193 2.6178
5.4569 -3.9110 2.6319
5.6483 -3.9608 2.6859
5.7285 -3.9297 2.6859
5.8093 -3.8979 2.6859
5.8908 -3.8655 2.6859
5.9730 -3.8324 2.6859
6.0559 -3.7987 2.6859
6.1396 -3.7642 2.6859
6.2240 -3.7291 2.6859
6.3092 -3.6933 2.6859
6.3952 -3.6567 2.6859
6.4820 -3.6193 2.6859
6.4974 -3.5418 2.6564
6.4977 -3.4569 2.6211
6.4979 -3.3730 2.5865
6.4948 -3.2885 2.5512
6.4950 -3.2065 2.5176
6.4951 -3.1255 2.4847
6.4953 -3.0453 2.4522
6.4955 -2.9660 2.4202
6.4956 -2.8874 2.3888
6.4958 -2.8097 2.3578
6.4959 -2.7328 2.3272
6.4960 -2.6565 2.2971
6.4962 -2.5810 2.2675
6.4963 -2.5062 2.2383
6.4965 -2.4320 2.2095
6.4966 -2.3584 2.1810
6.4967 -2.2855 2.1530
6.4969 -2.2131 2.1254
6.4970 -2.1413 2.0981
6.4972 -2.0701 2.0712
6.4973 -1.9994 2.0446
6.4974 -1.9291 2.0184
6.4976 -1.8594 1.9925
6.4977 -1.7901 1.9669
6.4978 -1.7213 1.9416
6.4979 -1.6529 1.9167
6.4981 -1.5849 1.8920
6.4982 -1.5173 1.8676
6.4983 -1.4501 1.8435
6.4985 -1.3832 1.8197
6.4986 -1.3167 1.7961
6.4987 -1.2504 1.7728
6.4988 -1.1845 1.7498
6.4990 -1.1189 1.7270
6.4991 -1.0536 1.7044
6.4992 -0.9885 1.6821
6.4993 -0.9237 1.6600
6.4994 -0.8590 1.6381
6.4996 -0.7947 1.6165
6.4997 -0.7305 1.5950
6.4998 -0.6665 1.5738
6.4999 -0.6027 1.5527
6.5000 -0.5390 1.5318
6.5002 -0.4755 1.5112
6.5003 -0.4121 1.4907
6.5004 -0.3489 1.4704
6.5005 -0.2857 1.4502
6.5010 -0.2227 1.4304
6.5012 -0.1597 1.4106
6.5013 -0.0968 1.3909
6.5015 -0.0339 1.3715
6.5017 0.0289 1.3521
6.5018 0.0917 1.3330
6.5020 0.1544 1.3139
6.5022 0.2172 1.2950
6.5023 0.2800 1.2763
6.5025 0.3428 1.2577
6.5026 0.4056 1.2392
6.5028 0.4685 1.2208
6.5030 0.5315 1.2025
6.5031 0.5945 1.1844
6.5033 0.6576 1.1664
6.5035 0.7208 1.1484
6.5036 0.7841 1.1306
6.5038 0.8476 1.1129
6.5040 0.9111 1.0953
6.5041 0.9749 1.0778
6.5043 1.0388 1.0604
6.5045 1.1028 1.0430
6.5046 1.1671 1.0258
6.5048 1.2316 1.0086
6.5050 1.2963 0.9915
6.5051 1.3612 0.9745
6.5053 1.4264 0.9576
6.5055 1.4918 0.9407
6.5056 1.5576 0.9239
6.5058 1.6236 0.9072
6.5060 1.6899 0.8905
6.5062 1.7566 0.8739
6.5063 1.8235 0.8574
6.5065 1.8909 0.8409
6.5067 1.9586 0.8244
6.5069 2.0267 0.8080
6.5070 2.0952 0.7916
6.5072 2.1641 0.7753
6.5074 2.2335 0.7590
6.5076 2.3033 0.7428
6.5078 2.3736 0.7265
6.5079 2.4444 0.7104
6.5081 2.5157 0.6942
6.5083 2.5876 0.6780
6.5085 2.6600 0.6619
6.5087 2.7330 0.6458
6.5087 2.8065 0.6297
6.5087 2.8806 0.6136
6.5088 2.9554 0.5975
6.5088 3.0308 0.5814
6.5089 3.1070 0.5653
6.5089 3.1838 0.5492
6.5089 3.2613 0.5331
6.5090 3.3396 0.5170
6.5090 3.4188 0.5009
6.5091 3.4987 0.4848
6.5091 3.5794 0.4686
6.5091 3.6611 0.4524
6.5092 3.7436 0.4362
6.5092 3.8271 0.4200
6.5092 3.9115 0.4037
6.5093 3.9969 0.3874
6.5093 4.0834 0.3711
6.5094 4.1709 0.3547
6.5094 4.2596 0.3382
6.5094 4.3494 0.3217
6.5095 4.4403 0.3052
6.5095 4.5325 0.2886
6.5096 4.6260 0.2719
6.5096 4.7208 0.2551
6.5097 4.8170 0.2383
6.5097 4.9146 0.2213
6.5097 5.0136 0.2043
6.5098 5.1141 0.1872
6.5098 5.2163 0.1700
2.8436 -4.4762 2.8383
2.9031 -4.4613 2.8383
2.9629 -4.4461 2.8383
3.0229 -4.4305 2.8383
3.0831 -4.4146 2.8383
3.1435 -4.3983 2.8383
3.2041 -4.3816 2.8383
3.2649 -4.3646 2.8383
3.3260 -4.3472 2.8383
3.3874 -4.3293 2.8383
3.4489 -4.3112 2.8383
3.5107 -4.2926 2.8383
3.5728 -4.2736 2.8383
3.6352 -4.2542 2.8383
3.6978 -4.2345 2.8383
3.7606 -4.2143 2.8383
3.8238 -4.1936 2.8383
3.8872 -4.1726 2.8383
3.9510 -4.1511 2.8383
4.0150 -4.1292 2.8383
4.0793 -4.1068 2.8383
4.1440 -4.0840 2.8383
4.2090 -4.0608 2.8383
4.2742 -4.0370 2.8383
4.3399 -4.0129 2.8383
4.4058 -3.9882 2.8383
4.4721 -3.9630 2.8383
4.5388 -3.9374 2.8383
4.6058 -3.9112 2.8383
4.6732 -3.8846 2.8383
4.7254 -3.8448 2.8290
4.7323 -3.7686 2.7930
4.7390 -3.6935 2.7577
4.7456 -3.6195 2.7231
4.7584 -3.5513 2.6926
4.8125 -3.5141 2.6859
4.8789 -3.4853 2.6859
4.9457 -3.4560 2.6859
5.0129 -3.4261 2.6859
5.0806 -3.3956 2.6859
5.1487 -3.3645 2.6859
5.2172 -3.3329 2.6859
5.2862 -3.3006 2.6859
5.3556 -3.2677 2.6859
5.4256 -3.2343 2.6859
5.4959 -3.2002 2.6859
5.5668 -3.1654 2.6859
5.6382 -3.1300 2.6859
5.7101 -3.0939 2.6859
5.7826 -3.0572 2.6859
5.8555 -3.0197 2.6859
5.9290 -2.9816 2.6859
6.0031 -2.9427 2.6859
6.0777 -2.9031 2.6859
6.1530 -2.8627 2.6859
6.2288 -2.8216 2.6859
6.3052 -2.7797 2.6859
6.3822 -2.7370 2.6859
6.4599 -2.6935 2.6859
6.4959 -2.6320 2.6685
6.4961 -2.5563 2.6368
6.4962 -2.4813 2.6055
6.4963 -2.4069 2.5746
6.4965 -2.3332 2.5443
6.4966 -2.2601 2.5143
6.4968 -2.1875 2.4849
6.4969 -2.1156 2.4558
6.4970 -2.0442 2.4272
6.4972 -1.9734 2.3989
6.4973 -1.9030 2.3711
6.4974 -1.8332 2.3436
6.4976 -1.7638 2.3165
6.4977 -1.6948 2.2898
6.4978 -1.6263 2.2634
6.4980 -1.5582 2.2374
6.4981 -1.4906 2.2117
6.4982 -1.4232 2.1863
6.4983 -1.3563 2.1613
6.4985 -1.2897 2.1365
6.4986 -1.2234 2.1121
6.4987 -1.1574 2.0879
6.4988 -1.0918 2.0641
6.4990 -1.0264 2.0405
6.4991 -0.9613 2.0172
6.4992 -0.8964 1.9942
6.4993 -0.8317 1.9714
6.4994 -0.7673 1.9489
6.4996 -0.7031 1.9266
6.4997 -0.6391 1.9046
6.4998 -0.5753 1.8828
6.4999 -0.5116 1.8613
6.5000 -0.4481 1.8400
6.5002 -0.3847 1.8189
6.5003 -0.3214 1.7980
6.5004 -0.2583 1.7773
6.5008 -0.1952 1.7569
6.5010 -0.1323 1.7367
6.5012 -0.0694 1.7166
6.5013 -0.0065 1.6967
6.5015 0.0563 1.6770
6.5017 0.1190 1.6575
6.5018 0.1818 1.6382
6.5020 0.2445 1.6191
6.5022 0.3072 1.6001
6.5023 0.3700 1.5813
6.5025 0.4328 1.5626
6.5027 0.4956 1.5442
6.5028 0.5585 1.5258
6.5030 0.6215 1.5076
6.5031 0.6846 1.4896
6.5033 0.7477 1.4717
6.5035 0.8110 1.4540
6.5036 0.8743 1.4363
6.5038 0.9378 1.4189
6.5040 1.0015 1.4015
6.5041 1.0653 1.3843
6.5043 1.1293 1.3672
6.5045 1.1935 1.3502
6.5046 1.2579 1.3334
6.5048 1.3225 1.3166
6.5050 1.3873 1.3000
6.5051 1.4524 1.2835
6.5053 1.5177 1.2670
6.5055 1.5833 1.2507
6.5057 1.6492 1.2345
6.5058 1.7154 1.2184
6.5060 1.7819 1.2024
6.5062 1.8488 1.1864
6.5063 1.9160 1.1706
6.5065 1.9836 1.1549
6.5067 2.0515 1.1392
6.5069 2.1198 1.1236
6.5070 2.1886 1.1081
6.5072 2.2578 1.0927
6.5074 2.3274 1.0773
6.5076 2.3976 1.0621
6.5078 2.4682 1.0469
6.5079 2.5393 1.0317
6.5081 2.6109 1.0167
6.5083 2.6831 1.0016
6.5081 2.7557 0.9866
6.5081 2.8290 0.9717
6.5082 2.9029 0.9569
6.5082 2.9774 0.9421
6.5082 3.0525 0.9273
6.5083 3.1284 0.9126
6.5083 3.2049 0.8979
6.5083 3.2821 0.8833
6.5084 3.3601 0.8688
6.5084 3.4389 0.8542
6.5084 3.5185 0.8397
6.5085 3.5989 0.8253
6.5085 3.6801 0.8108
6.5086 3.7623 0.7964
6.5086 3.8454 0.7821
6.5086 3.9293 0.7677
6.5087 4.0144 0.7534
6.5087 4.1004 0.7391
6.5087 4.1874 0.7248
6.5088 4.2756 0.7105
6.5088 4.3649 0.6963
6.5088 4.4553 0.6820
6.5089 4.5470 0.6678
6.5089 4.6399 0.6535
6.5090 4.7341 0.6393
6.5090 4.8296 0.6250
6.5090 4.9265 0.6108
6.5091 5.0248 0.5965
6.5091 5.1247 0.5823
6.5091 5.2260 0.5680
6.5092 5.3290 0.5537
2.5881 -3.9987 2.8383
2.6416 -3.9840 2.8383
2.6953 -3.9689 2.8383
2.7491 -3.9534 2.8383
2.8031 -3.9376 2.8383
2.8572 -3.9214 2.8383
2.9114 -3.9049 2.8383
2.9658 -3.8880 2.8383
3.0204 -3.8707 2.8383
3.0751 -3.8531 2.8383
3.1301 -3.8351 2.8383
3.1851 -3.8168 2.8383
3.2404 -3.7980 2.8383
3.2958 -3.7788 2.8383
3.3514 -3.7593 2.8383
3.4072 -3.7394 2.8383
3.4632 -3.7191 2.8383
3.5193 -3.6984 2.8383
3.5757 -3.6773 2.8383
3.6323 -3.6557 2.8383
3.6890 -3.6338 2.8383
3.7460 -3.6114 2.8383
3.8032 -3.5885 2.8383
3.8606 -3.5653 2.8383
3.9182 -3.5416 2.8383
3.9761 -3.5175 2.8383
4.0342 -3.4929 2.8383
4.0925 -3.4678 2.8383
4.1510 -3.4423 2.8383
4.2098 -3.4163 2.8383
4.2688 -3.3899 2.8383
4.3281 -3.3629 2.8383
4.3876 -3.3355 2.8383
4.4474 -3.3076 2.8383
4.5075 -3.2791 2.8383
4.5678 -3.2502 2.8383
4.6284 -3.2207 2.8383
4.6892 -3.1906 2.8383
4.7280 -3.1452 2.8249
4.7342 -3.0785 2.7925
4.7402 -3.0127 2.7606
4.7462 -2.9476 2.7294
4.7533 -2.8845 2.6994
4.7889 -2.8380 2.6859
4.8484 -2.8059 2.6859
4.9155 -2.7773 2.6899
4.9685 -2.7400 2.6859
5.0290 -2.7061 2.6859
5.0898 -2.6717 2.6859
5.1509 -2.6367 2.6859
5.2124 -2.6010 2.6859
5.2742 -2.5647 2.6859
5.3363 -2.5278 2.6859
5.3988 -2.4902 2.6859
5.4617 -2.4520 2.6859
5.5249 -2.4131 2.6859
5.5884 -2.3736 2.6859
5.6524 -2.3333 2.6859
5.7167 -2.2923 2.6859
5.7814 -2.2507 2.6859
5.8465 -2.2083 2.6859
5.9119 -2.1651 2.6859
5.9778 -2.1212 2.6859
6.0441 -2.0765 2.6859
6.1108 -2.0311 2.6859
6.1780 -1.9848 2.6859
6.2455 -1.9377 2.6859
6.3136 -1.8899 2.6859
6.3820 -1.8411 2.6859
6.4509 -1.7915 2.6859
6.4974 -1.7349 2.6765
6.4976 -1.6659 2.6482
6.4977 -1.5973 2.6203
6.4978 -1.5291 2.5927
6.4980 -1.4614 2.5656
6.4981 -1.3940 2.5389
6.4982 -1.3270 2.5125
6.4983 -1.2603 2.4864
6.4985 -1.1940 2.4608
6.4986 -1.1280 2.4354
6.4987 -1.0623 2.4104
6.4988 -0.9968 2.3857
6.4990 -0.9317 2.3614
6.4991 -0.8668 2.3373
6.4992 -0.8021 2.3136
6.4993 -0.7377 2.2901
6.4995 -0.6734 2.2670
6.4996 -0.6094 2.2441
6.4997 -0.5456 2.2215
6.4998 -0.4819 2.1992
6.4999 -0.4184 2.1771
6.5001 -0.3550 2.1553
6.5002 -0.2917 2.1338
6.5005 -0.2286 2.1126
6.5007 -0.1656 2.0915
6.5008 -0.1026 2.0707
6.5010 -0.0397 2.0502
6.5012 0.0231 2.0298
6.5013 0.0858 2.0097
6.5015 0.1486 1.9898
6.5017 0.2113 1.9701
6.5018 0.2740 1.9507
6.5020 0.3367 1.9314
6.5022 0.3994 1.9123
6.5023 0.4621 1.8935
6.5025 0.5249 1.8748
6.5027 0.5878 1.8563
6.5028 0.6507 1.8380
6.5030 0.7137 1.8199
6.5032 0.7768 1.8020
6.5033 0.8399 1.7842
6.5035 0.9033 1.7667
6.5036 0.9667 1.7492
6.5038 1.0303 1.7320
6.5040 1.0940 1.7149
6.5041 1.1579 1.6980
6.5043 1.2220 1.6812
6.5045 1.2863 1.6646
6.5046 1.3508 1.6481
6.5048 1.4155 1.6318
6.5050 1.4805 1.6156
6.5052 1.5457 1.5996
6.5053 1.6112 1.5837
6.5055 1.6770 1.5680
6.5057 1.7430 1.5524
6.5058 1.8094 1.5369
6.5060 1.8761 1.5215
6.5062 1.9432 1.5063
6.5064 2.0106 1.4912
6.5065 2.0784 1.4762
6.5067 2.1466 1.4614
6.5069 2.2152 1.4467
6.5071 2.2842 1.4320
6.5072 2.3537 1.4175
6.5074 2.4236 1.4031
6.5076 2.4940 1.3889
6.5078 2.5649 1.3747
6.5080 2.6364 1.3607
6.5075 2.7081 1.3466
6.5075 2.7806 1.3327
6.5075 2.8536 1.3189
6.5076 2.9272 1.3052
6.5076 3.0015 1.2917
6.5076 3.0763 1.2782
6.5077 3.1519 1.2648
6.5077 3.2281 1.2515
6.5077 3.3051 1.2383
6.5078 3.3828 1.2252
6.5078 3.4612 1.2122
6.5078 3.5405 1.1993
6.5079 3.6205 1.1865
6.5079 3.7014 1.1737
6.5079 3.7832 1.1610
6.5080 3.8659 1.1485
6.5080 3.9495 1.1360
6.5080 4.0340 1.1235
6.5081 4.1196 1.1112
6.5081 4.2062 1.0990
6.5081 4.2939 1.0868
6.5082 4.3827 1.0747
6.5082 4.4726 1.0626
6.5082 4.5637 1.0507
6.5083 4.6561 1.0388
6.5083 4.7497 1.0270
6.5083 4.8446 1.0153
6.5084 4.9409 1.0036
6.5084 5.0385 0.9920
6.5084 5.1377 0.9805
6.5085 5.2383 0.9690
6.5085 5.3405 0.9576
6.5085 5.4443 0.9463
2.3692 -3.5897 2.8383
2.4177 -3.5752 2.8383
2.4662 -3.5604 2.8383
2.5149 -3.5452 2.8383
2.5636 -3.5297 2.8383
2.6125 -3.5139 2.8383
2.6614 -3.4977 2.8383
2.7105 -3.4812 2.8383
2.7597 -3.4642 2.8383
2.8089 -3.4470 2.8383
2.8583 -3.4294 2.8383
2.9078 -3.4115 2.8383
2.9574 -3.3932 2.8383
3.0071 -3.3745 2.8383
3.0570 -3.3555 2.8383
3.1069 -3.3361 2.8383
3.1570 -3.3163 2.8383
3.2072 -3.2961 2.8383
3.2576 -3.2755 2.8383
3.3080 -3.2546 2.8383
3.3586 -3.2332 2.8383
3.4093 -3.2115 2.8383
3.4602 -3.1893 2.8383
3.5112 -3.1668 2.8383
3.5624 -3.1439 2.8383
3.6137 -3.1205 2.8383
3.6651 -3.0967 2.8383
3.7167 -3.0724 2.8383
3.7684 -3.0478 2.8383
3.8203 -3.0227 2.8383
3.8723 -2.9972 2.8383
3.9245 -2.9712 2.8383
3.9769 -2.9448 2.8383
4.0294 -2.9179 2.8383
4.0820 -2.8906 2.8383
4.1349 -2.8627 2.8383
4.1879 -2.8344 2.8383
4.2411 -2.8057 2.8383
4.2945 -2.7764 2.8383
4.3480 -2.7467 2.8383
4.4017 -2.7164 2.8383
4.4556 -2.6856 2.8383
4.5097 -2.6543 2.8383
4.5639 -2.6225 2.8383
4.6184 -2.5902 2.8383
4.6730 -2.5573 2.8383
4.7272 -2.5235 2.8379
4.7328 -2.4638 2.8086
4.7383 -2.4047 2.7797
4.7437 -2.3462 2.7514
4.7490 -2.2882 2.7235
4.7568 -2.2319 2.6975
4.7893 -2.1874 2.6859
4.8426 -2.1520 2.6859
4.8960 -2.1160 2.6859
4.9497 -2.0794 2.6859
5.0036 -2.0422 2.6859
5.0576 -2.0044 2.6859
5.1119 -1.9660 2.6859
5.1664 -1.9270 2.6859
5.2212 -1.8873 2.6859
5.2761 -1.8470 2.6859
5.3313 -1.8060 2.6859
5.3867 -1.7644 2.6859
5.4423 -1.7221 2.6859
5.4981 -1.6792 2.6859
5.5542 -1.6355 2.6859
5.6106 -1.5911 2.6859
5.6671 -1.5461 2.6859
5.7240 -1.5002 2.6859
5.7810 -1.4537 2.6859
5.8383 -1.4064 2.6859
5.8959 -1.3583 2.6859
5.9537 -1.3094 2.6859
6.0118 -1.2598 2.6859
6.0701 -1.2094 2.6859
6.1287 -1.1581 2.6859
6.1875 -1.1060 2.6859
6.2467 -1.0531 2.6859
6.3061 -0.9993 2.6859
6.3657 -0.9446 2.6859
6.4257 -0.8890 2.6859
6.4859 -0.8325 2.6859
6.4991 -0.7696 2.6665
6.4992 -0.7052 2.6420
6.4993 -0.6410 2.6179
6.4995 -0.5769 2.5940
6.4996 -0.5131 2.5705
6.4997 -0.4494 2.5474
6.4998 -0.3859 2.5245
6.5000 -0.3225 2.5019
6.5001 -0.2593 2.4796
6.5003 -0.1962 2.4577
6.5005 -0.1332 2.4360
6.5007 -0.0702 2.4145
6.5008 -0.0074 2.3934
6.5010 0.0554 2.3725
6.5012 0.1181 2.3519
6.5013 0.1808 2.3315
6.5015 0.2435 2.3114
6.5017 0.3061 2.2915
6.5018 0.3688 2.2719
6.5020 0.4315 2.2525
6.5022 0.4942 2.2334
6.5023 0.5569 2.2145
6.5025 0.6197 2.1958
6.5027 0.6825 2.1773
6.5028 0.7454 2.1591
6.5030 0.8085 2.1410
6.5032 0.8716 2.1232
6.5033 0.9348 2.1056
6.5035 0.9982 2.0882
6.5037 1.0617 2.0710
6.5038 1.1253 2.0540
6.5040 1.1891 2.0372
6.5042 1.2531 2.0205
6.5043 1.3173 2.0041
6.5045 1.3817 1.9879
6.5047 1.4463 1.9718
6.5048 1.5112 1.9559
6.5050 1.5763 1.9403
6.5052 1.6417 1.9247
6.5053 1.7073 1.9094
6.5055 1.7733 1.8942
6.5057 1.8395 1.8792
6.5058 1.9061 1.8644
6.5060 1.9730 1.8497
6.5062 2.0403 1.8352
6.5064 2.1079 1.8209
6.5065 2.1760 1.8067
6.5067 2.2444 1.7927
6.5069 2.3132 1.7788
6.5071 2.3825 1.7651
6.5072 2.4523 1.7516
6.5074 2.5225 1.7382
6.5076 2.5932 1.7249
6.5078 2.6644 1.7118
6.5069 2.7358 1.6986
6.5069 2.8080 1.6858
6.5069 2.8808 1.6731
6.5070 2.9542 1.6605
6.5070 3.0282 1.6481
6.5070 3.1028 1.6359
6.5071 3.1781 1.6238
6.5071 3.2541 1.6118
6.5071 3.3307 1.6000
6.5072 3.4081 1.5883
6.5072 3.4863 1.5767
6.5072 3.5652 1.5653
6.5072 3.6449 1.5541
6.5073 3.7254 1.5429
6.5073 3.8068 1.5319
6.5073 3.8891 1.5211
6.5074 3.9723 1.5104
6.5074 4.0565 1.4998
6.5074 4.1417 1.4894
6.5075 4.2278 1.4791
6.5075 4.3151 1.4689
6.5075 4.4034 1.4589
6.5075 4.4928 1.4490
6.5076 4.5834 1.4393
6.5076 4.6752 1.4297
6.5076 4.7682 1.4203
6.5077 4.8626 1.4109
6.5077 4.9582 1.4018
6.5077 5.0553 1.3928
6.5077 5.1537 1.3839
6.5078 5.2537 1.3752
6.5078 5.3552 1.3666
6.5078 5.4582 1.3582
6.5079 5.5630 1.3499
2.1788 -3.2340 2.8383
2.2230 -3.2198 2.8383
2.2672 -3.2054 2.8383
2.3114 -3.1906 2.8383
2.3558 -3.1755 2.8383
2.4001 -3.1601 2.8383
2.4446 -3.1444 2.8383
2.4891 -3.1284 2.8383
2.5337 -3.1120 2.8383
2.5783 -3.0952 2.8383
2.6230 -3.0782 2.8383
2.6678 -3.0608 2.8383
2.7126 -3.0430 2.8383
2.7576 -3.0249 2.8383
2.8026 -3.0065 2.8383
2.8476 -2.9877 2.8383
2.8928 -2.9686 2.8383
2.9380 -2.9491 2.8383
2.9833 -2.9292 2.8383
3.0287 -2.9090 2.8383
3.0741 -2.8884 2.8383
3.1196 -2.8674 2.8383
3.1653 -2.8461 2.8383
3.2110 -2.8243 2.8383
3.2567 -2.8023 2.8383
3.3026 -2.7798 2.8383
3.3486 -2.7569 2.8383
3.3946 -2.7336 2.8383
3.4407 -2.7099 2.8383
3.4869 -2.6859 2.8383
3.5332 -2.6614 2.8383
3.5796 -2.6365 2.8383
3.6261 -2.6112 2.8383
3.6727 -2.5854 2.8383
3.7194 -2.5593 2.8383
3.7661 -2.5327 2.8383
3.8130 -2.5057 2.8383
3.8599 -2.4782 2.8383
3.9070 -2.4503 2.8383
3.9541 -2.4220 2.8383
4.0014 -2.3932 2.8383
4.0487 -2.3639 2.8383
4.0962 -2.3341 2.8383
4.1437 -2.3039 2.8383
4.1914 -2.2733 2.8383
4.2392 -2.2421 2.8383
4.2870 -2.2105 2.8383
4.3350 -2.1783 2.8383
4.3831 -2.1456 2.8383
4.4312 -2.1125 2.8383
4.4795 -2.0789 2.8383
4.5279 -2.0447 2.8383
4.5764 -2.0100 2.8383
4.6250 -1.9747 2.8383
4.6737 -1.9389 2.8383
4.7226 -1.9026 2.8383
4.7330 -1.8507 2.8154
4.7380 -1.7970 2.7897
4.7428 -1.7436 2.7643
4.7475 -1.6907 2.7394
4.7522 -1.6381 2.7148
4.7623 -1.5874 2.6937
4.7954 -1.5448 2.6859
4.8424 -1.5060 2.6859
4.8896 -1.4667 2.6859
4.9368 -1.4268 2.6859
4.9842 -1.3863 2.6859
5.0317 -1.3452 2.6859
5.0793 -1.3034 2.6859
5.1270 -1.2611 2.6859
5.1748 -1.2181 2.6859
5.2227 -1.1745 2.6859
5.2707 -1.1302 2.6859
5.3188 -1.0853 2.6859
5.3671 -1.0397 2.6859
5.4154 -0.9934 2.6859
5.4638 -0.9465 2.6859
5.5124 -0.8988 2.6859
5.5610 -0.8505 2.6859
5.6098 -0.8014 2.6859
5.6587 -0.7516 2.6859
5.7076 -0.7011 2.6859
5.7567 -0.6498 2.6859
5.8059 -0.5978 2.6859
5.8551 -0.5450 2.6859
5.9045 -0.4914 2.6859
5.9540 -0.4371 2.6859
6.0036 -0.3819 2.6859
6.0532 -0.3259 2.6859
6.1030 -0.2691 2.6859
6.1528 -0.2115 2.6859
6.2028 -0.1530 2.6859
6.2528 -0.0937 2.6859
6.3029 -0.0334 2.6859
6.3531 0.0277 2.6859
6.4034 0.0897 2.6859
6.4538 0.1527 2.6859
6.5012 0.2164 2.6847
6.5014 0.2790 2.6640
6.5015 0.3416 2.6437
6.5017 0.4042 2.6237
6.5018 0.4668 2.6039
6.5020 0.5294 2.5844
6.5022 0.5921 2.5651
6.5023 0.6548 2.5462
6.5025 0.7176 2.5274
6.5027 0.7804 2.5090
6.5028 0.8434 2.4908
6.5030 0.9064 2.4728
6.5032 0.9695 2.4551
6.5033 1.0328 2.4376
6.5035 1.0962 2.4204
6.5037 1.1598 2.4034
6.5038 1.2235 2.3867
6.5040 1.2874 2.3701
6.5042 1.3515 2.3538
6.5043 1.4158 2.3378
6.5045 1.4803 2.3219
6.5047 1.5450 2.3063
6.5048 1.6100 2.2908
6.5050 1.6753 2.2756
6.5052 1.7408 2.2606
6.5053 1.8066 2.2459
6.5055 1.8728 2.2313
6.5057 1.9392 2.2169
6.5058 2.0060 2.2028
6.5060 2.0731 2.1888
6.5062 2.1406 2.1751
6.5064 2.2085 2.1615
6.5065 2.2767 2.1481
6.5067 2.3454 2.1350
6.5069 2.4145 2.1220
6.5071 2.4841 2.1093
6.5072 2.5541 2.0967
6.5074 2.6247 2.0843
6.5076 2.6957 2.0721
6.5063 2.7667 2.0597
6.5063 2.8387 2.0478
6.5063 2.9112 2.0362
6.5064 2.9844 2.0247
6.5064 3.0581 2.0134
6.5064 3.1325 2.0023
6.5064 3.2075 1.9915
6.5065 3.2832 1.9807
6.5065 3.3596 1.9702
6.5065 3.4367 1.9599
6.5066 3.5146 1.9498
6.5066 3.5931 1.9398
6.5066 3.6725 1.9301
6.5066 3.7528 1.9205
6.5067 3.8338 1.9112
6.5067 3.9157 1.9020
6.5067 3.9986 1.8930
6.5067 4.0824 1.8842
6.5068 4.1671 1.8757
6.5068 4.2528 1.8673
6.5068 4.3396 1.8591
6.5068 4.4275 1.8511
6.5069 4.5164 1.8433
6.5069 4.6065 1.8358
6.5069 4.6978 1.8284
6.5069 4.7903 1.8212
6.5070 4.8841 1.8143
6.5070 4.9792 1.8076
6.5070 5.0756 1.8011
6.5070 5.1734 1.7948
6.5071 5.2727 1.7887
6.5071 5.3735 1.7829
6.5071 5.4759 1.7773
6.5071 5.5798 1.7719
6.5072 5.6855 1.7668
2.0110 -2.9204 2.8383
2.0514 -2.9067 2.8383
2.0919 -2.8927 2.8383
2.1323 -2.8784 2.8383
2.1728 -2.8639 2.8383
2.2133 -2.8490 2.8383
2.2539 -2.8337 2.8383
