ply
format ascii 1.0
element vertex 2151
property float32 x
property float32 y
property float32 z
end_header
10.9949 -18.3452 2.5481
6.5452 -9.5763 1.2735
11.2355 -18.3305 2.5292
6.4567 -9.2486 1.2198
11.4794 -18.3169 2.5100
6.4065 -8.9857 1.1751
6.3696 -8.7492 1.1342
11.7267 -18.3046 2.4906
6.3756 -8.5777 1.1018
6.3815 -8.4105 1.0701
11.9775 -18.2936 2.4708
6.3873 -8.2475 1.0391
7.1001 -10.6128 1.4225
6.3972 -8.0937 1.0093
6.4146 -7.9530 0.9813
4.8831 -5.8155 0.7015
4.8705 -5.9181 0.7222
5.0258 -5.8669 0.6993
5.4456 -5.8723 0.6637
5.0806 -5.8139 0.6844
5.5558 -5.8742 0.6542
5.2311 -5.8685 0.6819
5.6681 -5.8762 0.6444
5.3374 -5.8704 0.6729
5.7651 -5.8605 0.6324
5.8552 -5.8363 0.6193
5.9641 -5.8294 0.6077
6.4856 -5.7461 0.5405
6.1750 -5.9182 0.6056
6.4858 -5.6340 0.5174
6.2128 -5.8388 0.5860
6.4859 -5.5238 0.4946
6.4853 -5.9764 0.5876
6.4860 -5.4156 0.4721
6.4862 -5.3091 0.4498
6.4855 -5.8602 0.5639
6.4863 -5.2043 0.4278
4.8908 -3.5470 0.2422
6.1664 -4.8495 0.3860
4.9190 -3.4949 0.2279
6.1681 -4.7543 0.3657
4.9202 -3.4243 0.2124
6.2832 -4.7462 0.3518
4.9214 -3.3547 0.1970
4.8895 -3.6192 0.2579
4.9226 -3.2859 0.1818
4.9238 -3.2180 0.1667
6.4945 -3.8088 0.1220
4.8980 -3.1338 0.1508
6.4948 -3.7249 0.1029
4.8991 -3.0680 0.1360
6.4950 -3.6419 0.0838
6.1849 -3.7902 0.1531
4.6633 -2.5559 0.0466
6.1864 -3.7090 0.1346
4.6534 -2.4922 0.0330
4.6544 -2.4351 0.0196
4.6679 -2.3850 0.0063
6.4962 -3.2404 -0.0097
6.4965 -3.1625 -0.0282
6.4967 -3.0854 -0.0465
6.4969 -3.0090 -0.0648
6.4972 -2.9333 -0.0830
6.4974 -2.8583 -0.1012
6.4976 -2.7839 -0.1192
6.4978 -2.7101 -0.1372
6.4980 -2.6370 -0.1552
6.4983 -2.5644 -0.1731
6.4985 -2.4924 -0.1910
-4.4552 -13.8873 2.8384
-4.2938 -13.8685 2.8384
-4.1339 -13.8504 2.8384
-3.9755 -13.8330 2.8384
-3.8185 -13.8163 2.8383
-3.6629 -13.8004 2.8383
-3.5084 -13.7848 2.8382
-3.3553 -13.7699 2.8381
-3.2033 -13.7557 2.8379
-3.0524 -13.7421 2.8378
-2.9025 -13.7291 2.8377
-2.7537 -13.7168 2.8376
-2.6057 -13.7049 2.8374
-2.4586 -13.6936 2.8372
-2.3124 -13.6828 2.8370
-2.1669 -13.6726 2.8368
-0.8734 -5.9011 1.2251
-0.8113 -5.8977 1.2251
-0.7494 -5.8945 1.2251
-0.6877 -5.8916 1.2251
-0.6263 -5.8890 1.2251
-0.5651 -5.8866 1.2251
-0.5041 -5.8844 1.2251
-0.4432 -5.8825 1.2251
-0.3825 -5.8808 1.2251
-0.3219 -5.8794 1.2251
-0.2614 -5.8782 1.2251
-0.2010 -5.8773 1.2251
-0.1407 -5.8766 1.2251
-0.0804 -5.8762 1.2251
-0.0201 -5.8760 1.2251
0.0402 -5.8760 1.2251
0.1004 -5.8763 1.2251
0.1608 -5.8768 1.2251
0.2211 -5.8776 1.2251
0.2815 -5.8786 1.2251
0.3421 -5.8798 1.2251
0.4027 -5.8813 1.2251
0.4635 -5.8831 1.2251
0.5244 -5.8851 1.2251
0.5855 -5.8873 1.2251
0.6467 -5.8898 1.2251
0.7082 -5.8925 1.2251
0.7699 -5.8956 1.2251
0.8319 -5.8988 1.2251
0.8941 -5.9023 1.2251
2.2016 -13.5918 2.8194
2.3459 -13.5995 2.8190
2.4911 -13.6077 2.8187
2.6370 -13.6166 2.8183
2.7837 -13.6260 2.8180
2.9308 -13.6362 2.8176
3.0800 -13.6469 2.8173
3.2295 -13.6582 2.8169
3.3802 -13.6703 2.8166
3.5321 -13.6830 2.8162
3.6851 -13.6964 2.8158
3.8394 -13.7104 2.8155
3.9949 -13.7252 2.8151
4.1519 -13.7407 2.8147
4.3104 -13.7569 2.8143
4.4703 -13.7739 2.8140
4.6319 -13.7916 2.8136
4.7951 -13.8100 2.8132
4.9601 -13.8293 2.8128
5.1269 -13.8494 2.8124
5.2956 -13.8703 2.8120
5.9914 -13.9626 2.8103
5.4663 -13.8920 2.8116
6.1710 -13.9879 2.8099
5.6391 -13.9146 2.8112
5.8141 -13.9381 2.8107
6.3531 -14.0142 2.8095
6.8782 -14.0233 2.7930
6.5357 -14.0370 2.8081
7.0522 -14.0174 2.7854
6.7064 -14.0303 2.8007
7.2281 -14.0124 2.7777
7.4062 -14.0084 2.7700
7.7690 -14.0028 2.7546
7.5865 -14.0053 2.7623
7.9537 -14.0009 2.7467
8.3068 -13.3409 2.5865
7.7603 -13.3454 2.6107
8.4928 -13.3387 2.5778
7.9410 -13.3449 2.6031
8.6789 -13.3333 2.5683
8.1229 -13.3430 2.5949
6.4689 -9.3122 1.7750
8.8689 -13.3304 2.5590
6.4176 -9.0436 1.7173
6.6137 -9.7275 1.8608
6.3685 -8.7866 1.6621
6.3863 -8.2765 1.5464
6.3744 -8.6119 1.6226
6.3942 -8.1177 1.5100
6.3804 -8.4421 1.5840
6.4119 -7.9750 1.4768
4.9706 -5.8170 1.0616
4.8559 -5.9178 1.0907
5.0688 -5.8137 1.0555
4.8696 -5.8152 1.0666
5.2201 -5.8683 1.0597
5.5476 -5.8741 1.0427
5.3273 -5.8702 1.0542
5.6609 -5.8761 1.0366
5.4364 -5.8721 1.0485
5.7763 -5.8781 1.0304
6.0815 -5.8314 1.0014
5.8940 -5.8801 1.0239
6.2110 -5.8387 0.9953
5.9969 -5.8654 1.0144
6.4857 -5.9774 1.0111
6.4861 -5.6318 0.9293
6.4858 -5.8601 0.9834
6.4862 -5.5207 0.9028
6.4864 -5.4115 0.8768
6.4860 -5.7449 0.9561
6.4865 -5.3041 0.8511
6.1715 -4.8470 0.7618
6.4866 -5.1985 0.8257
6.1682 -4.7471 0.7379
6.2237 -4.4120 0.6527
6.2189 -4.6896 0.7206
6.2253 -4.3221 0.6306
6.2268 -4.2334 0.6087
6.2205 -4.5957 0.6977
6.2284 -4.1459 0.5870
6.2221 -4.5032 0.6751
6.2299 -4.0595 0.5656
6.2314 -3.9742 0.5443
6.2386 -3.5631 0.4411
6.2329 -3.8900 0.5233
6.2641 -3.4971 0.4226
6.2343 -3.8068 0.5025
4.7730 -2.6040 0.3066
6.2136 -3.7114 0.4801
4.7740 -2.5446 0.2915
6.2292 -3.6387 0.4608
4.8169 -2.5075 0.2788
4.9376 -2.5096 0.2703
6.2026 -2.7824 0.2442
4.9521 -2.4567 0.2557
6.2309 -2.7228 0.2265
5.3382 -2.5839 0.2591
6.2322 -2.6516 0.2078
6.4965 -3.0671 0.2953
6.2334 -2.5811 0.1893
6.4967 -2.9904 0.2755
6.2346 -2.5111 0.1708
6.4981 -2.5443 0.1588
6.4983 -2.4721 0.1397
6.4985 -2.4004 0.1207
-3.6112 -11.0977 2.8384
-3.4832 -11.0924 2.8384
-3.3562 -11.0874 2.8384
-3.2301 -11.0825 2.8384
-3.1049 -11.0778 2.8384
-2.9805 -11.0734 2.8384
-2.8569 -11.0691 2.8384
-2.7340 -11.0650 2.8384
-2.6118 -11.0612 2.8384
-2.4903 -11.0575 2.8384
-2.3695 -11.0539 2.8384
-2.2493 -11.0506 2.8384
-0.9193 -4.7692 1.2253
-0.8679 -4.7679 1.2253
-0.8167 -4.7667 1.2253
-0.7657 -4.7656 1.2253
-0.7149 -4.7645 1.2253
-0.6643 -4.7635 1.2253
-0.6138 -4.7626 1.2253
-0.5635 -4.7618 1.2253
-0.5133 -4.7610 1.2253
-0.4633 -4.7603 1.2253
-0.4133 -4.7597 1.2253
-0.3635 -4.7591 1.2253
-0.3138 -4.7587 1.2253
-0.2641 -4.7583 1.2253
-0.2145 -4.7579 1.2253
-0.1650 -4.7576 1.2253
-0.1154 -4.7575 1.2253
-0.0660 -4.7573 1.2253
-0.0165 -4.7573 1.2253
0.0330 -4.7573 1.2253
0.0824 -4.7574 1.2253
0.1319 -4.7575 1.2253
0.1814 -4.7577 1.2253
0.2310 -4.7580 1.2253
0.2806 -4.7584 1.2253
0.3303 -4.7588 1.2253
0.3801 -4.7593 1.2253
0.4299 -4.7599 1.2253
0.4799 -4.7605 1.2253
0.5300 -4.7612 1.2253
0.5802 -4.7620 1.2253
0.6306 -4.7629 1.2253
0.6811 -4.7638 1.2253
0.7318 -4.7648 1.2253
0.7826 -4.7659 1.2253
0.8337 -4.7671 1.2253
0.8850 -4.7683 1.2253
2.1693 -11.0485 2.8384
2.2892 -11.0517 2.8384
2.4096 -11.0551 2.8384
2.5307 -11.0587 2.8384
2.6524 -11.0624 2.8384
2.7748 -11.0664 2.8384
2.8979 -11.0705 2.8384
3.0218 -11.0748 2.8384
3.1465 -11.0794 2.8384
3.2720 -11.0841 2.8384
3.3984 -11.0890 2.8384
3.5257 -11.0942 2.8384
3.6539 -11.0995 2.8384
3.7832 -11.1050 2.8384
3.9135 -11.1108 2.8384
4.0449 -11.1168 2.8384
4.1774 -11.1230 2.8384
4.3111 -11.1294 2.8384
4.4460 -11.1361 2.8384
4.5822 -11.1430 2.8384
4.7197 -11.1502 2.8384
4.8586 -11.1575 2.8384
4.9989 -11.1652 2.8384
5.1408 -11.1731 2.8384
5.0004 -10.5809 2.6860
5.1377 -10.5889 2.6860
5.2765 -10.5972 2.6860
5.4169 -10.6057 2.6860
5.5590 -10.6145 2.6860
5.7030 -10.6236 2.6860
5.8487 -10.6329 2.6860
5.9964 -10.6426 2.6860
6.1461 -10.6526 2.6860
6.2978 -10.6628 2.6860
6.4517 -10.6734 2.6860
6.6078 -10.6844 2.6860
6.7662 -10.6957 2.6860
6.9270 -10.7073 2.6860
7.0900 -10.7187 2.6859
6.6874 -9.8904 2.4755
6.4817 -9.3797 2.3449
6.4293 -9.1050 2.2734
6.3792 -8.8425 2.2051
6.3732 -8.6482 2.1538
6.3793 -8.4755 2.1080
6.3852 -8.3073 2.0633
6.3911 -8.1433 2.0197
6.4090 -7.9985 1.9809
4.8491 -5.9282 1.4659
4.8552 -5.8150 1.4357
4.9569 -5.8168 1.4339
5.0560 -5.8135 1.4307
5.2081 -5.8681 1.4417
5.3162 -5.8700 1.4396
5.4263 -5.8719 1.4375
5.5384 -5.8739 1.4353
5.6526 -5.8759 1.4330
5.7691 -5.8779 1.4307
5.8879 -5.8800 1.4283
5.9962 -5.8696 1.4227
6.0775 -5.8314 1.4104
6.2081 -5.8387 1.4090
6.4860 -5.9792 1.4395
6.4861 -5.8608 1.4076
6.4863 -5.7445 1.3763
6.4864 -5.6304 1.3454
6.4865 -5.5183 1.3151
6.4867 -5.4082 1.2854
6.4868 -5.2999 1.2560
6.4869 -5.1935 1.2272
6.1791 -4.8472 1.1419
6.1730 -4.7443 1.1141
6.2190 -4.6823 1.0959
6.2206 -4.5878 1.0701
6.2223 -4.4947 1.0447
6.2239 -4.4028 1.0196
6.2255 -4.3123 0.9948
6.2270 -4.2231 0.9704
6.2286 -4.1350 0.9462
6.2301 -4.0481 0.9224
6.2316 -3.9623 0.8988
6.2331 -3.8776 0.8755
6.2345 -3.7940 0.8524
6.2138 -3.6982 0.8267
6.2537 -3.6392 0.8092
6.2388 -3.5490 0.7847
6.2402 -3.4691 0.7626
6.2416 -3.3902 0.7408
6.2430 -3.3121 0.7191
6.2443 -3.2349 0.6976
6.2457 -3.1584 0.6763
5.3490 -2.6396 0.5611
5.3771 -2.5884 0.5459
5.3624 -2.5171 0.5265
5.5754 -2.5509 0.5290
5.7690 -2.5717 0.5284
5.9817 -2.5968 0.5284
6.2325 -2.6338 0.5304
6.2066 -2.5518 0.5083
6.4977 -2.5978 0.5114
6.4979 -2.5248 0.4909
6.4981 -2.4524 0.4705
6.4983 -2.3805 0.4502
6.4986 -2.3091 0.4301
-3.0376 -9.2019 2.8384
-2.9316 -9.2031 2.8384
-2.8263 -9.2043 2.8384
-2.7215 -9.2055 2.8384
-2.6173 -9.2066 2.8384
-2.5136 -9.2076 2.8384
-2.4105 -9.2087 2.8384
-2.3078 -9.2096 2.8384
-2.2056 -9.2105 2.8384
-0.9084 -3.9771 1.2255
-0.8646 -3.9774 1.2255
-0.8210 -3.9778 1.2255
-0.7776 -3.9781 1.2255
-0.7343 -3.9784 1.2255
-0.6912 -3.9787 1.2255
-0.6482 -3.9790 1.2255
-0.6054 -3.9792 1.2255
-0.5627 -3.9795 1.2255
-0.5200 -3.9797 1.2255
-0.4775 -3.9799 1.2255
-0.4351 -3.9800 1.2255
-0.3927 -3.9802 1.2255
-0.3504 -3.9804 1.2255
-0.3082 -3.9805 1.2255
-0.2661 -3.9806 1.2255
-0.2240 -3.9807 1.2255
-0.1819 -3.9808 1.2255
-0.1399 -3.9809 1.2255
-0.0979 -3.9809 1.2255
-0.0560 -3.9809 1.2255
-0.0140 -3.9809 1.2255
0.0280 -3.9809 1.2255
0.0699 -3.9809 1.2255
0.1119 -3.9809 1.2255
0.1539 -3.9808 1.2255
0.1959 -3.9808 1.2255
0.2380 -3.9807 1.2255
0.2801 -3.9806 1.2255
0.3223 -3.9804 1.2255
0.3645 -3.9803 1.2255
0.4068 -3.9802 1.2255
0.4492 -3.9800 1.2255
0.4916 -3.9798 1.2255
0.5342 -3.9796 1.2255
0.5769 -3.9794 1.2255
0.6196 -3.9791 1.2255
0.6625 -3.9789 1.2255
0.7056 -3.9786 1.2255
0.7487 -3.9783 1.2255
0.7920 -3.9780 1.2255
0.8355 -3.9777 1.2255
0.8791 -3.9773 1.2255
0.9229 -3.9769 1.2255
2.2396 -9.2102 2.8384
2.3419 -9.2093 2.8384
2.4447 -9.2083 2.8384
2.5481 -9.2073 2.8384
2.6519 -9.2062 2.8384
2.7563 -9.2051 2.8384
2.8612 -9.2039 2.8384
2.9668 -9.2027 2.8384
3.0729 -9.2015 2.8384
3.1798 -9.2002 2.8384
3.2872 -9.1988 2.8384
3.3954 -9.1974 2.8384
3.5043 -9.1960 2.8384
3.6140 -9.1944 2.8384
3.7245 -9.1929 2.8384
3.8357 -9.1913 2.8384
3.9478 -9.1896 2.8384
4.0608 -9.1879 2.8384
4.1747 -9.1861 2.8384
4.2895 -9.1843 2.8384
4.4053 -9.1824 2.8384
4.5222 -9.1804 2.8384
4.6400 -9.1784 2.8384
4.7119 -9.0856 2.8104
4.7240 -8.8825 2.7482
4.7424 -8.6988 2.6920
4.8477 -8.6774 2.6860
4.9648 -8.6752 2.6860
5.0830 -8.6729 2.6860
5.2025 -8.6706 2.6860
5.3234 -8.6681 2.6860
5.4455 -8.6657 2.6860
5.5691 -8.6631 2.6860
5.6941 -8.6605 2.6860
5.8207 -8.6578 2.6860
5.9487 -8.6550 2.6860
6.0784 -8.6522 2.6860
6.2097 -8.6492 2.6860
6.3427 -8.6462 2.6860
6.3780 -8.5104 2.6448
6.3841 -8.3394 2.5926
6.3900 -8.1727 2.5417
6.4060 -8.0230 2.4962
6.4238 -7.8792 2.4524
4.8508 -5.8276 1.8146
4.9428 -5.8165 1.8119
5.0427 -5.8133 1.8117
5.1956 -5.8679 1.8295
5.3046 -5.8698 1.8310
5.4156 -5.8718 1.8325
5.5287 -5.8737 1.8340
5.6439 -5.8758 1.8355
5.7614 -5.8778 1.8371
5.8812 -5.8799 1.8388
5.9962 -5.8749 1.8382
6.0731 -5.8313 1.8256
6.2048 -5.8386 1.8290
6.4863 -5.9815 1.8749
6.4865 -5.8619 1.8385
6.4866 -5.7446 1.8029
6.4867 -5.6294 1.7679
6.4869 -5.5163 1.7335
6.4870 -5.4052 1.6998
6.4871 -5.2960 1.6667
6.4872 -5.1887 1.6341
6.1864 -4.8473 1.5278
6.1814 -4.7444 1.4966
6.2191 -4.6753 1.4760
6.2208 -4.5801 1.4472
6.2224 -4.4863 1.4188
6.2240 -4.3939 1.3908
6.2256 -4.3028 1.3632
6.2272 -4.2129 1.3361
6.2288 -4.1243 1.3093
6.2303 -4.0369 1.2829
6.2318 -3.9506 1.2568
6.2333 -3.8654 1.2311
6.1856 -3.7515 1.1962
6.2141 -3.6850 1.1765
6.2782 -3.6396 1.1634
6.2391 -3.5350 1.1314
6.2405 -3.4548 1.1072
6.2419 -3.3754 1.0833
6.2432 -3.2970 1.0597
6.2446 -3.2194 1.0364
6.2459 -3.1426 1.0132
5.3492 -2.6258 0.8480
5.3774 -2.5743 0.8328
5.3947 -2.5176 0.8160
5.6433 -2.5665 0.8334
5.7998 -2.5692 0.8359
5.9636 -2.5721 0.8386
6.1137 -2.5661 0.8384
6.2069 -2.5339 0.8298
6.4975 -2.5786 0.8465
6.4977 -2.5054 0.8245
6.4979 -2.4328 0.8028
6.4982 -2.3607 0.7812
6.4984 -2.2891 0.7597
6.4986 -2.2181 0.7385
-2.6208 -7.8245 2.8384
-2.5305 -7.8292 2.8384
-2.4405 -7.8336 2.8384
-2.3509 -7.8379 2.8384
-2.2617 -7.8420 2.8384
-2.1729 -7.8460 2.8384
-2.0844 -7.8497 2.8384
-0.8917 -3.5078 1.2678
-0.8521 -3.5078 1.2673
-0.8127 -3.5078 1.2667
-0.7734 -3.5078 1.2662
-0.7343 -3.5078 1.2657
-0.6954 -3.5078 1.2653
-0.6567 -3.5078 1.2649
-0.6181 -3.5078 1.2645
-0.5796 -3.5078 1.2641
-0.5412 -3.5078 1.2637
-0.5030 -3.5078 1.2634
-0.4648 -3.5078 1.2631
-0.4268 -3.5078 1.2628
-0.3888 -3.5078 1.2626
-0.3510 -3.5078 1.2623
-0.3132 -3.5078 1.2621
-0.2754 -3.5078 1.2619
-0.2378 -3.5078 1.2618
-0.2002 -3.5078 1.2616
-0.1626 -3.5078 1.2615
-0.1250 -3.5078 1.2614
-0.0875 -3.5078 1.2614
-0.0500 -3.5078 1.2613
-0.0125 -3.5078 1.2613
0.0250 -3.5078 1.2613
0.0625 -3.5078 1.2613
0.1000 -3.5078 1.2614
0.1375 -3.5078 1.2615
0.1751 -3.5078 1.2616
0.2127 -3.5078 1.2617
0.2503 -3.5078 1.2618
0.2880 -3.5078 1.2620
0.3257 -3.5078 1.2622
0.3636 -3.5078 1.2624
0.4015 -3.5078 1.2626
0.4394 -3.5078 1.2629
0.4775 -3.5078 1.2632
0.5157 -3.5078 1.2635
0.5540 -3.5078 1.2638
0.5924 -3.5078 1.2642
0.6309 -3.5078 1.2646
0.6696 -3.5078 1.2650
0.7084 -3.5078 1.2654
0.7473 -3.5078 1.2659
0.7864 -3.5078 1.2664
0.8257 -3.5078 1.2669
0.8652 -3.5078 1.2674
0.9049 -3.5078 1.2680
2.1138 -7.8485 2.8384
2.2024 -7.8447 2.8384
2.2914 -7.8407 2.8384
2.3807 -7.8365 2.8384
2.4704 -7.8322 2.8384
2.5605 -7.8276 2.8384
2.6510 -7.8229 2.8384
2.7420 -7.8181 2.8384
2.8334 -7.8130 2.8384
2.9253 -7.8078 2.8384
3.0176 -7.8024 2.8384
3.1105 -7.7968 2.8384
3.2039 -7.7910 2.8384
3.2979 -7.7850 2.8384
3.3924 -7.7789 2.8384
3.4875 -7.7725 2.8384
3.5832 -7.7659 2.8384
3.6796 -7.7592 2.8384
3.7766 -7.7522 2.8384
3.8742 -7.7450 2.8384
3.9726 -7.7376 2.8384
4.0717 -7.7300 2.8384
4.1715 -7.7222 2.8384
4.2721 -7.7141 2.8384
4.3734 -7.7059 2.8384
4.4756 -7.6973 2.8384
4.5786 -7.6886 2.8384
4.6825 -7.6796 2.8384
4.7182 -7.5598 2.7975
4.7287 -7.4037 2.7432
4.7445 -7.2607 2.6936
4.8330 -7.2309 2.6860
4.9358 -7.2211 2.6860
5.0396 -7.2112 2.6860
5.1444 -7.2009 2.6860
5.2503 -7.1904 2.6860
5.3572 -7.1796 2.6860
5.4653 -7.1686 2.6860
5.5745 -7.1572 2.6860
5.6849 -7.1456 2.6860
5.7965 -7.1336 2.6860
4.8772 -5.8775 2.2169
4.9284 -5.8163 2.1977
5.0335 -5.8179 2.2023
5.1363 -5.8149 2.2052
5.2452 -5.8168 2.2102
5.3625 -5.8256 2.2179
6.4856 -6.9025 2.6332
6.4858 -6.7626 2.5852
6.4859 -6.6258 2.5384
6.4861 -6.4920 2.4926
6.4862 -6.3609 2.4478
6.1747 -5.9331 2.2885
6.2015 -5.8386 2.2574
6.4867 -5.9838 2.3193
6.4868 -5.8630 2.2782
6.4869 -5.7445 2.2380
6.4871 -5.6282 2.1986
6.4872 -5.5141 2.1600
6.4873 -5.4020 2.1221
6.4874 -5.2919 2.0849
6.4876 -5.1837 2.0485
6.1937 -4.8472 1.9215
6.1902 -4.7446 1.8868
6.2192 -4.6681 1.8626
6.2209 -4.5722 1.8305
6.2226 -4.4777 1.7990
6.2242 -4.3846 1.7680
6.2258 -4.2929 1.7375
6.2274 -4.2025 1.7074
6.2289 -4.1133 1.6779
6.2305 -4.0253 1.6487
6.2320 -3.9386 1.6201
6.2335 -3.8529 1.5918
6.1896 -3.7409 1.5526
6.1873 -3.6557 1.5244
6.2379 -3.6022 1.5094
6.2393 -3.5207 1.4827
6.2407 -3.4401 1.4563
6.2421 -3.3604 1.4303
6.2435 -3.2816 1.4046
6.2449 -3.2037 1.3792
6.2462 -3.1265 1.3541
5.3663 -2.6200 1.1419
5.3776 -2.5599 1.1230
5.4278 -2.5182 1.1122
5.6795 -2.5671 1.1418
5.8386 -2.5699 1.1515
6.0052 -2.5728 1.1617
6.1283 -2.5544 1.1626
6.2487 -2.5326 1.1623
6.4973 -2.5592 1.1848
6.4975 -2.4857 1.1613
6.4978 -2.4129 1.1380
6.4980 -2.3406 1.1150
6.4982 -2.2689 1.0922
6.4984 -2.1977 1.0696
6.4986 -2.1270 1.0472
-2.3031 -6.7745 2.8384
-2.2244 -6.7809 2.8384
-2.1460 -6.7872 2.8384
-2.0678 -6.7931 2.8384
-1.9899 -6.7989 2.8384
-1.9123 -6.8044 2.8384
-1.8349 -6.8097 2.8384
-0.9048 -3.5078 1.4611
-0.8646 -3.5078 1.4600
-0.8245 -3.5078 1.4590
-0.7847 -3.5078 1.4581
-0.7450 -3.5078 1.4572
-0.7056 -3.5078 1.4564
-0.6662 -3.5078 1.4556
-0.6270 -3.5078 1.4548
-0.5880 -3.5078 1.4541
-0.5490 -3.5078 1.4535
-0.5102 -3.5078 1.4529
-0.4715 -3.5078 1.4523
-0.4329 -3.5078 1.4518
-0.3944 -3.5078 1.4513
-0.3560 -3.5078 1.4509
-0.3177 -3.5078 1.4505
-0.2794 -3.5078 1.4501
-0.2412 -3.5078 1.4498
-0.2030 -3.5078 1.4496
-0.1649 -3.5078 1.4494
-0.1268 -3.5078 1.4492
-0.0888 -3.5078 1.4491
-0.0507 -3.5078 1.4490
-0.0127 -3.5078 1.4490
0.0253 -3.5078 1.4490
0.0634 -3.5078 1.4490
0.1014 -3.5078 1.4491
0.1395 -3.5078 1.4493
0.1776 -3.5078 1.4494
0.2157 -3.5078 1.4497
0.2539 -3.5078 1.4499
0.2921 -3.5078 1.4502
0.3304 -3.5078 1.4506
0.3688 -3.5078 1.4510
0.4072 -3.5078 1.4515
0.4458 -3.5078 1.4519
0.4844 -3.5078 1.4525
0.5231 -3.5078 1.4531
0.5620 -3.5078 1.4537
0.6009 -3.5078 1.4543
0.6400 -3.5078 1.4551
0.6793 -3.5078 1.4558
0.7187 -3.5078 1.4566
0.7582 -3.5078 1.4575
0.7979 -3.5078 1.4584
0.8378 -3.5078 1.4594
0.8779 -3.5078 1.4604
0.9182 -3.5078 1.4614
1.8606 -6.8080 2.8384
1.9381 -6.8026 2.8384
2.0158 -6.7970 2.8384
2.0938 -6.7912 2.8384
2.1720 -6.7851 2.8384
2.2506 -6.7788 2.8384
2.3294 -6.7723 2.8384
2.4085 -6.7655 2.8384
2.4880 -6.7585 2.8384
2.5678 -6.7512 2.8384
2.6479 -6.7437 2.8384
2.7284 -6.7359 2.8384
2.8092 -6.7279 2.8384
2.8904 -6.7196 2.8384
2.9720 -6.7111 2.8384
3.0540 -6.7023 2.8384
3.1365 -6.6932 2.8384
3.2193 -6.6839 2.8384
3.3026 -6.6742 2.8384
3.3864 -6.6643 2.8384
3.4707 -6.6541 2.8384
3.5554 -6.6437 2.8384
3.6406 -6.6329 2.8384
3.7264 -6.6218 2.8384
3.8127 -6.6104 2.8384
3.8995 -6.5988 2.8384
3.9869 -6.5868 2.8384
4.0749 -6.5745 2.8384
4.1636 -6.5619 2.8384
4.2528 -6.5490 2.8384
4.3426 -6.5357 2.8384
4.4332 -6.5221 2.8384
4.5244 -6.5081 2.8384
4.6162 -6.4938 2.8384
4.7088 -6.4791 2.8384
4.7225 -6.3568 2.7913
4.7317 -6.2319 2.7430
4.7435 -6.1137 2.6976
4.8137 -6.0722 2.6860
4.9051 -6.0566 2.6860
4.8769 -5.8952 2.6214
4.9143 -5.8160 2.5933
5.1839 -6.0073 2.6860
5.2786 -5.9900 2.6860
5.3742 -5.9724 2.6860
5.4707 -5.9543 2.6860
5.5681 -5.9358 2.6860
5.6665 -5.9169 2.6860
5.7660 -5.8975 2.6860
5.8664 -5.8777 2.6860
5.9679 -5.8574 2.6860
6.0706 -5.8366 2.6860
6.1743 -5.8153 2.6860
6.2792 -5.7935 2.6860
6.3853 -5.7712 2.6860
6.4873 -5.7437 2.6838
6.4874 -5.6264 2.6397
6.4875 -5.5112 2.5966
6.4877 -5.3981 2.5543
5.7225 -4.6634 2.2164
5.7774 -4.6109 2.2015
5.8439 -4.5673 2.1909
5.9229 -4.5327 2.1848
6.0264 -4.5156 2.1874
6.4903 -4.7610 2.3181
6.2227 -4.4684 2.1871
6.2244 -4.3747 2.1529
6.2260 -4.2824 2.1193
6.2276 -4.1914 2.0862
6.2291 -4.1016 2.0537
6.2307 -4.0131 2.0217
6.2322 -3.9258 1.9902
6.2337 -3.8397 1.9593
6.2131 -3.7413 1.9219
6.1875 -3.6417 1.8838
6.2381 -3.5877 1.8692
6.2396 -3.5057 1.8401
6.2410 -3.4247 1.8114
6.2424 -3.3447 1.7831
6.2438 -3.2655 1.7552
6.2452 -3.1872 1.7277
6.2465 -3.1098 1.7006
5.3768 -2.6102 1.4405
5.3508 -2.5321 1.4106
5.4627 -2.5188 1.4170
5.6740 -2.5482 1.4481
5.8304 -2.5492 1.4640
5.9985 -2.5521 1.4818
6.2334 -2.5794 1.5148
6.2982 -2.5335 1.5056
6.4971 -2.5391 1.5277
6.4974 -2.4654 1.5026
6.4976 -2.3924 1.4777
6.4978 -2.3199 1.4532
6.4980 -2.2480 1.4289
6.4982 -2.1766 1.4049
6.4985 -2.1058 1.3811
6.4987 -2.0354 1.3576
-2.0520 -5.9443 2.8384
-1.9823 -5.9517 2.8384
-1.9129 -5.9589 2.8384
-1.8436 -5.9658 2.8384
-1.7746 -5.9724 2.8384
-1.7057 -5.9788 2.8384
-1.6370 -5.9849 2.8384
-0.9184 -3.5079 1.6620
-0.8776 -3.5079 1.6605
-0.8369 -3.5079 1.6590
-0.7965 -3.5079 1.6576
-0.7562 -3.5079 1.6563
-0.7161 -3.5079 1.6550
-0.6761 -3.5079 1.6538
-0.6363 -3.5079 1.6527
-0.5967 -3.5079 1.6517
-0.5572 -3.5079 1.6507
-0.5178 -3.5079 1.6498
-0.4785 -3.5079 1.6490
-0.4393 -3.5079 1.6482
-0.4002 -3.5079 1.6475
-0.3612 -3.5079 1.6468
-0.3223 -3.5079 1.6463
-0.2835 -3.5079 1.6457
-0.2447 -3.5079 1.6453
-0.2060 -3.5079 1.6449
-0.1673 -3.5079 1.6446
-0.1287 -3.5079 1.6444
-0.0901 -3.5079 1.6442
-0.0515 -3.5079 1.6441
-0.0129 -3.5079 1.6440
0.0257 -3.5079 1.6440
0.0643 -3.5079 1.6441
0.1029 -3.5079 1.6442
0.1415 -3.5079 1.6444
0.1802 -3.5079 1.6447
0.2189 -3.5079 1.6450
0.2576 -3.5079 1.6454
0.2964 -3.5079 1.6459
0.3353 -3.5079 1.6464
0.3742 -3.5079 1.6470
0.4132 -3.5079 1.6477
0.4523 -3.5079 1.6484
0.4915 -3.5079 1.6492
0.5309 -3.5079 1.6501
0.5703 -3.5079 1.6510
0.6098 -3.5079 1.6520
0.6495 -3.5079 1.6531
0.6894 -3.5079 1.6542
0.7294 -3.5079 1.6554
0.7696 -3.5079 1.6567
0.8099 -3.5079 1.6581
0.8504 -3.5079 1.6595
0.8911 -3.5079 1.6610
1.5912 -5.9888 2.8384
1.6598 -5.9829 2.8384
1.7286 -5.9767 2.8384
1.7975 -5.9702 2.8384
1.8666 -5.9635 2.8384
1.9359 -5.9565 2.8384
2.0054 -5.9493 2.8384
2.0752 -5.9417 2.8384
2.1451 -5.9340 2.8384
2.2153 -5.9259 2.8384
2.2857 -5.9175 2.8384
2.3563 -5.9089 2.8384
2.4272 -5.9000 2.8384
2.4983 -5.8907 2.8384
2.5698 -5.8812 2.8384
2.6415 -5.8714 2.8384
2.7134 -5.8614 2.8384
2.7857 -5.8510 2.8384
2.8583 -5.8403 2.8384
2.9312 -5.8293 2.8384
3.0044 -5.8180 2.8384
3.0779 -5.8064 2.8384
3.1518 -5.7944 2.8384
3.2261 -5.7821 2.8384
3.3007 -5.7695 2.8384
3.3756 -5.7566 2.8384
3.4510 -5.7434 2.8384
3.5267 -5.7298 2.8384
3.6029 -5.7158 2.8384
3.6795 -5.7015 2.8384
3.7565 -5.6869 2.8384
3.8339 -5.6719 2.8384
3.9118 -5.6565 2.8384
3.9901 -5.6407 2.8384
4.0690 -5.6246 2.8384
4.1483 -5.6081 2.8384
4.2281 -5.5912 2.8384
4.3084 -5.5739 2.8384
4.3893 -5.5562 2.8384
4.4707 -5.5381 2.8384
4.5527 -5.5195 2.8384
4.6352 -5.5006 2.8384
4.7162 -5.4788 2.8372
4.7247 -5.3734 2.7927
4.7330 -5.2703 2.7493
4.7411 -5.1693 2.7070
4.7855 -5.1093 2.6860
4.8671 -5.0888 2.6860
4.9494 -5.0678 2.6860
5.0324 -5.0464 2.6860
5.1160 -5.0245 2.6860
5.2004 -5.0021 2.6860
5.2855 -4.9792 2.6860
5.3713 -4.9559 2.6860
5.4578 -4.9320 2.6860
5.5451 -4.9076 2.6860
5.6333 -4.8826 2.6860
5.7222 -4.8571 2.6860
5.8120 -4.8310 2.6860
5.9026 -4.8044 2.6860
5.9941 -4.7772 2.6860
6.0865 -4.7494 2.6860
6.1799 -4.7209 2.6860
6.2742 -4.6919 2.6860
6.3695 -4.6622 2.6860
6.4657 -4.6318 2.6860
6.4906 -4.5501 2.6564
5.7050 -3.9131 2.3004
5.6834 -3.8137 2.2579
5.8565 -3.8440 2.2926
5.9801 -3.8387 2.3068
6.4921 -4.0749 2.4678
5.8523 -3.5911 2.1923
5.9213 -3.5513 2.1860
6.0050 -3.5194 2.1849
6.1317 -3.5108 2.1988
6.2399 -3.4896 2.2054
6.2413 -3.4082 2.1742
6.2427 -3.3278 2.1436
6.2441 -3.2483 2.1133
6.2455 -3.1696 2.0835
6.2468 -3.0918 2.0542
5.3770 -2.5945 1.7429
5.3525 -2.5169 1.7102
5.5545 -2.5443 1.7494
5.7587 -2.5685 1.7878
5.9234 -2.5714 1.8127
6.0961 -2.5744 1.8389
6.2067 -2.5485 1.8455
6.4967 -2.5923 1.9041
6.4969 -2.5178 1.8769
6.4972 -2.4440 1.8500
6.4974 -2.3707 1.8235
6.4976 -2.2981 1.7973
6.4978 -2.2260 1.7714
6.4981 -2.1544 1.7459
6.4983 -2.0834 1.7206
6.4985 -2.0130 1.6957
6.4987 -1.9429 1.6710
-1.8476 -5.2687 2.8384
-1.7852 -5.2767 2.8384
-1.7230 -5.2843 2.8384
-1.6610 -5.2917 2.8384
-1.5990 -5.2988 2.8384
-1.5372 -5.3056 2.8384
-1.4756 -5.3121 2.8384
-1.4140 -5.3184 2.8384
-0.8911 -3.5079 1.8701
-0.8498 -3.5079 1.8681
-0.8087 -3.5079 1.8662
-0.7678 -3.5079 1.8644
-0.7271 -3.5079 1.8627
-0.6865 -3.5079 1.8611
-0.6461 -3.5079 1.8596
-0.6058 -3.5079 1.8581
-0.5656 -3.5079 1.8568
-0.5256 -3.5079 1.8556
-0.4858 -3.5079 1.8544
-0.4460 -3.5079 1.8534
-0.4063 -3.5079 1.8524
-0.3667 -3.5079 1.8516
-0.3272 -3.5079 1.8508
-0.2878 -3.5079 1.8501
-0.2484 -3.5079 1.8495
-0.2091 -3.5079 1.8490
-0.1698 -3.5079 1.8486
-0.1306 -3.5079 1.8482
-0.0914 -3.5079 1.8480
-0.0522 -3.5079 1.8478
-0.0131 -3.5079 1.8477
0.0261 -3.5079 1.8478
0.0653 -3.5079 1.8479
0.1044 -3.5079 1.8480
0.1437 -3.5079 1.8483
0.1829 -3.5079 1.8487
0.2222 -3.5079 1.8491
0.2615 -3.5079 1.8497
0.3009 -3.5079 1.8503
0.3403 -3.5079 1.8510
0.3799 -3.5079 1.8518
0.4195 -3.5079 1.8527
0.4592 -3.5079 1.8537
0.4990 -3.5079 1.8548
0.5389 -3.5079 1.8560
0.5790 -3.5079 1.8573
0.6192 -3.5079 1.8586
0.6595 -3.5079 1.8601
0.7000 -3.5079 1.8616
0.7406 -3.5079 1.8633
0.7814 -3.5079 1.8650
0.8224 -3.5079 1.8668
0.8636 -3.5079 1.8688
0.9049 -3.5079 1.8708
1.4345 -5.3163 2.8384
1.4961 -5.3099 2.8384
1.5578 -5.3034 2.8384
1.6196 -5.2964 2.8384
1.6816 -5.2893 2.8384
1.7437 -5.2818 2.8384
1.8059 -5.2741 2.8384
1.8683 -5.2661 2.8384
1.9309 -5.2577 2.8384
1.9936 -5.2492 2.8384
2.0565 -5.2403 2.8384
2.1196 -5.2311 2.8384
2.1828 -5.2216 2.8384
2.2462 -5.2118 2.8384
2.3099 -5.2017 2.8384
2.3737 -5.1913 2.8384
2.4377 -5.1806 2.8384
2.5019 -5.1695 2.8384
2.5664 -5.1582 2.8384
2.6310 -5.1466 2.8384
2.6959 -5.1346 2.8384
2.7610 -5.1223 2.8384
2.8264 -5.1097 2.8384
2.8920 -5.0967 2.8384
2.9579 -5.0834 2.8384
3.0240 -5.0697 2.8384
3.0904 -5.0558 2.8384
3.1571 -5.0414 2.8384
3.2240 -5.0267 2.8384
3.2913 -5.0117 2.8384
3.3589 -4.9963 2.8384
3.4267 -4.9805 2.8384
3.4949 -4.9643 2.8384
3.5634 -4.9478 2.8384
3.6322 -4.9309 2.8384
3.7014 -4.9136 2.8384
3.7709 -4.8959 2.8384
3.8407 -4.8779 2.8384
3.9110 -4.8594 2.8384
3.9816 -4.8405 2.8384
4.0525 -4.8211 2.8384
4.1239 -4.8014 2.8384
4.1957 -4.7812 2.8384
4.2679 -4.7606 2.8384
4.3405 -4.7396 2.8384
4.4135 -4.7181 2.8384
4.4870 -4.6961 2.8384
4.5609 -4.6737 2.8384
4.6353 -4.6508 2.8384
4.7101 -4.6275 2.8384
4.7250 -4.5455 2.8026
4.7325 -4.4580 2.7633
4.7399 -4.3720 2.7248
4.7545 -4.2940 2.6913
4.8185 -4.2613 2.6860
4.8922 -4.2363 2.6860
4.9665 -4.2108 2.6860
5.0413 -4.1847 2.6860
5.1166 -4.1582 2.6860
5.1925 -4.1311 2.6860
5.2690 -4.1034 2.6860
5.3461 -4.0751 2.6860
5.4238 -4.0464 2.6860
5.5021 -4.0170 2.6860
5.5810 -3.9870 2.6860
5.6606 -3.9564 2.6860
5.7408 -3.9251 2.6860
5.8218 -3.8933 2.6860
5.9034 -3.8607 2.6860
5.9857 -3.8276 2.6860
6.0687 -3.7937 2.6860
6.1525 -3.7592 2.6860
6.2136 -3.7100 2.6759
6.2382 -3.6389 2.6503
6.4085 -3.6513 2.6860
6.4933 -3.6126 2.6851
6.4935 -3.5269 2.6494
6.4938 -3.4422 2.6143
5.6948 -2.9451 2.2623
5.7151 -2.8827 2.2404
5.3491 -2.6307 2.0693
5.3645 -2.5713 2.0480
5.3911 -2.5176 2.0313
5.6434 -2.5665 2.0986
5.8037 -2.5693 2.1301
5.9289 -2.5538 2.1478
6.0965 -2.5538 2.1798
6.2187 -2.5321 2.1947
6.4965 -2.5697 2.2632
6.4968 -2.4950 2.2340
6.4970 -2.4209 2.2053
6.4972 -2.3475 2.1770
6.4974 -2.2746 2.1490
6.4977 -2.2024 2.1215
6.4979 -2.1307 2.0943
6.4981 -2.0596 2.0674
6.4983 -1.9889 2.0409
6.4985 -1.9188 2.0148
6.4952 -1.8482 1.9879
-1.6774 -4.7062 2.8384
-1.6210 -4.7143 2.8384
-1.5648 -4.7222 2.8384
-1.5087 -4.7297 2.8384
-1.4526 -4.7369 2.8384
-1.3967 -4.7439 2.8384
-1.3409 -4.7506 2.8384
-1.2851 -4.7570 2.8384
-0.9054 -3.5080 2.0904
-0.8634 -3.5080 2.0879
-0.8216 -3.5080 2.0854
-0.7800 -3.5080 2.0831
-0.7386 -3.5080 2.0809
-0.6974 -3.5080 2.0788
-0.6563 -3.5080 2.0769
-0.6154 -3.5080 2.0751
-0.5746 -3.5080 2.0734
-0.5339 -3.5080 2.0718
-0.4934 -3.5080 2.0703
-0.4530 -3.5080 2.0690
-0.4127 -3.5080 2.0678
-0.3725 -3.5080 2.0666
-0.3323 -3.5080 2.0656
-0.2923 -3.5080 2.0648
-0.2523 -3.5080 2.0640
-0.2124 -3.5080 2.0633
-0.1725 -3.5079 2.0628
-0.1326 -3.5080 2.0623
-0.0928 -3.5080 2.0620
-0.0530 -3.5079 2.0618
-0.0133 -3.5080 2.0617
0.0265 -3.5080 2.0617
0.0663 -3.5080 2.0619
0.1061 -3.5080 2.0621
0.1459 -3.5080 2.0625
0.1857 -3.5080 2.0629
0.2256 -3.5080 2.0635
0.2656 -3.5080 2.0642
0.3056 -3.5080 2.0650
0.3457 -3.5080 2.0660
0.3858 -3.5080 2.0670
0.4261 -3.5080 2.0682
0.4664 -3.5080 2.0694
0.5069 -3.5080 2.0708
0.5474 -3.5080 2.0723
0.5881 -3.5080 2.0739
0.6289 -3.5080 2.0757
0.6699 -3.5080 2.0775
0.7111 -3.5080 2.0795
0.7524 -3.5080 2.0816
0.7938 -3.5080 2.0839
0.8355 -3.5080 2.0862
0.8774 -3.5080 2.0887
0.9195 -3.5080 2.0913
1.3036 -4.7550 2.8384
1.3594 -4.7484 2.8384
1.4153 -4.7416 2.8384
1.4713 -4.7346 2.8384
1.5273 -4.7272 2.8384
1.5835 -4.7196 2.8384
1.6397 -4.7116 2.8384
1.6961 -4.7034 2.8384
1.7526 -4.6949 2.8384
1.8092 -4.6861 2.8384
1.8659 -4.6769 2.8384
1.9228 -4.6675 2.8384
1.9797 -4.6578 2.8384
2.0368 -4.6478 2.8384
2.0941 -4.6375 2.8384
2.1515 -4.6269 2.8384
2.2090 -4.6159 2.8384
2.2666 -4.6046 2.8384
2.3245 -4.5931 2.8384
2.3825 -4.5812 2.8384
2.4406 -4.5690 2.8384
2.4989 -4.5564 2.8384
2.5574 -4.5436 2.8384
2.6160 -4.5304 2.8384
2.6749 -4.5168 2.8384
2.7339 -4.5029 2.8384
2.7931 -4.4887 2.8384
2.8525 -4.4742 2.8384
2.9121 -4.4593 2.8384
2.9719 -4.4440 2.8384
3.0319 -4.4284 2.8384
3.0921 -4.4124 2.8384
3.1526 -4.3960 2.8384
3.2132 -4.3793 2.8384
3.2741 -4.3622 2.8384
3.3352 -4.3447 2.8384
3.3966 -4.3269 2.8384
3.4582 -4.3086 2.8384
3.5201 -4.2900 2.8384
3.5822 -4.2709 2.8384
3.6446 -4.2515 2.8384
3.7073 -4.2316 2.8384
3.7702 -4.2114 2.8384
3.8334 -4.1907 2.8384
3.8969 -4.1696 2.8384
3.9607 -4.1481 2.8384
4.0248 -4.1261 2.8384
4.0891 -4.1036 2.8384
4.1538 -4.0808 2.8384
4.2189 -4.0574 2.8384
4.2842 -4.0336 2.8384
4.3499 -4.0094 2.8384
4.4159 -3.9846 2.8384
4.4822 -3.9594 2.8384
4.5490 -3.9337 2.8384
4.6160 -3.9074 2.8384
4.6835 -3.8807 2.8384
4.7233 -3.8308 2.8217
4.7302 -3.7548 2.7858
4.7369 -3.6799 2.7506
4.7435 -3.6061 2.7161
4.7598 -3.5406 2.6879
4.8226 -3.5100 2.6860
4.8891 -3.4811 2.6860
4.9560 -3.4516 2.6860
5.0233 -3.4216 2.6860
5.0910 -3.3911 2.6860
5.1592 -3.3599 2.6860
5.2278 -3.3282 2.6860
5.2968 -3.2958 2.6860
5.3664 -3.2629 2.6860
5.4364 -3.2293 2.6860
5.5068 -3.1951 2.6860
5.5778 -3.1603 2.6860
5.6493 -3.1247 2.6860
5.7213 -3.0886 2.6860
5.7938 -3.0517 2.6860
5.8669 -3.0142 2.6860
5.9405 -2.9759 2.6860
5.3654 -2.6199 2.3961
5.3777 -2.5586 2.3721
5.4345 -2.5183 2.3679
6.2406 -2.8155 2.6860
6.3171 -2.7734 2.6860
6.2049 -2.6497 2.6065
6.2333 -2.5878 2.5870
6.2794 -2.5331 2.5749
6.4963 -2.5449 2.6321
6.4966 -2.4700 2.6009
6.4968 -2.3958 2.5702
6.4970 -2.3222 2.5399
6.4973 -2.2492 2.5101
6.4975 -2.1768 2.4807
6.4977 -2.1049 2.4517
6.4979 -2.0337 2.4232
6.4981 -1.9629 2.3950
6.4950 -1.8917 2.3660
6.4951 -1.8219 2.3386
6.4952 -1.7526 2.3116
-1.5328 -4.2284 2.8384
-1.4816 -4.2366 2.8384
-1.4304 -4.2445 2.8384
-1.3792 -4.2520 2.8384
-1.3282 -4.2593 2.8384
-1.2772 -4.2663 2.8384
-1.2263 -4.2730 2.8384
-1.1754 -4.2795 2.8384
-0.9205 -3.5080 2.3234
-0.8778 -3.5080 2.3202
-0.8353 -3.5080 2.3172
-0.7929 -3.5080 2.3143
-0.7508 -3.5080 2.3116
-0.7089 -3.5080 2.3090
-0.6671 -3.5080 2.3066
-0.6255 -3.5080 2.3043
-0.5840 -3.5080 2.3022
-0.5427 -3.5080 2.3003
-0.5015 -3.5080 2.2984
-0.4604 -3.5080 2.2968
-0.4194 -3.5080 2.2952
-0.3785 -3.5080 2.2939
-0.3377 -3.5080 2.2926
-0.2970 -3.5080 2.2915
-0.2564 -3.5080 2.2906
-0.2158 -3.5080 2.2897
-0.1753 -3.5080 2.2891
-0.1348 -3.5080 2.2885
-0.0943 -3.5080 2.2881
-0.0539 -3.5080 2.2879
-0.0135 -3.5080 2.2878
0.0269 -3.5080 2.2878
0.0674 -3.5080 2.2880
0.1078 -3.5080 2.2883
0.1483 -3.5080 2.2887
0.1888 -3.5080 2.2893
0.2293 -3.5080 2.2900
0.2699 -3.5080 2.2909
0.3106 -3.5080 2.2919
0.3513 -3.5080 2.2930
0.3921 -3.5080 2.2943
0.4330 -3.5080 2.2957
0.4740 -3.5080 2.2973
0.5152 -3.5080 2.2990
0.5564 -3.5080 2.3009
0.5978 -3.5080 2.3029
0.6393 -3.5080 2.3051
0.6810 -3.5080 2.3074
0.7228 -3.5080 2.3099
0.7648 -3.5080 2.3125
0.8070 -3.5080 2.3152
0.8494 -3.5080 2.3182
0.8920 -3.5080 2.3212
1.0012 -3.7573 2.4896
1.1923 -4.2774 2.8384
1.2432 -4.2709 2.8384
1.2941 -4.2640 2.8384
1.3452 -4.2569 2.8384
1.3962 -4.2496 2.8384
1.4474 -4.2419 2.8384
1.4986 -4.2339 2.8384
1.5499 -4.2257 2.8384
1.6013 -4.2171 2.8384
1.6527 -4.2083 2.8384
1.7043 -4.1992 2.8384
1.7559 -4.1898 2.8384
1.8076 -4.1800 2.8384
1.8594 -4.1700 2.8384
1.9113 -4.1597 2.8384
1.9633 -4.1490 2.8384
2.0154 -4.1381 2.8384
2.0676 -4.1268 2.8384
2.1200 -4.1153 2.8384
2.1724 -4.1034 2.8384
2.2249 -4.0912 2.8384
2.2776 -4.0787 2.8384
2.3304 -4.0659 2.8384
2.3833 -4.0527 2.8384
2.4363 -4.0392 2.8384
2.4894 -4.0254 2.8384
2.5427 -4.0113 2.8384
2.5961 -3.9968 2.8384
2.6497 -3.9819 2.8384
2.7034 -3.9668 2.8384
2.7572 -3.9512 2.8384
2.8112 -3.9354 2.8384
2.8653 -3.9192 2.8384
2.9196 -3.9026 2.8384
2.9740 -3.8856 2.8384
3.0286 -3.8683 2.8384
3.0834 -3.8507 2.8384
3.1383 -3.8326 2.8384
3.1935 -3.8142 2.8384
3.2487 -3.7954 2.8384
3.3042 -3.7761 2.8384
3.3598 -3.7566 2.8384
3.4157 -3.7366 2.8384
3.4717 -3.7162 2.8384
3.5279 -3.6954 2.8384
3.5843 -3.6742 2.8384
3.6409 -3.6526 2.8384
3.6977 -3.6306 2.8384
3.7547 -3.6082 2.8384
3.8119 -3.5853 2.8384
3.8694 -3.5619 2.8384
3.9270 -3.5382 2.8384
3.9849 -3.5140 2.8384
4.0430 -3.4893 2.8384
4.1014 -3.4642 2.8384
4.1600 -3.4386 2.8384
4.2188 -3.4125 2.8384
4.2779 -3.3860 2.8384
4.3372 -3.3590 2.8384
4.3968 -3.3314 2.8384
4.4566 -3.3034 2.8384
4.5167 -3.2749 2.8384
4.5771 -3.2459 2.8384
4.6377 -3.2164 2.8384
4.6986 -3.1862 2.8384
4.7258 -3.1331 2.8181
4.7319 -3.0665 2.7858
4.7380 -3.0008 2.7541
4.7439 -2.9359 2.7229
4.7544 -2.8745 2.6949
4.7980 -2.8334 2.6860
4.8576 -2.8012 2.6860
4.9176 -2.7684 2.6860
4.9778 -2.7350 2.6860
5.0384 -2.7011 2.6860
5.0992 -2.6666 2.6860
5.1604 -2.6314 2.6860
5.2219 -2.5957 2.6860
5.2838 -2.5593 2.6860
5.3460 -2.5223 2.6860
5.4086 -2.4846 2.6860
5.4715 -2.4463 2.6860
5.5347 -2.4073 2.6860
5.5983 -2.3676 2.6860
5.6623 -2.3273 2.6860
5.7267 -2.2862 2.6860
5.7915 -2.2444 2.6860
5.8566 -2.2019 2.6860
5.9222 -2.1586 2.6860
5.9881 -2.1146 2.6860
6.0545 -2.0698 2.6860
6.1213 -2.0242 2.6860
6.1885 -1.9778 2.6860
6.2561 -1.9306 2.6860
6.3242 -1.8825 2.6860
6.3928 -1.8337 2.6860
6.4618 -1.7839 2.6860
6.4951 -1.7238 2.6712
6.4953 -1.6548 2.6430
-1.4081 -3.8161 2.8384
-1.3611 -3.8241 2.8384
-1.3142 -3.8319 2.8384
-1.2674 -3.8394 2.8384
-1.2206 -3.8466 2.8384
-1.1739 -3.8536 2.8384
-1.1272 -3.8602 2.8384
-1.0806 -3.8666 2.8384
-1.0340 -3.8727 2.8384
-0.8931 -3.5081 2.5673
-0.8498 -3.5080 2.5636
-0.8067 -3.5081 2.5601
-0.7638 -3.5080 2.5568
-0.7211 -3.5081 2.5537
-0.6786 -3.5081 2.5508
-0.6362 -3.5081 2.5481
-0.5940 -3.5081 2.5455
-0.5520 -3.5080 2.5431
-0.5100 -3.5081 2.5409
-0.4682 -3.5080 2.5389
-0.4266 -3.5081 2.5370
-0.3850 -3.5081 2.5354
-0.3435 -3.5080 2.5339
-0.3021 -3.5080 2.5325
-0.2608 -3.5080 2.5314
-0.2195 -3.5080 2.5304
-0.1783 -3.5080 2.5296
-0.1371 -3.5081 2.5289
-0.0959 -3.5081 2.5284
-0.0548 -3.5081 2.5281
-0.0137 -3.5081 2.5280
0.0274 -3.5080 2.5280
0.0685 -3.5080 2.5282
0.1096 -3.5081 2.5286
0.1508 -3.5081 2.5291
0.1920 -3.5081 2.5298
0.2332 -3.5081 2.5307
0.2745 -3.5081 2.5317
0.3158 -3.5081 2.5330
0.3573 -3.5081 2.5343
0.3988 -3.5081 2.5359
0.4404 -3.5081 2.5376
0.4821 -3.5081 2.5396
0.5240 -3.5081 2.5416
0.5659 -3.5081 2.5439
0.6080 -3.5081 2.5463
0.6503 -3.5081 2.5490
0.6927 -3.5081 2.5518
0.7353 -3.5081 2.5547
0.7780 -3.5081 2.5579
0.8210 -3.5081 2.5613
0.8641 -3.5081 2.5648
0.9075 -3.5081 2.5686
1.0495 -3.8707 2.8384
1.0961 -3.8645 2.8384
1.1427 -3.8581 2.8384
1.1894 -3.8513 2.8384
1.2362 -3.8443 2.8384
1.2830 -3.8370 2.8384
1.3298 -3.8294 2.8384
1.3767 -3.8215 2.8384
1.4237 -3.8133 2.8384
1.4707 -3.8049 2.8384
1.5177 -3.7962 2.8384
1.5649 -3.7871 2.8384
1.6120 -3.7778 2.8384
1.6593 -3.7682 2.8384
1.7066 -3.7583 2.8384
1.7539 -3.7481 2.8384
1.8014 -3.7376 2.8384
1.8489 -3.7269 2.8384
1.8964 -3.7158 2.8384
1.9441 -3.7044 2.8384
1.9918 -3.6927 2.8384
2.0396 -3.6807 2.8384
2.0875 -3.6683 2.8384
2.1354 -3.6557 2.8384
2.1835 -3.6427 2.8384
2.2316 -3.6295 2.8384
2.2798 -3.6159 2.8384
2.3281 -3.6020 2.8384
2.3765 -3.5878 2.8384
2.4250 -3.5732 2.8384
2.4735 -3.5583 2.8384
2.5222 -3.5431 2.8384
2.5710 -3.5276 2.8384
2.6198 -3.5116 2.8384
2.6688 -3.4954 2.8384
2.7179 -3.4788 2.8384
2.7671 -3.4619 2.8384
2.8164 -3.4446 2.8384
2.8658 -3.4269 2.8384
2.9153 -3.4089 2.8384
2.9649 -3.3906 2.8384
3.0147 -3.3719 2.8384
3.0645 -3.3527 2.8384
3.1145 -3.3332 2.8384
3.1646 -3.3134 2.8384
3.2148 -3.2932 2.8384
3.2652 -3.2726 2.8384
3.3157 -3.2516 2.8384
3.3663 -3.2302 2.8384
3.4171 -3.2084 2.8384
3.4680 -3.1861 2.8384
3.5190 -3.1635 2.8384
3.5702 -3.1405 2.8384
3.6215 -3.1171 2.8384
3.6729 -3.0932 2.8384
3.7245 -3.0689 2.8384
3.7763 -3.0442 2.8384
3.8282 -3.0191 2.8384
3.8803 -2.9935 2.8384
3.9325 -2.9674 2.8384
3.9849 -2.9409 2.8384
4.0374 -2.9140 2.8384
4.0901 -2.8865 2.8384
4.1430 -2.8587 2.8384
4.1961 -2.8303 2.8384
4.2493 -2.8014 2.8384
4.3027 -2.7721 2.8384
4.3562 -2.7423 2.8384
4.6268 -2.5854 2.8384
4.6815 -2.5524 2.8384
4.4100 -2.7119 2.8384
4.7249 -2.5128 2.8316
4.4639 -2.6811 2.8384
4.7304 -2.4533 2.8023
4.5180 -2.6497 2.8384
4.7359 -2.3943 2.7736
4.7413 -2.3359 2.7453
4.5723 -2.6178 2.8384
4.7466 -2.2779 2.7175
4.7576 -2.2233 2.6934
4.9130 -2.1143 2.6907
4.7976 -2.1822 2.6860
4.9581 -2.0739 2.6860
4.8509 -2.1467 2.6860
5.1749 -1.9211 2.6860
5.0120 -2.0366 2.6860
5.2297 -1.8813 2.6860
5.0661 -1.9987 2.6860
5.2847 -1.8409 2.6860
5.1204 -1.9602 2.6860
5.3399 -1.7999 2.6860
5.3953 -1.7581 2.6860
5.4510 -1.7157 2.6860
5.5069 -1.6727 2.6860
5.5630 -1.6289 2.6860
5.6194 -1.5844 2.6860
5.6760 -1.5392 2.6860
5.7329 -1.4933 2.6860
5.7900 -1.4466 2.6860
5.8473 -1.3992 2.6860
-1.2988 -3.4551 2.8384
-1.2557 -3.4630 2.8384
-1.2126 -3.4706 2.8384
-1.1695 -3.4779 2.8384
-1.1264 -3.4850 2.8384
-1.0834 -3.4918 2.8384
-1.0404 -3.4983 2.8384
-0.9974 -3.5046 2.8384
-0.9545 -3.5106 2.8384
-0.9116 -3.5163 2.8384
-0.8687 -3.5218 2.8384
-0.8258 -3.5269 2.8384
-0.7830 -3.5319 2.8384
-0.7401 -3.5365 2.8384
-0.6973 -3.5409 2.8384
-0.6545 -3.5450 2.8384
-0.6118 -3.5489 2.8384
-0.5690 -3.5525 2.8384
-0.5263 -3.5558 2.8384
-0.4836 -3.5589 2.8384
-0.4409 -3.5617 2.8384
-0.3982 -3.5643 2.8384
-0.3555 -3.5666 2.8384
-0.3128 -3.5686 2.8384
-0.2701 -3.5704 2.8384
-0.2275 -3.5719 2.8384
-0.1848 -3.5731 2.8384
-0.1422 -3.5741 2.8384
-0.0995 -3.5748 2.8384
-0.0569 -3.5753 2.8384
-0.0142 -3.5755 2.8384
0.0284 -3.5755 2.8384
0.0711 -3.5752 2.8384
0.1137 -3.5746 2.8384
0.1563 -3.5738 2.8384
0.1990 -3.5728 2.8384
0.2417 -3.5714 2.8384
0.2843 -3.5698 2.8384
0.3270 -3.5680 2.8384
0.3697 -3.5658 2.8384
0.4124 -3.5634 2.8384
0.4551 -3.5608 2.8384
0.4978 -3.5579 2.8384
0.5405 -3.5547 2.8384
0.5832 -3.5513 2.8384
0.6260 -3.5477 2.8384
0.6688 -3.5437 2.8384
0.7116 -3.5395 2.8384
0.7544 -3.5350 2.8384
0.7972 -3.5303 2.8384
0.8401 -3.5253 2.8384
0.8829 -3.5200 2.8384
0.9258 -3.5145 2.8384
0.9688 -3.5086 2.8384
1.0117 -3.5026 2.8384
1.0547 -3.4962 2.8384
1.0977 -3.4896 2.8384
1.1407 -3.4827 2.8384
1.1838 -3.4755 2.8384
1.2269 -3.4681 2.8384
1.2700 -3.4604 2.8384
1.3132 -3.4523 2.8384
1.3564 -3.4441 2.8384
1.3996 -3.4356 2.8384
1.4429 -3.4267 2.8384
1.4862 -3.4176 2.8384
1.5296 -3.4082 2.8384
1.5730 -3.3985 2.8384
1.6164 -3.3885 2.8384
1.6599 -3.3783 2.8384
1.7034 -3.3677 2.8384
1.7470 -3.3569 2.8384
1.7906 -3.3458 2.8384
1.8343 -3.3343 2.8384
1.8780 -3.3226 2.8384
1.9217 -3.3106 2.8384
1.9656 -3.2982 2.8384
2.0094 -3.2856 2.8384
2.0534 -3.2727 2.8384
2.0973 -3.2594 2.8384
2.1414 -3.2459 2.8384
2.1855 -3.2320 2.8384
2.2296 -3.2179 2.8384
2.2738 -3.2034 2.8384
2.3181 -3.1885 2.8384
2.3624 -3.1734 2.8384
2.4068 -3.1580 2.8384
2.4513 -3.1422 2.8384
2.4958 -3.1261 2.8384
2.5404 -3.1096 2.8384
2.5850 -3.0928 2.8384
2.6298 -3.0757 2.8384
2.6746 -3.0583 2.8384
2.7194 -3.0405 2.8384
2.7644 -3.0224 2.8384
2.8094 -3.0039 2.8384
2.8545 -2.9850 2.8384
2.8996 -2.9658 2.8384
2.9449 -2.9463 2.8384
2.9902 -2.9263 2.8384
3.0356 -2.9061 2.8384
3.0810 -2.8854 2.8384
3.1266 -2.8644 2.8384
3.1722 -2.8430 2.8384
3.2179 -2.8212 2.8384
3.2637 -2.7990 2.8384
3.3096 -2.7765 2.8384
3.3556 -2.7536 2.8384
3.4016 -2.7302 2.8384
3.4478 -2.7065 2.8384
3.4940 -2.6823 2.8384
3.5403 -2.6578 2.8384
3.7265 -2.5554 2.8384
3.5867 -2.6328 2.8384
3.7733 -2.5288 2.8384
3.6332 -2.6075 2.8384
3.8202 -2.5017 2.8384
3.6798 -2.5817 2.8384
3.8672 -2.4742 2.8384
3.9614 -2.4178 2.8384
3.9142 -2.4462 2.8384
4.0087 -2.3889 2.8384
4.1988 -2.2687 2.8384
4.0560 -2.3596 2.8384
4.2465 -2.2375 2.8384
4.1035 -2.3297 2.8384
4.2944 -2.2057 2.8384
4.1511 -2.2995 2.8384
4.3424 -2.1735 2.8384
4.4387 -2.1075 2.8384
4.3905 -2.1408 2.8384
4.4870 -2.0738 2.8384
4.6813 -1.9336 2.8384
4.5354 -2.0395 2.8384
4.7257 -1.8953 2.8358
4.5839 -2.0047 2.8384
4.7307 -1.8413 2.8097
4.6326 -1.9694 2.8384
4.7356 -1.7877 2.7840
4.7451 -1.6816 2.7338
4.7404 -1.7344 2.7587
4.7498 -1.6290 2.7094
4.7627 -1.5800 2.6900
4.8027 -1.5390 2.6860
4.8498 -1.5002 2.6860
4.8970 -1.4608 2.6860
4.9443 -1.4207 2.6860
4.9916 -1.3802 2.6860
5.0392 -1.3389 2.6860
5.0868 -1.2971 2.6860
5.1345 -1.2546 2.6860
5.1823 -1.2116 2.6860
5.2302 -1.1678 2.6860
-1.2020 -3.1350 2.8384
-1.1622 -3.1427 2.8384
-1.1224 -3.1502 2.8384
-1.0826 -3.1573 2.8384
-1.0428 -3.1642 2.8384
-1.0031 -3.1708 2.8384
-0.9633 -3.1772 2.8384
-0.9236 -3.1833 2.8384
-0.8839 -3.1891 2.8384
-0.8442 -3.1947 2.8384
-0.8046 -3.2000 2.8384
-0.7649 -3.2051 2.8384
-0.7253 -3.2099 2.8384
-0.6856 -3.2144 2.8384
-0.6460 -3.2187 2.8384
-0.6064 -3.2227 2.8384
-0.5668 -3.2265 2.8384
-0.5272 -3.2300 2.8384
-0.4876 -3.2333 2.8384
-0.4481 -3.2363 2.8384
-0.4085 -3.2390 2.8384
-0.3690 -3.2415 2.8384
-0.3294 -3.2438 2.8384
-0.2899 -3.2457 2.8384
-0.2503 -3.2475 2.8384
-0.2108 -3.2489 2.8384
-0.1713 -3.2502 2.8384
-0.1318 -3.2511 2.8384
-0.0922 -3.2518 2.8384
-0.0527 -3.2523 2.8384
-0.0132 -3.2525 2.8384
0.0263 -3.2524 2.8384
0.0659 -3.2522 2.8384
0.1054 -3.2516 2.8384
0.1449 -3.2508 2.8384
0.1844 -3.2498 2.8384
0.2240 -3.2485 2.8384
0.2635 -3.2469 2.8384
0.3030 -3.2451 2.8384
0.3426 -3.2430 2.8384
0.3821 -3.2407 2.8384
0.4217 -3.2381 2.8384
0.4612 -3.2353 2.8384
0.5008 -3.2322 2.8384
0.5404 -3.2289 2.8384
0.5800 -3.2253 2.8384
0.6196 -3.2214 2.8384
0.6592 -3.2173 2.8384
0.6988 -3.2129 2.8384
0.7384 -3.2083 2.8384
0.9765 -3.1751 2.8384
0.7781 -3.2034 2.8384
0.8178 -3.1983 2.8384
1.0163 -3.1687 2.8384
0.8574 -3.1929 2.8384
1.0560 -3.1620 2.8384
0.8971 -3.1872 2.8384
1.0958 -3.1550 2.8384
0.9368 -3.1813 2.8384
1.1356 -3.1477 2.8384
1.1754 -3.1402 2.8384
1.2153 -3.1324 2.8384
1.3748 -3.0986 2.8384
1.2551 -3.1244 2.8384
1.4147 -3.0895 2.8384
1.2950 -3.1161 2.8384
1.4547 -3.0800 2.8384
1.3349 -3.1075 2.8384
1.4947 -3.0703 2.8384
1.5748 -3.0501 2.8384
1.5347 -3.0604 2.8384
1.6148 -3.0396 2.8384
1.7754 -2.9946 2.8384
1.6549 -3.0288 2.8384
1.6951 -3.0177 2.8384
1.8156 -2.9827 2.8384
1.7352 -3.0063 2.8384
1.8558 -2.9704 2.8384
1.9767 -2.9319 2.8384
1.8961 -2.9579 2.8384
2.0171 -2.9185 2.8384
1.9364 -2.9451 2.8384
2.0575 -2.9048 2.8384
2.1789 -2.8618 2.8384
2.0979 -2.8908 2.8384
2.2194 -2.8469 2.8384
2.1384 -2.8764 2.8384
2.2600 -2.8316 2.8384
2.3819 -2.7840 2.8384
2.4226 -2.7674 2.8384
2.3006 -2.8160 2.8384
2.4634 -2.7506 2.8384
2.3412 -2.8002 2.8384
2.5042 -2.7334 2.8384
2.5858 -2.6982 2.8384
2.5450 -2.7160 2.8384
2.6267 -2.6800 2.8384
2.7907 -2.6041 2.8384
2.6677 -2.6616 2.8384
2.8318 -2.5843 2.8384
2.7087 -2.6428 2.8384
2.8730 -2.5641 2.8384
2.9142 -2.5435 2.8384
2.7497 -2.6236 2.8384
2.9554 -2.5227 2.8384
2.9966 -2.5014 2.8384
3.2036 -2.3898 2.8384
3.0379 -2.4799 2.8384
3.2451 -2.3663 2.8384
3.2867 -2.3425 2.8384
3.0793 -2.4579 2.8384
3.3283 -2.3183 2.8384
3.1207 -2.4355 2.8384
3.3699 -2.2937 2.8384
3.1621 -2.4128 2.8384
3.4116 -2.2687 2.8384
3.4533 -2.2433 2.8384
3.6207 -2.1377 2.8384
3.4951 -2.2175 2.8384
3.6626 -2.1103 2.8384
3.8308 -1.9965 2.8384
3.5369 -2.1913 2.8384
3.5788 -2.1647 2.8384
3.7046 -2.0825 2.8384
3.8729 -1.9669 2.8384
4.0419 -1.8443 2.8384
3.7466 -2.0542 2.8384
4.0843 -1.8125 2.8384
3.9151 -1.9369 2.8384
3.7887 -2.0256 2.8384
4.1267 -1.7802 2.8384
3.9574 -1.9065 2.8384
4.1691 -1.7475 2.8384
4.2540 -1.6806 2.8384
3.9996 -1.8756 2.8384
4.2115 -1.7143 2.8384
4.2966 -1.6465 2.8384
4.4670 -1.5049 2.8384
4.3391 -1.6118 2.8384
4.5097 -1.4682 2.8384
4.3817 -1.5767 2.8384
4.5525 -1.4310 2.8384
4.4244 -1.5410 2.8384
4.5952 -1.3933 2.8384
4.6808 -1.3163 2.8384
4.6380 -1.3551 2.8384
4.7236 -1.2770 2.8384
4.7308 -1.2279 2.8172
4.7351 -1.1783 2.7946
4.7394 -1.1289 2.7724
4.7436 -1.0798 2.7505
4.7477 -1.0308 2.7289
4.7517 -0.9821 2.7077
-1.1152 -2.8483 2.8384
-1.0784 -2.8557 2.8384
-1.0415 -2.8629 2.8384
-1.0047 -2.8698 2.8384
-0.9679 -2.8765 2.8384
-0.9310 -2.8829 2.8384
-0.8942 -2.8891 2.8384
-0.8574 -2.8950 2.8384
-0.8206 -2.9007 2.8384
-0.7838 -2.9061 2.8384
-0.7470 -2.9113 2.8384
-0.7102 -2.9162 2.8384
-0.6735 -2.9208 2.8384
-0.6367 -2.9252 2.8384
-0.5999 -2.9294 2.8384
-0.5632 -2.9333 2.8384
-0.5264 -2.9369 2.8384
-0.4897 -2.9404 2.8384
-0.4529 -2.9435 2.8384
-0.4162 -2.9464 2.8384
-0.3795 -2.9491 2.8384
-0.3427 -2.9515 2.8384
-0.3060 -2.9537 2.8384
-0.2693 -2.9556 2.8384
-0.2326 -2.9573 2.8384
-0.1958 -2.9587 2.8384
-0.1591 -2.9599 2.8384
-0.1224 -2.9609 2.8384
-0.0857 -2.9615 2.8384
-0.0490 -2.9620 2.8384
-0.0123 -2.9622 2.8384
0.0245 -2.9622 2.8384
0.0612 -2.9619 2.8384
0.0979 -2.9614 2.8384
0.1346 -2.9606 2.8384
0.1713 -2.9596 2.8384
0.2081 -2.9583 2.8384
0.2448 -2.9568 2.8384
0.2815 -2.9550 2.8384
0.3182 -2.9530 2.8384
0.3550 -2.9507 2.8384
0.5387 -2.9358 2.8384
0.3917 -2.9482 2.8384
0.5754 -2.9320 2.8384
0.4284 -2.9455 2.8384
0.6122 -2.9280 2.8384
0.4652 -2.9425 2.8384
0.6489 -2.9238 2.8384
0.5019 -2.9393 2.8384
0.6857 -2.9193 2.8384
0.7225 -2.9146 2.8384
0.9065 -2.8871 2.8384
0.7593 -2.9096 2.8384
0.9433 -2.8808 2.8384
0.7960 -2.9044 2.8384
0.9801 -2.8743 2.8384
0.8328 -2.8988 2.8384
1.0169 -2.8676 2.8384
0.8696 -2.8931 2.8384
1.0906 -2.8532 2.8384
1.0538 -2.8605 2.8384
1.1275 -2.8457 2.8384
1.2750 -2.8129 2.8384
1.1644 -2.8379 2.8384
1.3120 -2.8041 2.8384
1.2012 -2.8299 2.8384
1.3489 -2.7950 2.8384
1.2381 -2.8215 2.8384
1.3858 -2.7856 2.8384
1.4597 -2.7660 2.8384
1.4227 -2.7760 2.8384
1.4967 -2.7559 2.8384
1.6447 -2.7124 2.8384
1.5336 -2.7454 2.8384
1.6817 -2.7009 2.8384
1.5706 -2.7347 2.8384
1.7187 -2.6890 2.8384
1.6076 -2.7237 2.8384
1.7558 -2.6770 2.8384
1.8299 -2.6519 2.8384
1.7928 -2.6646 2.8384
1.8670 -2.6390 2.8384
2.0155 -2.5843 2.8384
1.9041 -2.6257 2.8384
2.0526 -2.5699 2.8384
1.9412 -2.6122 2.8384
2.0898 -2.5553 2.8384
1.9783 -2.5984 2.8384
2.1270 -2.5403 2.8384
2.2014 -2.5094 2.8384
2.3876 -2.4270 2.8384
2.2386 -2.4936 2.8384
2.1641 -2.5250 2.8384
2.4248 -2.4096 2.8384
2.2758 -2.4774 2.8384
2.5741 -2.3369 2.8384
2.4621 -2.3919 2.8384
2.3130 -2.4609 2.8384
2.4994 -2.3739 2.8384
2.6114 -2.3179 2.8384
2.3503 -2.4441 2.8384
2.5367 -2.3556 2.8384
2.6487 -2.2986 2.8384
2.9479 -2.1321 2.8384
2.7608 -2.2387 2.8384
2.9853 -2.1098 2.8384
2.6861 -2.2789 2.8384
2.7982 -2.2180 2.8384
3.0227 -2.0871 2.8384
2.7235 -2.2590 2.8384
2.8356 -2.1971 2.8384
3.0602 -2.0640 2.8384
3.1351 -2.0169 2.8384
3.0976 -2.0407 2.8384
2.8730 -2.1758 2.8384
3.3224 -1.8926 2.8384
3.5097 -1.7589 2.8384
2.9104 -2.1541 2.8384
3.1725 -1.9927 2.8384
3.5472 -1.7310 2.8384
3.3599 -1.8666 2.8384
3.2100 -1.9683 2.8384
3.6970 -1.6154 2.8384
3.5847 -1.7027 2.8384
3.3973 -1.8403 2.8384
3.2475 -1.9434 2.8384
3.7344 -1.5855 2.8384
3.6221 -1.6740 2.8384
3.4348 -1.8136 2.8384
3.2849 -1.9182 2.8384
3.7718 -1.5551 2.8384
3.6596 -1.6449 2.8384
3.4723 -1.7864 2.8384
3.8840 -1.4616 2.8384
4.0707 -1.2970 2.8384
3.8093 -1.5244 2.8384
4.1079 -1.2627 2.8384
3.9214 -1.4295 2.8384
3.8467 -1.4932 2.8384
4.1452 -1.2281 2.8384
3.9587 -1.3971 2.8384
4.2567 -1.1211 2.8384
4.1824 -1.1929 2.8384
3.9961 -1.3642 2.8384
4.2195 -1.1573 2.8384
4.2938 -1.0846 2.8384
4.0334 -1.3308 2.8384
4.3309 -1.0475 2.8384
4.3679 -1.0100 2.8384
4.4049 -0.9720 2.8384
4.4419 -0.9335 2.8384
4.4788 -0.8945 2.8384
4.5157 -0.8550 2.8384
-1.0367 -2.5887 2.8384
-0.8658 -2.6222 2.8384
-1.0025 -2.5959 2.8384
-0.6949 -2.6496 2.8384
-0.8316 -2.6282 2.8384
-0.9683 -2.6028 2.8384
-0.9341 -2.6095 2.8384
-0.7974 -2.6339 2.8384
-0.6607 -2.6543 2.8384
-0.5240 -2.6709 2.8384
-0.9000 -2.6160 2.8384
-0.7632 -2.6394 2.8384
-0.6265 -2.6588 2.8384
-0.4898 -2.6744 2.8384
-0.3531 -2.6862 2.8384
-0.7291 -2.6446 2.8384
-0.5923 -2.6631 2.8384
-0.3189 -2.6885 2.8384
-0.4556 -2.6777 2.8384
-0.1823 -2.6955 2.8384
-0.5582 -2.6671 2.8384
-0.2848 -2.6906 2.8384
-0.4215 -2.6807 2.8384
-0.1481 -2.6966 2.8384
-0.2506 -2.6924 2.8384
-0.0114 -2.6988 2.8384
-0.3873 -2.6836 2.8384
-0.1139 -2.6975 2.8384
-0.2164 -2.6941 2.8384
0.0228 -2.6988 2.8384
-0.0797 -2.6982 2.8384
0.3303 -2.6877 2.8384
0.1595 -2.6963 2.8384
0.0569 -2.6985 2.8384
0.3645 -2.6853 2.8384
-0.0456 -2.6986 2.8384
0.1936 -2.6950 2.8384
0.0911 -2.6980 2.8384
0.5012 -2.6732 2.8384
0.3987 -2.6827 2.8384
0.6721 -2.6528 2.8384
0.2278 -2.6935 2.8384
0.4328 -2.6797 2.8384
0.1253 -2.6973 2.8384
0.7062 -2.6479 2.8384
0.2620 -2.6919 2.8384
0.4670 -2.6766 2.8384
0.7404 -2.6429 2.8384
0.8430 -2.6262 2.8384
0.2961 -2.6899 2.8384
0.7746 -2.6376 2.8384
0.8772 -2.6202 2.8384
0.5354 -2.6696 2.8384
0.8088 -2.6320 2.8384
0.9113 -2.6139 2.8384
1.1848 -2.5546 2.8384
0.5695 -2.6658 2.8384
0.9455 -2.6074 2.8384
1.2190 -2.5461 2.8384
0.6037 -2.6617 2.8384
0.9797 -2.6006 2.8384
1.3558 -2.5094 2.8384
1.2532 -2.5373 2.8384
1.0139 -2.5935 2.8384
1.5267 -2.4578 2.8384
0.6379 -2.6573 2.8384
1.3899 -2.4996 2.8384
1.5609 -2.4467 2.8384
1.2874 -2.5283 2.8384
1.6976 -2.3996 2.8384
1.5950 -2.4353 2.8384
1.4241 -2.4895 2.8384
1.0481 -2.5862 2.8384
1.3216 -2.5190 2.8384
1.6292 -2.4237 2.8384
1.7318 -2.3871 2.8384
1.4583 -2.4792 2.8384
1.0823 -2.5787 2.8384
1.8684 -2.3346 2.8384
1.6634 -2.4117 2.8384
1.7659 -2.3744 2.8384
1.4925 -2.4686 2.8384
1.1164 -2.5709 2.8384
2.0392 -2.2628 2.8384
1.9026 -2.3208 2.8384
1.8001 -2.3614 2.8384
2.2097 -2.1839 2.8384
1.1506 -2.5629 2.8384
2.0733 -2.2476 2.8384
1.9367 -2.3067 2.8384
2.2438 -2.1673 2.8384
1.8343 -2.3482 2.8384
2.1074 -2.2321 2.8384
