ply
format ascii 1.0
element vertex 1642
property float32 x
property float32 y
property float32 z
end_header
-5.2858 9.8410 -5.1302
-5.8739 10.1369 -5.3217
-6.1258 10.3148 -5.4285
-6.2484 10.2687 -5.4180
-6.3714 10.2226 -5.4078
-6.4948 10.1763 -5.3978
-5.4759 9.9368 -5.1919
-6.6187 10.1300 -5.3881
-6.7431 10.0836 -5.3787
-5.6718 10.0353 -5.2557
-6.8492 10.0095 -5.3547
-7.5162 9.8208 -5.3373
-7.4689 9.5478 -5.2066
-6.9259 9.8938 -5.3087
-7.4239 9.2861 -5.0817
-7.1767 10.0232 -5.3946
-7.3482 8.9948 -4.9400
-7.2350 9.8810 -5.3349
-7.3075 8.7547 -4.8259
-7.6690 8.9934 -4.9762
-7.2833 9.7286 -5.2697
-8.2246 9.0504 -5.0679
-7.2236 8.2925 -4.6063
-7.1848 8.0750 -4.5034
-28.9705 10.0598 -8.7428
-30.0295 9.4404 -8.6992
-29.3181 9.8568 -8.7280
-29.0741 8.8261 -8.3082
-27.4276 8.9207 -8.0547
-29.4330 8.6195 -8.2964
-29.0198 8.1894 -8.0685
-22.9682 6.2386 -6.2988
-23.0303 6.0133 -6.2295
-23.0871 5.3084 -5.9909
-23.0922 5.7881 -6.1606
-22.9802 5.0477 -5.8807
-23.1540 5.5630 -6.0922
-7.2809 1.3770 -1.7865
-22.8748 4.7906 -5.7725
-7.2691 1.4484 -1.8088
-23.8275 4.2663 -5.7644
-25.0885 3.7398 -5.8155
-24.0216 4.0600 -5.7295
-25.1514 3.4996 -5.7468
-23.9999 3.8164 -5.6434
-25.0975 3.2440 -5.6522
-24.5858 2.6941 -5.3778
-24.9338 2.9772 -5.5342
-24.8247 2.4771 -5.3508
-25.6425 1.8089 -5.2854
-25.1187 2.2610 -5.3346
-25.7164 1.5645 -5.2212
-25.0887 2.0138 -5.2494
-26.3638 1.3484 -5.2719
-27.0322 0.8601 -5.2417
-26.6939 1.1071 -5.2567
-27.9853 0.6204 -5.3427
-28.2520 -0.1900 -5.1432
-28.0739 0.3518 -5.2761
-28.3417 -0.4633 -5.0770
-28.1628 0.0817 -5.2096
-34.0704 -0.8847 -6.0046
-32.7840 -1.1666 -5.6836
-32.8851 -1.4867 -5.6071
-5.4478 10.3109 -4.7174
-5.3258 9.8255 -4.5036
-5.7083 10.0172 -4.6090
-5.5142 9.9199 -4.5554
-5.9084 10.1174 -4.6644
-6.3640 10.1434 -4.7061
-6.0791 10.1608 -4.6941
-6.5087 10.1347 -4.7126
-6.2208 10.1522 -4.7000
-6.5218 9.9231 -4.6247
-6.7634 9.8327 -4.6045
-6.6423 9.8779 -4.6145
-7.1608 10.1793 -4.7787
-7.1543 9.5182 -4.5035
-7.1088 9.8830 -4.6514
-7.1181 9.2663 -4.3964
-7.1265 9.6912 -4.5731
-7.5251 9.5867 -4.5613
-8.0242 9.7939 -4.6875
-7.4137 9.2440 -4.4111
-7.2535 8.6671 -4.1609
-8.1731 9.1684 -4.4444
-8.2169 9.0270 -4.3908
-7.0732 8.2749 -3.9851
-7.1754 8.2197 -3.9713
-28.1557 9.2579 -6.7788
-28.7634 10.0890 -7.1443
-28.1198 9.5535 -6.8767
-28.7527 9.1422 -6.8148
-28.3382 8.1006 -6.4049
-28.8399 8.8592 -6.7286
-28.6099 7.8760 -6.3636
-28.6332 8.4892 -6.5754
-30.9902 8.2060 -6.7829
-31.3254 7.6429 -6.6370
-31.4945 7.3592 -6.5642
-31.1574 7.9251 -6.7099
-25.3859 5.6713 -5.2043
-25.5241 5.1822 -5.0605
-25.4551 5.4268 -5.1323
-7.2631 1.4012 -1.4159
-25.5179 4.1552 -4.7242
-25.6621 4.6923 -4.9179
-25.2442 3.8595 -4.5923
-25.7311 4.4469 -4.8470
-28.1086 4.0189 -5.0237
-28.3005 3.4880 -4.8795
-28.5676 3.2405 -4.8365
-28.3013 3.7668 -4.9686
-28.9371 2.9991 -4.8094
-32.4547 2.7305 -5.1952
-32.3566 3.0374 -5.2783
-32.8498 1.4897 -4.8636
-31.7351 2.3614 -4.9837
-32.9493 1.1760 -4.7808
-33.1520 0.8634 -4.7127
-32.5794 2.1081 -5.0181
-32.7506 1.8019 -4.9464
-48.9704 0.8033 -6.8180
-49.4323 -0.1411 -6.5954
-6.9720 26.5211 -10.3129
-7.3926 26.9498 -10.4862
-7.6500 26.7674 -10.4220
-6.0362 11.3166 -4.4929
-5.3630 9.8052 -3.8980
-5.5371 9.8759 -3.9316
-5.7157 9.9485 -3.9661
-5.8990 10.0231 -4.0017
-6.0873 10.0999 -4.0383
-6.5677 10.6436 -4.2623
-6.6834 10.5821 -4.2444
-6.7820 10.4940 -4.2159
-6.4474 9.7518 -3.9243
-6.5877 9.7419 -3.9271
-6.7296 9.7319 -3.9300
-7.0359 9.9520 -4.0262
-7.2207 9.9917 -4.0498
-7.2168 9.7711 -3.9679
-7.3731 9.7691 -3.9750
-7.5318 9.7673 -3.9823
-7.5977 9.6447 -3.9404
-7.6349 9.4885 -3.8849
-7.6718 9.3354 -3.8306
-7.0807 8.4370 -3.4698
-7.1661 8.3622 -3.4470
-7.7487 8.8560 -3.6593
-8.4736 9.4857 -3.9290
-8.5669 9.3941 -3.9008
-8.6600 9.3026 -3.8727
-8.7530 9.2113 -3.8449
-8.8459 9.1201 -3.8172
-29.0156 11.2451 -6.0075
-28.8582 11.8419 -6.1929
-29.0939 10.9481 -5.9156
-28.9371 11.5430 -6.0999
-29.1718 10.6518 -5.8242
-29.3268 10.0615 -5.6429
-29.2495 10.3563 -5.7333
-30.5287 10.1409 -5.7654
-31.0121 9.9656 -5.7472
-31.1029 9.6604 -5.6554
-27.9527 6.0592 -4.2412
-32.8607 7.7949 -5.1993
-28.0225 5.7900 -4.1618
-27.8828 6.3284 -4.3208
-7.2581 1.4264 -1.0548
-7.3105 1.3631 -1.0393
-28.6263 4.7654 -3.8903
-40.8979 5.1906 -5.0553
-30.2257 3.5396 -3.6447
-40.6283 3.9637 -4.6551
-40.7172 4.3698 -4.7872
-40.5403 3.5603 -4.5243
-40.2812 2.3653 -4.1390
-40.4531 3.1595 -4.3947
-40.1965 1.9717 -4.0128
-40.3668 2.7612 -4.2663
-40.1125 1.5802 -3.8876
-40.1022 1.1929 -3.7704
-48.5356 0.9760 -4.4231
-48.9612 0.5130 -4.3211
-47.9803 0.0407 -4.0969
-48.8626 -0.4288 -4.0326
-49.2311 -0.9059 -3.9228
-6.4600 27.2834 -9.1256
-6.7502 27.2276 -9.1094
-7.0621 27.2549 -9.1212
-7.2425 26.7880 -8.9676
-7.5080 26.6551 -8.9260
-7.7528 26.4560 -8.8622
-5.2926 10.0795 -3.4074
-5.4469 10.1170 -3.4223
-5.6039 10.1550 -3.4374
-5.7638 10.1937 -3.4529
-5.9845 10.3328 -3.5025
-6.2265 10.4988 -3.5614
-6.4319 10.5940 -3.5964
-6.0116 9.6751 -3.2870
-6.1955 9.7453 -3.3135
-6.3844 9.8175 -3.3408
-6.5784 9.8913 -3.3687
-6.8165 10.0241 -3.4169
-6.9281 9.9661 -3.4002
-7.1537 10.0683 -3.4382
-7.0730 9.7414 -3.3297
-7.1135 9.5888 -3.2807
-7.1533 9.4387 -3.2325
-7.3938 9.5513 -3.2744
-7.9850 10.0998 -3.4661
-7.1630 8.8721 -3.0481
-6.4942 7.8778 -2.7095
-7.1000 8.4358 -2.9047
-8.1928 9.5352 -3.2872
-8.3417 9.5108 -3.2827
-8.4337 9.4205 -3.2556
-8.5255 9.3305 -3.2286
-8.6171 9.2406 -3.2016
-8.7087 9.1508 -3.1748
-40.4911 10.9995 -4.7832
-40.3996 10.5546 -4.6439
-40.3092 10.1142 -4.5063
-40.2198 9.6781 -4.3702
-40.1313 9.2463 -4.2355
-40.0438 8.8184 -4.1022
-39.9572 8.3944 -3.9703
-7.2678 1.4535 -0.6999
-7.2698 1.3809 -0.6780
-39.7026 7.1445 -3.5824
-39.6193 6.7347 -3.4555
-39.5368 6.3282 -3.3297
-39.4551 5.9247 -3.2051
-39.3741 5.5242 -3.0816
-39.2937 5.1266 -2.9591
-30.2587 3.6512 -2.1895
-30.0835 3.3359 -2.0886
-39.1492 3.9592 -2.6035
-39.2322 3.5858 -2.4947
-39.3151 3.2115 -2.3858
-39.1691 2.8198 -2.2636
-39.1758 2.4411 -2.1509
-39.1824 2.0627 -2.0385
-39.3080 1.6898 -1.9321
-49.6418 1.6552 -2.2978
-49.5511 1.1747 -2.1520
-49.5944 -0.2568 -1.7299
-5.9472 26.7261 -7.5437
-6.3061 27.0125 -7.6237
-6.6280 27.1163 -7.6522
-6.9180 27.0808 -7.6414
-7.1138 26.6891 -7.5300
-7.4364 26.7803 -7.5548
-7.5183 26.0257 -7.3410
-8.0322 26.7612 -7.5475
-8.4098 27.0003 -7.6138
-5.4705 10.0687 -2.8286
-5.6255 10.1060 -2.8383
-5.7833 10.1439 -2.8482
-5.9220 10.1447 -2.8476
-6.0602 10.1420 -2.8460
-6.1999 10.1392 -2.8443
-6.3412 10.1364 -2.8427
-6.4841 10.1335 -2.8409
-6.6869 10.2197 -2.8642
-6.7545 10.0972 -2.8289
-6.4817 9.4793 -2.6548
-6.6711 9.5465 -2.6727
-7.0467 9.8690 -2.7620
-7.4544 10.2191 -2.8589
-7.3936 9.9229 -2.7749
-7.0807 9.3047 -2.6009
-7.0498 9.0719 -2.5348
-7.7633 9.7842 -2.7327
-6.6267 8.1805 -2.2838
-7.9484 9.6119 -2.6822
-8.0332 9.5173 -2.6545
-8.1407 9.4497 -2.6344
-8.0260 9.1288 -2.5437
-8.1965 9.1357 -2.5443
-8.2324 8.9920 -2.5030
-8.2678 8.8504 -2.4623
-8.3027 8.7107 -2.4220
-39.2880 12.4577 -3.1754
-39.2046 12.0144 -3.0472
-39.1220 11.5758 -2.9204
-38.6917 11.0422 -2.7698
-38.6987 10.6403 -2.6525
-39.0377 10.3284 -2.5575
-39.0448 9.9273 -2.4404
-39.0517 9.5281 -2.3237
-39.0587 9.1309 -2.2076
-39.0656 8.7354 -2.0919
-39.0725 8.3416 -1.9767
-39.0794 7.9494 -1.8619
-7.2591 1.4038 -0.3246
-39.0930 7.1695 -1.6335
-39.0998 6.7816 -1.5198
-39.1066 6.3949 -1.4064
-39.1895 6.0211 -1.2959
-39.2725 5.6470 -1.1851
-39.2793 5.2621 -1.0721
-37.9063 4.7068 -0.9257
-30.1139 3.4450 -0.6490
-39.2994 4.1128 -0.7344
-37.9164 3.5992 -0.6002
-39.3127 3.3502 -0.5101
-37.8640 2.8598 -0.3834
-37.9204 2.4971 -0.2760
-39.1800 2.2015 -0.1737
-39.1866 1.8236 -0.0623
-40.5229 1.4951 0.0507
-49.8065 1.3576 0.2038
-7.2025 43.3298 -10.0569
-7.7176 43.6532 -10.1275
-5.4404 27.4712 -6.3670
-5.7383 27.4927 -6.3686
-6.0337 27.4949 -6.3655
-6.2310 27.0658 -6.2624
-6.4845 26.9026 -6.2208
-6.7320 26.7246 -6.1755
-7.0843 26.9546 -6.2244
-7.2194 26.3679 -6.0845
-7.3437 25.7827 -5.9450
-7.8271 26.4501 -6.0941
-7.9599 25.9216 -5.9675
-7.0640 17.7078 -4.0449
-5.3331 10.7402 -2.4282
-5.4736 10.7481 -2.4264
-5.6155 10.7559 -2.4245
-5.7590 10.7637 -2.4224
-5.4931 10.0216 -2.2517
-5.6461 10.0580 -2.2561
-5.8018 10.0949 -2.2605
-5.9604 10.1326 -2.2648
-6.4821 10.7692 -2.4027
-6.7119 10.9006 -2.4274
-6.8755 10.9182 -2.4266
-6.7446 10.4749 -2.3233
-6.4467 9.7941 -2.1678
-6.5858 9.7895 -2.1622
-6.7265 9.7848 -2.1564
-6.8689 9.7800 -2.1504
-7.3456 10.2387 -2.2460
-6.9659 9.5064 -2.0803
-7.2355 9.6695 -2.1107
-6.8809 9.0061 -1.9608
-7.4137 9.5047 -2.0639
-6.7617 8.4922 -1.8390
-7.8032 9.6016 -2.0734
-7.8967 9.5208 -2.0499
-7.9902 9.4400 -2.0264
-7.9624 9.2191 -1.9729
-7.4842 8.4927 -1.8116
-7.2988 8.1178 -1.7259
-8.1757 8.9130 -1.8885
-8.2109 8.7745 -1.8526
-8.2455 8.6377 -1.8171
-38.9926 12.9052 -1.3177
-38.0717 12.1940 -1.1744
-37.8777 11.7301 -1.0573
-37.6865 11.2736 -0.9419
-37.1838 10.7337 -0.8212
-37.3437 10.3908 -0.7165
-37.3504 10.0059 -0.6087
-37.4525 9.6474 -0.5026
-37.4592 9.2652 -0.3951
-39.0564 9.2620 -0.3002
-38.8599 8.8211 -0.1877
-39.0702 8.4741 -0.0774
-39.0770 8.0825 0.0336
-7.2560 1.4281 0.0268
-7.3013 1.3642 0.0477
-39.0974 6.9164 0.3658
-21.5896 3.6053 0.2630
-21.5904 3.3923 0.3239
-21.5912 3.1799 0.3847
-21.5920 2.9682 0.4455
-21.5928 2.7570 0.5063
-21.5935 2.5463 0.5671
-21.5943 2.3360 0.6279
-21.5951 2.1262 0.6886
-21.5958 1.9168 0.7494
-21.5966 1.7077 0.8103
-21.5097 1.4928 0.8676
-21.5105 1.2851 0.9283
-21.5151 1.0778 0.9892
-21.5958 0.8737 1.0540
-21.5965 0.6657 1.1152
-21.5973 0.4577 1.1765
-7.1709 43.7338 -7.9999
-7.4654 42.8092 -7.8229
-8.1557 44.1224 -8.0543
-5.2635 26.9458 -4.9133
-5.5791 27.1003 -4.9355
-5.6556 26.1301 -4.7528
-6.1750 27.1962 -4.9402
-6.4411 27.0958 -4.9150
-6.6871 26.9178 -4.8756
-6.9849 26.9495 -4.8738
-7.2158 26.7253 -4.8255
-7.1377 25.4132 -4.5808
-7.8571 26.9269 -4.8451
-8.0177 26.4801 -4.7560
-5.4793 10.6550 -1.8240
-5.6187 10.6623 -1.8186
-5.7597 10.6696 -1.8130
-5.9023 10.6770 -1.8072
-6.0464 10.6843 -1.8012
-5.7432 9.9161 -1.6647
-5.8851 9.9312 -1.6601
-6.0290 9.9465 -1.6553
-6.1749 9.9618 -1.6503
-6.3229 9.9772 -1.6450
-6.4731 9.9928 -1.6395
-7.0443 10.6409 -1.7370
-6.6998 9.9052 -1.6085
-6.9694 10.0862 -1.6290
-7.2237 10.2354 -1.6439
-6.8886 9.5577 -1.5262
-7.2099 9.7971 -1.5551
-7.3016 9.7184 -1.5331
-7.3931 9.6397 -1.5110
-6.5797 8.4055 -1.3088
-7.5755 9.4827 -1.4664
-7.6664 9.4043 -1.4440
-7.9600 9.5696 -1.4586
-7.8996 9.3084 -1.4080
-7.3767 8.5203 -1.2786
-7.1977 8.1497 -1.2130
-8.0848 8.9742 -1.3244
-8.1204 8.8371 -1.2927
-8.1554 8.7015 -1.2612
-35.9294 32.7553 -4.3477
-36.5652 32.6849 -4.2815
-37.2318 32.6308 -4.2158
-37.3711 18.3924 -0.8880
-37.8767 18.1893 -0.7884
-37.8844 17.7454 -0.6775
-37.8921 17.3054 -0.5672
-37.8998 16.8692 -0.4574
-37.9073 16.4367 -0.3481
-37.8874 15.9963 -0.2391
-37.8948 15.5711 -0.1307
-37.9297 15.1603 -0.0228
-37.9370 14.7413 0.0849
-37.9734 14.3365 0.1924
-38.7940 14.2214 0.3058
-40.0410 14.2432 0.4281
-21.5778 7.4426 0.2912
-21.5786 7.2116 0.3514
-21.5795 6.9820 0.4116
-21.4937 6.7268 0.4697
-21.4945 6.5010 0.5293
-21.5791 6.3010 0.5911
-21.5799 6.0769 0.6508
-21.5807 5.8541 0.7104
-21.5815 5.6324 0.7699
-21.5823 5.4118 0.8294
-21.5831 5.1923 0.8888
-21.5839 4.9739 0.9482
-21.5847 4.7563 1.0075
-21.5855 4.5397 1.0669
-7.2659 1.4554 0.3791
-7.2665 1.3832 0.3991
-21.5879 3.8949 1.2450
-21.5887 3.6815 1.3045
-21.5895 3.4687 1.3640
-21.5903 3.2566 1.4235
-21.5910 3.0451 1.4831
-21.5918 2.8341 1.5429
-21.5926 2.6236 1.6027
-21.5933 2.4135 1.6626
-21.5941 2.2039 1.7226
-21.5949 1.9946 1.7828
-21.5957 1.7857 1.8431
-21.5088 1.5706 1.8959
-21.5095 1.3630 1.9563
-21.5142 1.1558 2.0172
-21.5948 0.9521 2.0857
-21.5956 0.7442 2.1470
-7.0401 43.5250 -5.8583
-7.5694 44.0017 -5.9111
-7.8566 43.0891 -5.7767
-5.2395 27.1930 -3.6377
-5.5359 27.2622 -3.6386
-5.7334 26.8566 -3.5757
-5.8662 26.1943 -3.4786
-6.3407 27.0443 -3.5818
-6.6852 27.2855 -3.6035
-6.9108 27.0359 -3.5599
-7.1386 26.8097 -3.5191
-7.0968 25.6223 -3.3522
-7.8489 27.2776 -3.5566
-8.0583 26.9901 -3.5065
-8.2407 26.6303 -3.4469
-8.4634 26.4155 -3.4058
-8.6839 26.2029 -3.3647
-7.0639 17.7023 -2.2103
-5.6203 10.5709 -1.2291
-5.7587 10.5776 -1.2201
-5.8986 10.5843 -1.2107
-6.0401 10.5911 -1.2011
-6.1834 10.5979 -1.1912
-6.3241 10.5975 -1.1801
-6.4672 10.5985 -1.1688
-6.6052 10.5886 -1.1561
-6.5775 10.3167 -1.1147
-6.3606 9.7632 -1.0435
-6.5074 9.7768 -1.0333
-6.6564 9.7906 -1.0227
-6.8077 9.8046 -1.0118
-6.9614 9.8186 -1.0004
-7.1483 9.8754 -0.9930
-7.3024 9.8827 -0.9802
-6.6171 8.7739 -0.8578
-7.5316 9.7855 -0.9425
-7.5893 9.6632 -0.9163
-7.6322 9.5243 -0.8885
-7.6749 9.3879 -0.8609
-7.7171 9.2534 -0.8336
-7.2712 8.5474 -0.7557
-7.7998 8.9893 -0.7793
-7.8402 8.8597 -0.7524
-36.2283 34.3456 -2.2857
-36.2400 33.6944 -2.1630
-36.2515 33.0548 -2.0417
-36.2625 32.4261 -1.9217
-36.2733 31.8080 -1.8031
-36.2833 31.1998 -1.6857
-36.5813 30.8447 -1.5819
-37.2943 30.8329 -1.4942
-38.0545 30.8463 -1.4048
-38.8334 30.8599 -1.3125
-37.2475 29.0165 -1.1438
-37.6913 28.7811 -1.0421
-37.7012 28.2163 -0.9280
-37.7110 27.6595 -0.8149
-37.7206 27.1104 -0.7026
-37.2189 26.2090 -0.5831
-37.7515 26.0430 -0.4806
-38.2901 25.8733 -0.3758
-38.8348 25.6998 -0.2687
-39.3865 25.5227 -0.1592
-39.9754 25.3612 -0.0474
-40.7274 25.2918 0.0674
-41.6992 25.3426 0.1867
-42.6453 25.3591 0.3106
-21.5529 12.2618 0.2770
-21.4703 11.9432 0.3353
-21.4713 11.6751 0.3944
-21.5622 11.4577 0.4552
-21.5632 11.1941 0.5140
-21.5642 10.9332 0.5727
-21.5651 10.6748 0.6311
-21.5661 10.4190 0.6894
-21.5670 10.1655 0.7475
-21.5679 9.9144 0.8054
-21.5689 9.6655 0.8631
-21.5698 9.4187 0.9207
-21.5707 9.1741 0.9782
-21.5716 8.9315 1.0356
-21.5725 8.6908 1.0929
-21.5733 8.4520 1.1501
-21.5742 8.2150 1.2073
-21.5751 7.9797 1.2644
-21.5760 7.7461 1.3214
-21.5768 7.5141 1.3784
-21.5777 7.2836 1.4354
-21.5785 7.0546 1.4923
-21.4927 6.7997 1.5431
-21.4936 6.5744 1.5998
-21.4973 6.3513 1.6568
-21.5789 6.1516 1.7201
-21.5797 5.9292 1.7771
-21.5805 5.7080 1.8343
-21.5814 5.4879 1.8914
-21.5822 5.2688 1.9487
-21.5830 5.0507 2.0061
-21.5838 4.8335 2.0635
-21.5846 4.6173 2.1211
-21.5854 4.4019 2.1788
-7.2552 1.4074 0.7517
-21.5869 3.9735 2.2946
-21.5877 3.7603 2.3527
-21.5885 3.5478 2.4110
-21.5893 3.3360 2.4694
-21.5901 3.1247 2.5281
-21.5908 2.9139 2.5869
-21.9187 2.7446 2.6861
-21.4389 2.4761 2.6860
-20.9781 2.2193 2.6860
-20.5349 1.9735 2.6860
-20.1084 1.7380 2.6860
-19.6975 1.5122 2.6860
-19.6676 1.3201 2.7370
-19.6581 1.1300 2.7910
-19.6020 0.9381 2.8384
-7.0444 44.1495 -3.8365
-7.3985 43.5998 -3.7743
-7.9394 44.1430 -3.8058
-5.2875 27.8206 -2.3882
-5.4316 27.1183 -2.3173
-5.7246 27.1867 -2.3118
-5.6854 25.7395 -2.1775
-6.4487 27.8877 -2.3465
-6.3572 26.3085 -2.2009
-6.6321 26.3084 -2.1877
-7.0639 26.9010 -2.2228
-7.2958 26.7108 -2.1925
-7.5255 26.5221 -2.1618
-7.8400 26.6300 -2.1547
-8.0262 26.3047 -2.1121
-8.1576 25.8229 -2.0568
-5.8003 10.3286 -0.6180
-5.9247 10.3132 -0.6038
-6.0501 10.2976 -0.5892
-6.1763 10.2817 -0.5743
-6.3034 10.2655 -0.5589
-6.4170 10.2259 -0.5420
-6.5229 10.1734 -0.5242
-6.6290 10.1208 -0.5060
-6.7351 10.0679 -0.4876
-6.8414 10.0148 -0.4689
-6.9478 9.9614 -0.4499
-7.0608 9.9168 -0.4310
-6.6484 9.1484 -0.3816
-7.2033 9.7124 -0.3877
-7.2484 9.5776 -0.3646
-7.2927 9.4445 -0.3416
-7.3363 9.3131 -0.3187
-7.2480 9.0199 -0.2906
-7.1351 8.7055 -0.2625
-35.2107 35.3701 -0.2133
-36.2287 34.3490 0.0911
-36.2403 33.7040 0.1929
-36.2515 33.0699 0.2938
-36.2624 32.4468 0.3939
-21.5369 18.9012 0.2929
-21.5382 18.5392 0.3514
-21.5395 18.1833 0.4095
-21.5409 17.8332 0.4673
-21.4491 17.4131 0.5223
-21.4504 17.0755 0.5791
-21.5188 16.7955 0.6375
-21.5364 16.4795 0.6943
-21.5376 16.1557 0.7503
-21.5388 15.8366 0.8061
-21.5400 15.5219 0.8616
-21.5411 15.2117 0.9168
-21.5423 14.9057 0.9718
-21.5434 14.6038 1.0266
-21.5445 14.3058 1.0812
-21.5456 14.0116 1.1357
-21.5467 13.7212 1.1899
-21.5478 13.4343 1.2440
-21.5488 13.1508 1.2980
-21.5499 12.8706 1.3518
-21.5509 12.5937 1.4055
-21.5519 12.3199 1.4591
-21.4693 12.0023 1.5067
-21.4703 11.7355 1.5599
-21.5612 11.5195 1.6198
-21.5622 11.2570 1.6732
-21.5632 10.9972 1.7264
-21.5641 10.7399 1.7797
-21.5651 10.4850 1.8329
-21.5660 10.2325 1.8861
-21.5670 9.9823 1.9393
-21.5679 9.7343 1.9925
-21.5688 9.4884 2.0458
-21.5697 9.2446 2.0990
-21.5706 9.0027 2.1523
-21.5715 8.7628 2.2057
-21.5724 8.5247 2.2591
-21.5732 8.2884 2.3126
-21.5741 8.0538 2.3662
-21.5750 7.8208 2.4199
-21.5758 7.5895 2.4737
-21.5767 7.3596 2.5275
-21.5775 7.1312 2.5815
-21.9914 7.0364 2.6861
-21.5478 6.6689 2.6860
-21.1213 6.3170 2.6860
-20.7101 5.9797 2.6860
-20.3135 5.6561 2.6860
-19.9306 5.3453 2.6860
-19.6655 5.0739 2.7004
-19.6562 4.8720 2.7495
-19.6476 4.6715 2.7987
-19.5724 4.4570 2.8384
-19.2292 4.1863 2.8384
-18.8965 3.9256 2.8384
-7.2561 1.4353 1.1089
-7.2841 1.3687 1.1323
-17.9560 3.1968 2.8384
-17.6602 2.9704 2.8384
-17.3726 2.7516 2.8384
-17.0927 2.5402 2.8384
-16.8204 2.3356 2.8384
-16.5551 2.1376 2.8384
-16.2966 1.9459 2.8384
-16.0447 1.7603 2.8384
-15.7990 1.5804 2.8384
-15.5592 1.4061 2.8384
-15.3252 1.2370 2.8384
-15.0967 1.0730 2.8384
-14.8734 0.9139 2.8384
-6.9246 43.9973 -1.7427
-7.3340 43.8165 -1.7181
-7.7196 43.5149 -1.6877
-8.0318 42.8460 -1.6425
-5.4567 27.6222 -1.0457
-5.7375 27.6271 -1.0320
-6.0127 27.6012 -1.0165
-6.2891 27.5776 -1.0003
-6.3938 26.8306 -0.9576
-6.5486 26.3420 -0.9241
-7.1021 27.4269 -0.9447
-7.2539 26.9321 -0.9098
-7.4792 26.7320 -0.8846
-7.6434 26.3305 -0.8523
-7.8018 25.9329 -0.8200
-7.0590 17.6992 -0.4164
-6.2837 9.9584 0.0309
-6.4072 9.9411 0.0491
-6.5317 9.9234 0.0678
-6.6572 9.9054 0.0869
-6.7837 9.8872 0.1064
-6.9112 9.8686 0.1264
-7.0975 9.9303 0.1481
-7.1523 9.8066 0.1675
-7.1767 9.6445 0.1861
-7.0350 9.2671 0.2000
-6.9288 8.9478 0.2141
-7.4415 9.4221 0.2482
-21.5027 26.6958 0.7694
-21.5047 26.1812 0.8212
-21.5066 25.6784 0.8726
-21.5084 25.1871 0.9237
-21.5103 24.7068 0.9744
-21.5120 24.2370 1.0248
-21.5138 23.7773 1.0749
-21.5155 23.3274 1.1247
-21.5171 22.8867 1.1742
-21.4353 22.3679 1.2187
-21.5242 22.0357 1.2727
-21.5257 21.6207 1.3215
-21.5273 21.2137 1.3701
-21.5288 20.8144 1.4185
-21.5303 20.4225 1.4667
-21.5317 20.0376 1.5148
-21.5331 19.6596 1.5628
-21.5345 19.2881 1.6106
-21.5359 18.9230 1.6582
-21.5373 18.5640 1.7058
-21.5386 18.2109 1.7533
-21.5399 17.8635 1.8007
-21.5412 17.5216 1.8480
-21.4494 17.1107 1.8871
-21.4694 16.7953 1.9358
-21.5354 16.5196 1.9888
-21.5366 16.1980 2.0359
-21.5378 15.8809 2.0830
-21.5390 15.5683 2.1301
-21.5401 15.2600 2.1772
-21.5413 14.9558 2.2243
-21.5424 14.6557 2.2714
-21.5435 14.3594 2.3185
-21.5446 14.0669 2.3657
-21.5457 13.7780 2.4129
-21.5468 13.4926 2.4602
-21.5478 13.2106 2.5075
-21.5489 12.9318 2.5550
-21.5499 12.6562 2.6024
-21.8440 12.5522 2.6861
-21.4589 12.0619 2.6860
-21.0865 11.5911 2.6860
-20.7260 11.1385 2.6860
-20.3767 10.7034 2.6860
-20.0382 10.2846 2.6860
-19.7099 9.8811 2.6860
-19.6492 9.6193 2.7218
-19.6418 9.3861 2.7649
-19.6344 9.1550 2.8081
-19.5378 8.8858 2.8384
-19.2374 8.5302 2.8384
-18.9450 8.1868 2.8384
-18.6603 7.8549 2.8384
-18.3829 7.5340 2.8384
-18.1126 7.2236 2.8384
-17.8490 6.9232 2.8384
-17.5919 6.6324 2.8384
-17.3410 6.3508 2.8384
-17.0960 6.0780 2.8384
-16.8567 5.8136 2.8384
-16.6229 5.5572 2.8384
-16.3943 5.3085 2.8384
-16.1708 5.0672 2.8384
-15.9522 4.8331 2.8384
-15.7383 4.6057 2.8384
-15.5289 4.3849 2.8384
-15.3238 4.1704 2.8384
-15.1229 3.9619 2.8384
-14.9261 3.7592 2.8384
-14.7331 3.5621 2.8384
-14.5439 3.3704 2.8384
-14.3584 3.1839 2.8384
-14.1764 3.0024 2.8384
-7.2791 1.4694 1.4760
-7.2595 1.3937 1.4908
-13.6502 2.4862 2.8384
-13.4811 2.3229 2.8384
-13.3149 2.1639 2.8384
-13.1517 2.0088 2.8384
-12.9912 1.8578 2.8384
-12.8334 1.7104 2.8384
-12.6783 1.5667 2.8384
-12.5256 1.4265 2.8384
-12.3755 1.2898 2.8384
-12.2277 1.1563 2.8384
-12.0823 1.0261 2.8384
-11.9391 0.8989 2.8384
-6.8443 44.0930 0.3296
-7.3499 44.5246 0.3536
-7.3853 36.0612 0.3645
-6.3166 26.8815 0.3240
-6.5828 26.8547 0.3427
-6.8888 26.9815 0.3644
-7.0870 26.6875 0.3811
-21.4455 44.2966 1.6511
-21.3664 43.0806 1.6735
-21.4512 42.2349 1.7089
-21.4549 41.2632 1.7383
-21.4585 40.3264 1.7679
-21.4620 39.4226 1.7977
-21.3814 38.3990 1.8206
-21.4678 37.7051 1.8578
-21.4709 36.8895 1.8882
-21.4740 36.1000 1.9189
-21.4769 35.3356 1.9497
-21.4797 34.5947 1.9807
-21.4825 33.8761 2.0119
-21.4027 33.0516 2.0354
-21.4886 32.5031 2.0749
-21.4911 31.8453 2.1066
-21.4936 31.2057 2.1386
-21.4959 30.5836 2.1707
-6.8134 9.5009 0.6982
-7.1874 9.8243 0.7473
-21.5027 28.8141 2.2681
-21.5048 28.2541 2.3009
-21.4145 27.5889 2.3239
-21.4999 27.1637 2.3661
-21.5019 26.6436 2.3995
-21.5038 26.1357 2.4330
-21.5057 25.6394 2.4667
-21.5076 25.1542 2.5006
-21.5094 24.6797 2.5347
-21.5111 24.2154 2.5690
-21.5129 23.7610 2.6034
-21.9063 23.7407 2.6861
-21.6220 22.9928 2.6860
-21.3441 22.2717 2.6860
-21.0718 21.5758 2.6860
-20.8049 20.9039 2.6860
-20.5433 20.2550 2.6860
-20.2867 19.6279 2.6860
-20.0352 19.0218 2.6860
-19.7885 18.4357 2.6860
-19.6348 17.9495 2.6982
-19.6272 17.6057 2.7303
-19.6220 17.2700 2.7629
-19.6167 16.9399 2.7957
-19.6115 16.6153 2.8287
-19.4460 16.1628 2.8384
-19.2171 15.6688 2.8384
-18.9922 15.1899 2.8384
-18.7713 14.7255 2.8384
-18.5542 14.2750 2.8384
-18.3408 13.8379 2.8384
-18.1310 13.4137 2.8384
-17.9248 13.0019 2.8384
-17.7220 12.6019 2.8384
-17.5225 12.2134 2.8384
-17.3263 11.8360 2.8384
-17.1333 11.4692 2.8384
-16.9433 11.1127 2.8384
-16.7564 10.7660 2.8384
-16.5724 10.4288 2.8384
-16.3912 10.1009 2.8384
-16.2128 9.7817 2.8384
-16.0372 9.4711 2.8384
-15.8642 9.1688 2.8384
-15.6937 8.8745 2.8384
-15.5258 8.5878 2.8384
-15.3604 8.3085 2.8384
-15.1973 8.0365 2.8384
-15.0366 7.7714 2.8384
-14.8781 7.5130 2.8384
-14.7220 7.2612 2.8384
-14.5679 7.0156 2.8384
-14.4160 6.7761 2.8384
-14.2662 6.5424 2.8384
-14.1184 6.3145 2.8384
-13.9726 6.0921 2.8384
-13.8287 5.8750 2.8384
-13.6868 5.6632 2.8384
-13.5466 5.4564 2.8384
-13.4083 5.2544 2.8384
-13.2717 5.0571 2.8384
-13.1369 4.8645 2.8384
-13.0038 4.6762 2.8384
-12.8723 4.4924 2.8384
-12.7424 4.3126 2.8384
-12.6141 4.1370 2.8384
-12.4874 3.9653 2.8384
-12.3622 3.7974 2.8384
-12.2384 3.6333 2.8384
-12.1162 3.4728 2.8384
-11.9953 3.3158 2.8384
-11.8758 3.1622 2.8384
-11.7577 3.0119 2.8384
-11.6409 2.8649 2.8384
-11.5254 2.7210 2.8384
-11.4112 2.5802 2.8384
-11.2983 2.4424 2.8384
-11.1866 2.3075 2.8384
-7.2497 1.4238 1.8579
-7.2981 1.3615 1.8889
-10.8586 1.9193 2.8384
-10.7515 1.7952 2.8384
-10.6456 1.6736 2.8384
-10.5407 1.5545 2.8384
-10.4370 1.4379 2.8384
-10.3342 1.3236 2.8384
-10.2325 1.2115 2.8384
-10.1318 1.1017 2.8384
-10.0321 0.9941 2.8384
-9.9333 0.8886 2.8384
-7.1447 43.8935 2.4182
-10.3183 48.7181 2.8384
-10.6660 48.1086 2.8384
-11.0005 47.4860 2.8384
-11.3218 46.8516 2.8384
-11.6298 46.2067 2.8384
-7.0338 26.8697 1.6743
-12.2060 44.8901 2.8384
-12.4743 44.2209 2.8384
-12.7297 43.5461 2.8384
-12.9722 42.8665 2.8384
-13.2020 42.1835 2.8384
-13.4193 41.4979 2.8384
-13.6244 40.8106 2.8384
-13.8174 40.1228 2.8384
-13.9986 39.4351 2.8384
-14.1682 38.7485 2.8384
-14.3267 38.0637 2.8384
-14.4741 37.3813 2.8384
-7.0464 17.7003 1.3689
-14.7373 36.0267 2.8384
-14.8537 35.3556 2.8384
-14.9603 34.6897 2.8384
-15.0574 34.0290 2.8384
-15.1455 33.3741 2.8384
-15.2247 32.7257 2.8384
-15.2955 32.0838 2.8384
-15.3580 31.4489 2.8384
-15.4127 30.8213 2.8384
-15.4598 30.2013 2.8384
-15.4997 29.5891 2.8384
-15.5325 28.9849 2.8384
-15.5587 28.3889 2.8384
-15.5785 27.8013 2.8384
-15.5921 27.2221 2.8384
-15.5998 26.6514 2.8384
-15.6019 26.0895 2.8384
-15.5987 25.5362 2.8384
-15.5904 24.9918 2.8384
-15.5772 24.4561 2.8384
-15.5594 23.9293 2.8384
-15.5372 23.4112 2.8384
-15.5108 22.9020 2.8384
-15.4805 22.4015 2.8384
-15.4463 21.9097 2.8384
-7.0584 9.8151 1.3002
-7.1965 9.8118 1.3292
-15.3231 20.4862 2.8384
-15.2757 20.0287 2.8384
-15.2255 19.5796 2.8384
-15.1725 19.1388 2.8384
-15.1170 18.7063 2.8384
-15.0591 18.2817 2.8384
-14.9989 17.8651 2.8384
-14.9366 17.4564 2.8384
-14.8723 17.0556 2.8384
-14.8061 16.6623 2.8384
-14.7382 16.2766 2.8384
-14.6685 15.8984 2.8384
-14.5974 15.5274 2.8384
-14.5248 15.1635 2.8384
-14.4509 14.8068 2.8384
-14.3757 14.4569 2.8384
-14.2994 14.1139 2.8384
-14.2220 13.7776 2.8384
-14.1436 13.4479 2.8384
-14.0644 13.1246 2.8384
-13.9842 12.8076 2.8384
-13.9034 12.4968 2.8384
-13.8217 12.1921 2.8384
-13.7395 11.8933 2.8384
-13.6567 11.6004 2.8384
-13.5734 11.3132 2.8384
-13.4896 11.0316 2.8384
-13.4054 10.7555 2.8384
-13.3208 10.4849 2.8384
-13.2359 10.2195 2.8384
-13.1507 9.9593 2.8384
-13.0653 9.7041 2.8384
-12.9797 9.4539 2.8384
-12.8939 9.2085 2.8384
-12.8080 8.9679 2.8384
-12.7221 8.7320 2.8384
-12.6360 8.5006 2.8384
-12.5500 8.2737 2.8384
-12.4639 8.0511 2.8384
-12.3779 7.8328 2.8384
-12.2919 7.6187 2.8384
-12.2060 7.4087 2.8384
-12.1201 7.2026 2.8384
-12.0344 7.0006 2.8384
-11.9489 6.8023 2.8384
-11.8635 6.6078 2.8384
-11.7782 6.4169 2.8384
-11.6932 6.2297 2.8384
-11.6083 6.0460 2.8384
-11.5237 5.8657 2.8384
-11.4393 5.6888 2.8384
-11.3551 5.5152 2.8384
-11.2712 5.3448 2.8384
-11.1876 5.1776 2.8384
-11.1042 5.0134 2.8384
-11.0211 4.8523 2.8384
-10.9384 4.6942 2.8384
-10.6103 4.0900 2.8384
-10.8559 4.5390 2.8384
-10.5291 3.9458 2.8384
-10.7737 4.3865 2.8384
-10.4482 3.8041 2.8384
-10.6918 4.2369 2.8384
-10.3677 3.6650 2.8384
-10.2875 3.5285 2.8384
-9.9701 3.0061 2.8384
-10.2076 3.3943 2.8384
-9.8917 2.8813 2.8384
-10.1281 3.2626 2.8384
-9.8136 2.7586 2.8384
-10.0489 3.1331 2.8384
-9.7359 2.6381 2.8384
-9.1399 2.3844 2.6860
-8.8505 1.9556 2.6860
-9.0671 2.2743 2.6860
-8.7790 1.8529 2.6860
-8.9946 2.1662 2.6860
-7.2636 1.4615 2.2405
-8.9224 2.0600 2.6860
-7.2597 1.3894 2.2577
-8.5667 1.5556 2.6860
-8.4966 1.4599 2.6860
-8.4268 1.3658 2.6860
-8.3574 1.2733 2.6860
-8.2883 1.1824 2.6860
-8.2195 1.0930 2.6860
-8.1511 1.0051 2.6860
-8.0831 0.9187 2.6860
-8.0154 0.8338 2.6860
-4.2051 27.8682 2.8384
-4.4458 27.7061 2.8384
-4.6827 27.5361 2.8384
-4.9158 27.3580 2.8384
-5.1449 27.1723 2.8384
-5.3697 26.9793 2.8384
-5.5904 26.7790 2.8384
-5.6562 25.8836 2.7649
-5.6951 24.9432 2.6860
-5.8911 24.7352 2.6860
-6.0826 24.5217 2.6860
-6.2696 24.3027 2.6860
-6.4520 24.0787 2.6860
-6.6298 23.8499 2.6860
-6.8029 23.6167 2.6860
-6.9713 23.3792 2.6860
-7.1349 23.1378 2.6860
-7.2938 22.8927 2.6860
-7.4479 22.6443 2.6860
-7.5971 22.3927 2.6860
-7.7416 22.1382 2.6860
-7.8813 21.8812 2.6860
-8.0162 21.6218 2.6860
-8.1463 21.3602 2.6860
-8.2718 21.0969 2.6860
-8.3925 20.8319 2.6860
-8.5086 20.5656 2.6860
-8.6200 20.2980 2.6860
-8.7269 20.0296 2.6860
-8.8293 19.7603 2.6860
-8.9272 19.4906 2.6860
-9.0207 19.2204 2.6860
-9.1098 18.9508 2.6860
-9.7164 19.7398 2.8384
-9.8016 19.4545 2.8384
-9.8825 19.1695 2.8384
-9.9591 18.8850 2.8384
-10.0314 18.6013 2.8384
-10.0996 18.3184 2.8384
-10.1638 18.0366 2.8384
-10.2240 17.7558 2.8384
-10.4267 16.6468 2.8384
-10.2802 17.4763 2.8384
-10.4683 16.3736 2.8384
-10.3327 17.1983 2.8384
-10.5064 16.1021 2.8384
-10.3815 16.9217 2.8384
-10.5412 15.8327 2.8384
-10.5727 15.5651 2.8384
-7.1772 9.7668 1.9097
-10.6010 15.2997 2.8384
-10.6839 14.2600 2.8384
-10.6261 15.0364 2.8384
-10.6974 14.0058 2.8384
-7.0429 9.7725 1.8774
-10.7083 13.7541 2.8384
-10.7166 13.5048 2.8384
-10.7250 12.5331 2.8384
-10.7223 13.2581 2.8384
-10.7214 12.2966 2.8384
-10.7256 13.0139 2.8384
-10.7156 12.0628 2.8384
-10.7265 12.7722 2.8384
-10.7076 11.8316 2.8384
-10.6391 10.7155 2.8384
-10.6977 11.6030 2.8384
-10.6200 10.5004 2.8384
-10.6858 11.3772 2.8384
-10.5994 10.2879 2.8384
-10.6720 11.1540 2.8384
-10.5771 10.0780 2.8384
-10.6565 10.9334 2.8384
-10.5533 9.8709 2.8384
-10.4441 9.0686 2.8384
-10.5281 9.6663 2.8384
-10.4135 8.8745 2.8384
-10.5014 9.4644 2.8384
-10.3817 8.6831 2.8384
-10.4734 9.2652 2.8384
-10.3488 8.4942 2.8384
-10.3148 8.3079 2.8384
-10.1683 7.5877 2.8384
-10.2796 8.1241 2.8384
-10.1294 7.4138 2.8384
-10.2435 7.9428 2.8384
-10.0895 7.2423 2.8384
-10.2064 7.7640 2.8384
-10.0489 7.0733 2.8384
-10.0075 6.9066 2.8384
-9.9653 6.7422 2.8384
-9.8345 6.2631 2.8384
-9.9223 6.5803 2.8384
-9.7896 6.1079 2.8384
-9.8787 6.4206 2.8384
-9.7441 5.9549 2.8384
-9.1332 5.3518 2.6860
-9.6980 5.8041 2.8384
-9.0887 5.2132 2.6860
-8.9522 4.8093 2.6860
-9.0436 5.0766 2.6860
-8.9059 4.6786 2.6860
-8.9981 4.9420 2.6860
-8.8592 4.5497 2.6860
-8.7649 4.2976 2.6860
-8.8122 4.4227 2.6860
-8.7172 4.1743 2.6860
-8.5725 3.8151 2.6860
-8.6692 4.0528 2.6860
-8.5237 3.6988 2.6860
-8.6210 3.9331 2.6860
-8.4747 3.5843 2.6860
-8.3761 3.3602 2.6860
-8.4255 3.4715 2.6860
-8.3265 3.2506 2.6860
-8.2768 3.1426 2.6860
-8.1768 2.9314 2.6860
-8.2269 3.0363 2.6860
-8.1266 2.8281 2.6860
-7.9753 2.5273 2.6860
-8.0763 2.7263 2.6860
-7.9247 2.4299 2.6860
-8.0258 2.6261 2.6860
-7.8740 2.3339 2.6860
-7.7724 2.1462 2.6860
-7.8232 2.2394 2.6860
-7.7215 2.0545 2.6860
-7.5686 1.7871 2.6860
-7.6705 1.9641 2.6860
-7.5175 1.7006 2.6860
-7.6196 1.8749 2.6860
-7.4665 1.6153 2.6860
-7.2485 1.4258 2.6438
-7.4154 1.5314 2.6860
-7.2907 1.3628 2.6777
-7.1603 1.1294 2.6860
-7.2623 1.2866 2.6860
-7.1093 1.0525 2.6860
-7.0584 0.9767 2.6860
-7.2113 1.2074 2.6860
-7.0074 0.9020 2.6860
-6.9566 0.8284 2.6860
-2.8222 18.9787 2.8384
-2.9879 18.8957 2.8384
-3.1519 18.8082 2.8384
-3.3140 18.7164 2.8384
-3.4741 18.6203 2.8384
-3.6321 18.5200 2.8384
-3.7881 18.4157 2.8384
-3.9418 18.3075 2.8384
-4.0933 18.1954 2.8384
-4.2424 18.0796 2.8384
-4.3891 17.9602 2.8384
-4.5334 17.8374 2.8384
-4.6753 17.7111 2.8384
-4.8145 17.5816 2.8384
-4.9512 17.4490 2.8384
-5.0852 17.3134 2.8384
-5.2166 17.1749 2.8384
-5.3452 17.0336 2.8384
-5.4712 16.8898 2.8384
-5.5943 16.7434 2.8384
-5.6716 16.4694 2.8170
-5.6814 16.0182 2.7650
-5.6907 15.5881 2.7161
-5.7337 15.2684 2.6860
-5.8369 15.1202 2.6860
-5.9374 14.9698 2.6860
-6.0352 14.8179 2.6860
-6.1304 14.6645 2.6860
-6.2228 14.5098 2.6860
-6.3125 14.3537 2.6860
-6.3996 14.1966 2.6860
-6.4839 14.0384 2.6860
-6.5657 13.8792 2.6860
-6.6447 13.7192 2.6860
-6.8661 13.2352 2.6860
-6.7211 13.5585 2.6860
-6.9347 13.0727 2.6860
-6.7949 13.3971 2.6860
-7.0008 12.9099 2.6860
-7.1254 12.5834 2.6860
-7.0643 12.7468 2.6860
-7.1839 12.4199 2.6860
-7.3451 11.9294 2.6860
-7.2400 12.2564 2.6860
-7.3940 11.7662 2.6860
-7.2937 12.0929 2.6860
-7.4407 11.6031 2.6860
-7.5271 11.2778 2.6860
-7.4850 11.4403 2.6860
-7.5670 11.1158 2.6860
-7.0222 9.7298 2.4579
-7.1541 9.7238 2.4939
-7.6048 10.9543 2.6860
-7.2877 9.7178 2.5308
-7.6403 10.7932 2.6860
-7.7874 9.9975 2.6860
-7.7620 10.1552 2.6860
-7.8109 9.8407 2.6860
-7.8703 9.3751 2.6860
-7.8325 9.6846 2.6860
-7.8865 9.2218 2.6860
-7.8523 9.5294 2.6860
-7.9010 9.0694 2.6860
-7.9250 8.7678 2.6860
-7.9138 8.9181 2.6860
-7.9538 8.1774 2.6860
-7.9345 8.6186 2.6860
-7.9572 8.0326 2.6860
-7.9425 8.4704 2.6860
-7.9489 8.3233 2.6860
-7.9592 7.8890 2.6860
-7.9591 7.6054 2.6860
-7.9598 7.7466 2.6860
-7.9570 7.4653 2.6860
-7.9431 7.0526 2.6860
-7.9536 7.3265 2.6860
-7.9360 6.9175 2.6860
-7.9278 6.7837 2.6860
-7.9490 7.1889 2.6860
-7.9184 6.6512 2.6860
-7.9080 6.5199 2.6860
-7.8556 6.0075 2.6860
-7.8964 6.3898 2.6860
-7.8838 6.2611 2.6860
-7.8401 5.8826 2.6860
-7.8702 6.1336 2.6860
-7.8236 5.7590 2.6860
-7.7879 5.5156 2.6860
-7.8062 5.6367 2.6860
-7.7688 5.3958 2.6860
-7.7066 5.0442 2.6860
-7.6844 4.9296 2.6860
-7.7489 5.2774 2.6860
-7.6614 4.8162 2.6860
-7.7281 5.1602 2.6860
-7.6377 4.7040 2.6860
-7.6133 4.5931 2.6860
-7.5093 4.1620 2.6860
-7.5882 4.4835 2.6860
-7.4818 4.0572 2.6860
-7.5625 4.3751 2.6860
-7.4537 3.9537 2.6860
-7.5362 4.2679 2.6860
-7.4251 3.8514 2.6860
-7.3960 3.7502 2.6860
-7.2745 3.3575 2.6860
-7.3663 3.6503 2.6860
-7.2430 3.2622 2.6860
-7.3362 3.5515 2.6860
-7.2111 3.1681 2.6860
-7.3056 3.4539 2.6860
-7.1788 3.0751 2.6860
-7.1460 2.9832 2.6860
-7.0114 2.6266 2.6860
-7.1129 2.8924 2.6860
-6.9769 2.5402 2.6860
-7.0794 2.8027 2.6860
-7.0456 2.7141 2.6860
-6.9421 2.4548 2.6860
-6.8715 2.2872 2.6860
-6.9070 2.3705 2.6860
-6.8358 2.2050 2.6860
-6.7272 1.9643 2.6860
-6.7999 2.1237 2.6860
-6.6905 1.8860 2.6860
-6.7637 2.0435 2.6860
-6.6535 1.8088 2.6860
-6.5790 1.6572 2.6860
-6.6164 1.7325 2.6860
-6.5415 1.5827 2.6860
-6.4277 1.3651 2.6860
-6.5037 1.5093 2.6860
-6.3894 1.2945 2.6860
-6.4658 1.4368 2.6860
-6.3510 1.2246 2.6860
-6.2737 1.0877 2.6860
-6.3124 1.1558 2.6860
-6.2348 1.0205 2.6860
-6.1958 0.9542 2.6860
-6.1567 0.8887 2.6860
-6.1175 0.8241 2.6860
-2.1010 14.3431 2.8384
-2.2261 14.2913 2.8384
-2.3501 14.2366 2.8384
-2.4729 14.1790 2.8384
-2.5946 14.1188 2.8384
-2.7151 14.0558 2.8384
-2.8343 13.9901 2.8384
-2.9522 13.9218 2.8384
-3.0688 13.8510 2.8384
-3.1839 13.7777 2.8384
-3.2976 13.7019 2.8384
-3.4098 13.6238 2.8384
-3.5204 13.5433 2.8384
-3.6296 13.4606 2.8384
-3.7371 13.3757 2.8384
-3.8430 13.2886 2.8384
-3.9472 13.1995 2.8384
-4.0497 13.1083 2.8384
-4.1506 13.0153 2.8384
-4.2497 12.9203 2.8384
-4.3470 12.8236 2.8384
-4.4426 12.7251 2.8384
-4.5364 12.6249 2.8384
-4.6283 12.5231 2.8384
-4.7184 12.4198 2.8384
-4.8067 12.3150 2.8384
-4.8931 12.2088 2.8384
-4.9777 12.1012 2.8384
-5.0604 11.9924 2.8384
-5.1412 11.8823 2.8384
-5.2201 11.7712 2.8384
-5.2971 11.6589 2.8384
-5.3722 11.5455 2.8384
-5.4455 11.4313 2.8384
-5.5168 11.3161 2.8384
-5.5863 11.2002 2.8384
-5.6538 11.0834 2.8384
-5.6851 10.8997 2.8214
-5.6905 10.6735 2.7929
-5.6956 10.4541 2.7657
-5.7004 10.2414 2.7399
-5.7050 10.0350 2.7154
-5.7094 9.8347 2.6920
-5.7484 9.6987 2.6860
-5.7983 9.5843 2.6860
-5.8465 9.4695 2.6860
-5.8931 9.3546 2.6860
-5.9379 9.2395 2.6860
-5.9811 9.1243 2.6860
-6.0226 9.0089 2.6860
-6.0626 8.8936 2.6860
-6.1008 8.7782 2.6860
-6.1375 8.6628 2.6860
-6.1727 8.5475 2.6860
-6.2062 8.4324 2.6860
-6.2383 8.3174 2.6860
-6.2688 8.2025 2.6860
-6.2978 8.0879 2.6860
-6.3253 7.9735 2.6860
-6.3514 7.8595 2.6860
-6.3761 7.7457 2.6860
-6.3993 7.6323 2.6860
-6.4211 7.5192 2.6860
-6.4416 7.4065 2.6860
-6.4607 7.2943 2.6860
-6.4784 7.1824 2.6860
-6.4949 7.0711 2.6860
-6.5101 6.9603 2.6860
-6.5240 6.8500 2.6860
-6.5367 6.7402 2.6860
-6.5481 6.6309 2.6860
-6.5583 6.5222 2.6860
-6.5674 6.4142 2.6860
-6.5753 6.3067 2.6860
-6.5821 6.1999 2.6860
-6.5878 6.0936 2.6860
-6.5924 5.9881 2.6860
-6.5959 5.8832 2.6860
-6.5983 5.7790 2.6860
-6.5998 5.6756 2.6860
-6.6002 5.5728 2.6860
-6.5923 5.1689 2.6860
-6.5997 5.4707 2.6860
-6.5880 5.0697 2.6860
-6.5981 5.3693 2.6860
-6.5828 4.9714 2.6860
-6.5957 5.2687 2.6860
-6.5768 4.8738 2.6860
-6.5699 4.7769 2.6860
-6.5343 4.3975 2.6860
-6.4866 4.0307 2.6860
-6.5622 4.6809 2.6860
-6.5234 4.3046 2.6860
-6.4729 3.9410 2.6860
-6.5536 4.5856 2.6860
-6.5118 4.2125 2.6860
-6.4585 3.8521 2.6860
-6.5443 4.4912 2.6860
-6.4996 4.1212 2.6860
-6.4436 3.7640 2.6860
-6.4279 3.6768 2.6860
-6.3594 3.3357 2.6860
-6.2819 3.0075 2.6860
-6.4117 3.5903 2.6860
-6.3408 3.2525 2.6860
-6.2612 2.9274 2.6860
-6.3948 3.5046 2.6860
-6.3217 3.1700 2.6860
-6.2400 2.8482 2.6860
-6.3774 3.4198 2.6860
-6.3020 3.0884 2.6860
-6.2184 2.7697 2.6860
-6.1963 2.6921 2.6860
-6.1035 2.3892 2.6860
-6.0042 2.0986 2.6860
-6.1737 2.6151 2.6860
-6.0793 2.3154 2.6860
-5.9785 2.0278 2.6860
-6.1507 2.5391 2.6860
-6.0546 2.2423 2.6860
-5.9524 1.9578 2.6860
-6.1273 2.4637 2.6860
-6.0296 2.1701 2.6860
-5.9260 1.8886 2.6860
-5.8992 1.8201 2.6860
-5.7280 1.3104 2.7114
-5.7891 1.5534 2.6860
-5.8721 1.7523 2.6860
-5.7260 1.2537 2.7245
-5.8448 1.6853 2.6860
-5.7608 1.4885 2.6860
-5.7239 1.1973 2.7379
-5.8171 1.6190 2.6860
-5.7320 1.4242 2.6859
-5.7218 1.1411 2.7515
-5.7300 1.3672 2.6985
-5.7196 1.0850 2.7653
-5.7174 1.0291 2.7794
-5.7152 0.9735 2.7937
-5.7129 0.9179 2.8082
-5.7106 0.8624 2.8230
-1.6568 11.4875 2.8384
-1.7562 11.4514 2.8384
-1.8549 11.4134 2.8384
-1.9529 11.3734 2.8384
-2.0501 11.3314 2.8384
-2.1465 11.2874 2.8384
-2.2420 11.2415 2.8384
-2.4305 11.1442 2.8384
-2.3367 11.1938 2.8384
-2.5233 11.0928 2.8384
-2.7958 10.9280 2.8384
-2.6151 11.0396 2.8384
-2.8846 10.8697 2.8384
-2.7060 10.9847 2.8384
-2.9723 10.8097 2.8384
-3.1443 10.6850 2.8384
-3.0589 10.7482 2.8384
-3.2286 10.6204 2.8384
-3.4745 10.4177 2.8384
-3.3118 10.5543 2.8384
-3.5540 10.3474 2.8384
-3.3937 10.4867 2.8384
-3.6323 10.2757 2.8384
-3.7850 10.1285 2.8384
-3.7093 10.2028 2.8384
-3.8594 10.0531 2.8384
-4.0749 9.8201 2.8384
-3.9326 9.9766 2.8384
-4.1441 9.7403 2.8384
-4.0044 9.8989 2.8384
-4.2119 9.6596 2.8384
-4.2784 9.5778 2.8384
-4.3435 9.4952 2.8384
-4.5904 9.1563 2.8384
-4.4073 9.4117 2.8384
-4.8154 8.8060 2.8384
-5.0184 8.4467 2.8384
-4.6487 9.0697 2.8384
-4.4697 9.3273 2.8384
-4.8682 8.7169 2.8384
-5.0658 8.3558 2.8384
-4.7056 8.9824 2.8384
-4.5308 9.2422 2.8384
-4.9196 8.6273 2.8384
-4.7612 8.8945 2.8384
-5.1118 8.2645 2.8384
-5.1998 8.0808 2.8384
-4.9697 8.5372 2.8384
-5.3598 7.7105 2.8384
-5.1564 8.1728 2.8384
-5.2418 7.9886 2.8384
-5.4992 7.3379 2.8384
-5.3966 7.6175 2.8384
-5.6185 6.9646 2.8384
-5.2824 7.8961 2.8384
-5.5308 7.2445 2.8384
-5.4320 7.5244 2.8384
-5.6452 6.8714 2.8384
-5.3218 7.8034 2.8384
-5.6953 6.5657 2.8269
-5.4662 7.4311 2.8384
-5.5613 7.1511 2.8384
-5.7025 6.1181 2.7907
-5.6708 6.7782 2.8384
-5.6973 6.4507 2.8170
-5.7082 5.7014 2.7630
-5.5905 7.0578 2.8384
-5.7040 6.0112 2.7830
-5.6933 6.6829 2.8375
-5.6991 6.3377 2.8077
-5.7094 5.6016 2.7573
-5.7125 5.3115 2.7429
-5.7055 5.9062 2.7758
-5.7157 4.9451 2.7297
-5.7008 6.2270 2.7989
-5.7105 5.5033 2.7520
-5.7134 5.2179 2.7390
-5.7069 5.8029 2.7692
-5.7163 4.8567 2.7274
-5.7177 4.5992 2.7228
-5.7116 5.4067 2.7472
-5.7142 5.1255 2.7355
-5.7187 4.2713 2.7218
-5.7168 4.7697 2.7255
-5.7180 4.5156 2.7220
-5.7188 3.9594 2.7261
-5.7150 5.0346 2.7324
-5.7188 4.1919 2.7224
-5.7173 4.6838 2.7240
-5.7183 4.4331 2.7216
-5.7187 3.8837 2.7280
-5.7180 3.6616 2.7355
-5.7189 4.1135 2.7233
-5.7164 3.3763 2.7497
-5.7185 4.3517 2.7215
-5.7185 3.8089 2.7302
-5.7177 3.5892 2.7386
-5.7189 4.0360 2.7245
-5.7158 3.3067 2.7539
-5.7139 3.1020 2.7684
-5.7183 3.7349 2.7327
-5.7173 3.5175 2.7420
-5.7108 2.8373 2.7915
-5.7152 3.2378 2.7585
-5.7132 3.0349 2.7738
-5.7068 2.5812 2.8189
-5.7168 3.4465 2.7457
-5.7098 2.7726 2.7980
-5.7146 3.1696 2.7633
-5.7058 2.5184 2.8264
-5.7124 2.9685 2.7794
-5.6782 2.3229 2.8384
-5.7089 2.7083 2.8047
-5.6029 2.0563 2.8384
-5.7046 2.4563 2.8341
-5.7116 2.9026 2.7853
-5.6600 2.2553 2.8384
-5.7079 2.6445 2.8116
-5.5830 1.9911 2.8384
-5.6960 2.3910 2.8384
-5.5209 1.7992 2.8384
-5.6414 2.1884 2.8384
-5.4330 1.5516 2.8384
-5.5627 1.9265 2.8384
-5.3397 1.3133 2.8384
-5.4995 1.7364 2.8384
-5.6223 2.1220 2.8384
-5.4102 1.4911 2.8384
-5.5420 1.8626 2.8384
-5.3156 1.2551 2.8384
-5.4777 1.6742 2.8384
-5.3870 1.4312 2.8384
-5.2912 1.1976 2.8384
-5.4555 1.6126 2.8384
-5.3635 1.3720 2.8384
-5.2665 1.1405 2.8384
-5.2415 1.0842 2.8384
-5.2162 1.0283 2.8384
-5.1907 0.9730 2.8384
-5.1649 0.9183 2.8384
-5.1388 0.8641 2.8384
