ply
format ascii 1.0
element vertex 2051
property float32 x
property float32 y
property float32 z
end_header
-15.7642 -31.0478 2.8384
-14.1868 -30.1075 2.8384
-15.2195 -30.7185 2.8384
-13.6964 -29.8240 2.8384
-13.2220 -29.5540 2.8384
-14.6941 -30.4055 2.8384
-12.7624 -29.2968 2.8384
-12.3167 -29.0517 2.8384
-11.8842 -28.8181 2.8384
-11.4640 -28.5954 2.8384
-11.0554 -28.3830 2.8384
-10.6577 -28.1804 2.8384
-10.2702 -27.9873 2.8384
-9.8925 -27.8031 2.8384
-9.0125 -26.1442 2.6860
-8.6717 -25.9857 2.6860
-8.3387 -25.8348 2.6860
-31.0532 3.5986 -5.2815
-31.3683 3.3282 -5.2379
-32.4557 3.1269 -5.3196
-32.3130 2.7986 -5.1975
-31.7091 2.4382 -5.0042
-32.7514 2.2009 -5.0699
-28.8226 1.6579 -4.3754
-33.0489 1.5817 -4.9186
-33.1529 1.2669 -4.8360
-48.7541 1.3931 -6.9682
-49.2526 0.4594 -6.7520
-44.1285 -14.4496 -1.9202
-42.9777 -14.5299 -1.7537
-41.7213 -14.5519 -1.5894
-40.3966 -14.5254 -1.4292
-39.2660 -14.5452 -1.2823
-38.1893 -14.5640 -1.1430
-37.1625 -14.5820 -1.0107
-36.1907 -14.6026 -0.8851
-36.0302 -14.9411 -0.7822
-36.0381 -15.3512 -0.6830
-36.0461 -15.7649 -0.5835
-36.0535 -16.1820 -0.4836
-36.0606 -16.6029 -0.3833
-36.0678 -17.0279 -0.2825
-36.0751 -17.4570 -0.1813
-36.0824 -17.8904 -0.0795
-36.0898 -18.3283 0.0227
-36.0973 -18.7709 0.1255
-36.1049 -19.2182 0.2288
-36.1125 -19.6705 0.3328
-21.6559 -12.0677 0.2622
-21.6569 -12.3430 0.3253
-21.6579 -12.6216 0.3888
-21.6590 -12.9033 0.4526
-21.6600 -13.1886 0.5169
-21.6153 -13.4488 0.5805
-21.5762 -13.7150 0.6444
-21.5793 -14.0112 0.7100
-21.6625 -14.3645 0.7789
-21.6636 -14.6685 0.8457
-21.6647 -14.9767 0.9131
-21.6659 -15.2893 0.9811
-21.6671 -15.6063 1.0498
-21.6683 -15.9280 1.1190
-21.6695 -16.2545 1.1890
-21.6707 -16.5860 1.2596
-21.6720 -16.9226 1.3311
-21.6733 -17.2646 1.4032
-21.6745 -17.6121 1.4762
-21.6759 -17.9654 1.5500
-21.6772 -18.3247 1.6247
-21.6786 -18.6901 1.7003
-21.6933 -19.4512 1.8555
-21.5959 -18.9881 1.7700
-7.1911 -6.5753 0.6411
-21.6992 -21.0383 2.1767
-7.1431 -6.6603 0.6630
-6.6026 -6.5276 0.6876
-6.4725 -6.5253 0.6992
-21.6977 -20.6301 2.0947
-6.8501 -7.0422 0.7671
-21.7056 -22.7550 2.5176
-20.2371 -22.9508 2.6860
-19.7368 -22.8307 2.7059
-22.3732 -23.9189 2.6863
-19.7220 -23.2711 2.7918
-21.6243 -23.5766 2.6860
-19.4276 -23.3851 2.8384
-20.9139 -23.2550 2.6860
-18.8304 -23.1244 2.8384
-16.6701 -22.2004 2.8384
-18.2575 -22.8764 2.8384
-16.1800 -21.9956 2.8384
-17.7076 -22.6402 2.8384
-15.7075 -21.7999 2.8384
-17.1789 -22.4151 2.8384
-15.2513 -21.6129 2.8384
-14.8105 -21.4339 2.8384
-13.1846 -20.7916 2.8384
-14.3843 -21.2628 2.8384
-12.8086 -20.6473 2.8384
-13.9718 -21.0990 2.8384
-12.4433 -20.5091 2.8384
-13.5721 -20.9420 2.8384
-12.0884 -20.3763 2.8384
-11.7432 -20.2489 2.8384
-10.4496 -19.7880 2.8384
-11.4072 -20.1266 2.8384
-10.1459 -19.6839 2.8384
-11.0799 -20.0092 2.8384
-10.7608 -19.8964 2.8384
-9.8492 -19.5838 2.8384
-7.1708 -14.9939 2.1943
-9.0460 -18.4412 2.6860
-8.5150 -18.2696 2.6860
-7.7590 -18.0363 2.6860
-8.2579 -18.1887 2.6860
-7.5168 -17.9645 2.6860
-8.0060 -18.1110 2.6860
-6.8160 -17.7656 2.6860
-7.2790 -17.8955 2.6860
-6.5905 -17.7044 2.6860
-7.0455 -17.8293 2.6860
-6.3686 -17.6458 2.6860
-6.1503 -17.5895 2.6860
-5.9353 -17.5354 2.6860
-5.7781 -17.6506 2.7117
-30.1639 3.9025 -3.7515
-40.8533 4.8849 -4.9572
-40.7633 4.4756 -4.8236
-40.6743 4.0691 -4.6913
-40.5861 3.6653 -4.5603
-40.4987 3.2642 -4.4304
-40.4123 2.8656 -4.3018
-40.3266 2.4694 -4.1743
-40.2530 2.0761 -4.0491
-48.8886 2.0498 -4.7755
-48.3712 1.5621 -4.5848
-48.7910 1.1059 -4.4838
-47.7704 0.6232 -4.2526
-48.6287 0.1668 -4.1896
-49.4697 -0.3058 -4.1208
-49.1795 -0.7767 -3.9566
-48.6568 -1.2361 -3.7764
-48.9934 -1.7157 -3.6638
-49.6087 -2.2145 -3.5697
-49.0735 -2.6630 -3.3929
-48.8800 -3.1234 -3.2421
-42.2105 -9.7481 -0.7984
-39.4845 -9.5188 -0.6363
-38.3739 -9.6419 -0.5109
-38.3808 -10.0365 -0.4032
-38.3810 -11.6294 0.0304
-38.3229 -10.4156 -0.2947
-38.3881 -12.0357 0.1396
-38.3669 -10.8245 -0.1868
-38.4231 -12.4537 0.2493
-38.3740 -11.2257 -0.0784
-38.4303 -12.8659 0.3594
-21.6391 -7.4767 0.2645
-21.5577 -8.3911 0.5138
-21.6399 -7.7109 0.3269
-21.6408 -7.9468 0.3896
-21.5586 -8.6315 0.5771
-21.6417 -8.1845 0.4526
-21.6434 -8.9086 0.6432
-21.6453 -9.4016 0.7720
-21.6444 -9.1540 0.7074
-21.6462 -9.6514 0.8369
-21.6490 -10.4147 1.0341
-21.6471 -9.9034 0.9022
-21.6500 -10.6741 1.1007
-21.6481 -10.1579 0.9679
-21.6509 -10.9362 1.1678
-21.6529 -11.4685 1.3035
-21.6519 -11.2010 1.2354
-21.6539 -11.7390 1.3721
-21.6570 -12.5690 1.5814
-21.6549 -12.0125 1.4413
-21.6580 -12.8522 1.6524
-21.6559 -12.2891 1.5110
-21.6591 -13.1388 1.7240
-21.5753 -13.6686 1.8620
-21.6602 -13.4291 1.7963
-21.5784 -13.9664 1.9356
-21.6638 -14.9372 2.1689
-21.6615 -14.3213 2.0175
-21.6649 -15.2517 2.2459
-21.6626 -14.6271 2.0928
-21.6661 -15.5708 2.3238
-21.6685 -16.2233 2.4825
-21.6673 -15.8946 2.4027
-21.6698 -16.5571 2.5633
-20.7019 -16.8023 2.6860
-22.0067 -17.1579 2.6861
-20.0941 -16.6382 2.6860
-19.7194 -16.6564 2.7144
-21.3385 -16.9752 2.6860
-19.7058 -16.9789 2.7921
-19.4696 -17.1111 2.8384
-17.4315 -16.5789 2.8384
-18.9293 -16.9686 2.8384
-16.9689 -16.4602 2.8384
-16.5229 -16.3466 2.8384
-7.1635 -6.5496 1.1044
-16.0925 -16.2379 2.8384
-7.1167 -6.6365 1.1278
-15.6767 -16.1336 2.8384
-14.1439 -15.7568 2.8384
-15.2747 -16.0335 2.8384
-13.7898 -15.6717 2.8384
-14.8857 -15.9375 2.8384
-13.4462 -15.5899 2.8384
-14.5090 -15.8454 2.8384
-13.1124 -15.5111 2.8384
-12.7880 -15.4353 2.8384
-11.5750 -15.1590 2.8384
-12.4725 -15.3623 2.8384
-11.2909 -15.0960 2.8384
-12.1654 -15.2920 2.8384
-11.0137 -15.0353 2.8384
-11.8664 -15.2243 2.8384
-10.7432 -14.9767 2.8384
-10.4789 -14.9201 2.8384
-8.9702 -13.9229 2.6860
-10.2206 -14.8655 2.8384
-8.7461 -13.8780 2.6860
-8.5265 -13.8346 2.6860
-8.3113 -13.7927 2.6860
-9.9681 -14.8128 2.8384
-8.1001 -13.7522 2.6860
-9.1991 -13.9694 2.6860
-7.8930 -13.7131 2.6860
-7.6896 -13.6753 2.6860
-7.2936 -13.6035 2.6860
-7.4898 -13.6388 2.6860
-7.1006 -13.5693 2.6860
-6.5405 -13.4738 2.6860
-6.9109 -13.5364 2.6860
-6.3595 -13.4441 2.6860
-6.7242 -13.5046 2.6860
-6.1813 -13.4155 2.6860
-5.8325 -13.3611 2.6860
-6.0056 -13.3878 2.6860
-5.7638 -13.5759 2.7345
-5.7518 -13.9372 2.8125
-5.6290 -14.0403 2.8384
-5.4554 -14.0158 2.8384
-5.2839 -13.9923 2.8384
-5.1144 -13.9696 2.8384
-4.9469 -13.9478 2.8384
-4.7812 -13.9268 2.8384
-4.6173 -13.9066 2.8384
-39.4079 5.6261 -3.1135
-30.1348 4.0061 -2.2917
-39.2477 4.8331 -2.8692
-38.8180 4.4008 -2.7239
-39.1576 4.0577 -2.6333
-39.2406 3.6847 -2.5246
-39.1709 3.2980 -2.4065
-39.1775 2.9191 -2.2935
-39.1842 2.5406 -2.1809
-39.4087 2.1746 -2.0800
-49.8400 2.2696 -2.4876
-49.7485 1.7861 -2.3406
-49.1850 0.3464 -1.8933
-49.6504 -0.1276 -1.7702
-49.6177 -0.6045 -1.6282
-49.1305 -1.0709 -1.4729
-49.9210 -2.5293 -1.0727
-21.5312 -3.3941 0.2086
-21.6242 -3.6222 0.2712
-21.6250 -3.8365 0.3331
-21.6258 -4.0517 0.3951
-21.6265 -4.2676 0.4573
-21.6273 -4.4845 0.5196
-21.6281 -4.7022 0.5822
-21.6289 -4.9210 0.6449
-21.6298 -5.1408 0.7079
-21.6306 -5.3617 0.7711
-21.6314 -5.5837 0.8345
-21.6322 -5.8069 0.8982
-21.6330 -6.0314 0.9622
-21.6339 -6.2571 1.0265
-21.6347 -6.4842 1.0910
-21.6355 -6.7128 1.1559
-21.6364 -6.9428 1.2211
-21.6372 -7.1744 1.2867
-21.6381 -7.4075 1.3526
-21.6390 -7.6423 1.4190
-21.6398 -7.8789 1.4857
-21.6407 -8.1173 1.5529
-21.5568 -8.3247 1.6141
-21.5577 -8.5659 1.6819
-21.5595 -8.8095 1.7503
-21.6434 -9.0896 1.8260
-21.6443 -9.3380 1.8956
-21.6452 -9.5886 1.9657
-21.6462 -9.8416 2.0363
-21.6471 -10.0969 2.1076
-21.6480 -10.3548 2.1794
-21.6490 -10.6152 2.2519
-21.6500 -10.8783 2.3250
-21.6510 -11.1442 2.3988
-21.6519 -11.4129 2.4733
-21.6529 -11.6846 2.5486
-22.1618 -12.2398 2.6862
-21.5317 -12.1676 2.6860
-20.9314 -12.0996 2.6860
-20.3577 -12.0349 2.6860
-19.8087 -11.9732 2.6860
-19.7023 -12.1738 2.7445
-19.6897 -12.4341 2.8164
-19.3322 -12.4749 2.8384
-18.8404 -12.4209 2.8384
-18.3673 -12.3693 2.8384
-17.9117 -12.3198 2.8384
-17.4726 -12.2724 2.8384
-17.0491 -12.2270 2.8384
-16.6401 -12.1834 2.8384
-16.2449 -12.1416 2.8384
-15.8628 -12.1014 2.8384
-15.4929 -12.0628 2.8384
-15.1347 -12.0256 2.8384
-14.7875 -11.9899 2.8384
-14.4508 -11.9555 2.8384
-14.1240 -11.9223 2.8384
-13.8065 -11.8904 2.8384
-13.4980 -11.8595 2.8384
-7.2109 -6.4634 1.5508
-7.1635 -6.5502 1.5754
-7.1161 -6.6377 1.6003
-12.3451 -11.7467 2.8384
-12.0752 -11.7209 2.8384
-11.5553 -11.6718 2.8384
-11.8121 -11.6959 2.8384
-11.3045 -11.6484 2.8384
-11.0597 -11.6259 2.8384
-10.5863 -11.5829 2.8384
-10.8203 -11.6040 2.8384
-10.3574 -11.5624 2.8384
-10.1334 -11.5426 2.8384
-9.1785 -10.8871 2.6860
-9.9141 -11.5234 2.8384
-8.9792 -10.8700 2.6860
-8.4043 -10.8220 2.6860
-8.7839 -10.8535 2.6860
-8.2197 -10.8069 2.6860
-8.5923 -10.8375 2.6860
-8.0385 -10.7923 2.6860
-7.6855 -10.7645 2.6860
-7.8605 -10.7782 2.6860
-7.5135 -10.7512 2.6860
-7.0139 -10.7136 2.6860
-7.3443 -10.7383 2.6860
-6.8526 -10.7018 2.6860
-7.1778 -10.7257 2.6860
-6.6937 -10.6904 2.6860
-6.3829 -10.6686 2.6860
-6.5372 -10.6794 2.6860
-6.2307 -10.6582 2.6860
-6.0807 -10.6481 2.6860
-5.7866 -10.6289 2.6860
-5.9327 -10.6383 2.6860
-5.7559 -10.8333 2.7401
-5.7455 -11.0846 2.8060
-5.5163 -11.1948 2.8384
-5.6632 -11.2037 2.8384
-5.3710 -11.1862 2.8384
-4.9449 -11.1621 2.8384
-5.2274 -11.1779 2.8384
-4.8058 -11.1546 2.8384
-5.0854 -11.1699 2.8384
-4.6681 -11.1474 2.8384
-4.5318 -11.1404 2.8384
-4.3968 -11.1336 2.8384
-4.2630 -11.1270 2.8384
-4.1304 -11.1207 2.8384
-3.9990 -11.1146 2.8384
-3.8686 -11.1087 2.8384
-3.7394 -11.1031 2.8384
-39.2742 6.1311 -1.3271
-39.2809 5.7454 -1.2139
-30.1672 4.1163 -0.8454
-39.2181 4.9674 -0.9864
-37.9120 4.4318 -0.8448
-39.3078 4.2121 -0.7635
-39.3144 3.8307 -0.6514
-39.1685 3.4366 -0.5373
-38.6436 3.0164 -0.4200
-39.1817 2.6797 -0.3144
-39.2719 2.3068 -0.2036
-48.9411 2.4029 -0.1148
-49.5484 1.9554 0.0244
-21.6018 0.0215 0.2557
-21.6026 -0.1861 0.3170
-21.6033 -0.3939 0.3784
-21.6041 -0.6017 0.4398
-21.6048 -0.8096 0.5013
-21.6056 -1.0178 0.5629
-21.6064 -1.2262 0.6245
-21.6071 -1.4348 0.6863
-21.6079 -1.6438 0.7482
-21.6087 -1.8531 0.8102
-21.6094 -2.0628 0.8724
-21.6102 -2.2729 0.9347
-21.6110 -2.4836 0.9972
-21.6118 -2.6947 1.0599
-21.6125 -2.9065 1.1227
-21.5378 -3.1079 1.1817
-21.5303 -3.3189 1.2443
-21.5310 -3.5318 1.3076
-21.6240 -3.7615 1.3770
-21.6248 -3.9769 1.4411
-21.6256 -4.1931 1.5055
-21.6264 -4.4103 1.5701
-21.6272 -4.6284 1.6351
-21.6280 -4.8474 1.7004
-21.6288 -5.0676 1.7660
-21.6296 -5.2888 1.8320
-21.6304 -5.5112 1.8984
-21.6312 -5.7348 1.9652
-21.6321 -5.9597 2.0323
-21.6329 -6.1859 2.0999
-21.6337 -6.4135 2.1679
-21.6346 -6.6426 2.2364
-21.6354 -6.8731 2.3054
-21.6363 -7.1052 2.3749
-21.6371 -7.3389 2.4448
-21.6380 -7.5743 2.5153
-21.6389 -7.8115 2.5864
-21.8675 -8.1352 2.6860
-21.2898 -8.1569 2.6860
-20.7373 -8.1777 2.6860
-20.2083 -8.1974 2.6860
-19.7137 -8.2214 2.6877
-19.6912 -8.4384 2.7526
-19.6794 -8.6616 2.8196
-19.3362 -8.7370 2.8384
-18.8792 -8.7536 2.8384
-18.4389 -8.7696 2.8384
-18.0145 -8.7848 2.8384
-17.6049 -8.7995 2.8384
-17.2094 -8.8136 2.8384
-16.8271 -8.8272 2.8384
-16.4573 -8.8402 2.8384
-16.0994 -8.8528 2.8384
-15.7527 -8.8648 2.8384
-15.4166 -8.8764 2.8384
-15.0906 -8.8876 2.8384
-14.7742 -8.8985 2.8384
-14.4669 -8.9089 2.8384
-14.1683 -8.9189 2.8384
-13.8779 -8.9286 2.8384
-13.5954 -8.9380 2.8384
-13.3203 -8.9471 2.8384
-13.0525 -8.9559 2.8384
-12.7914 -8.9643 2.8384
-12.5368 -8.9726 2.8384
-12.2885 -8.9805 2.8384
-12.0461 -8.9882 2.8384
-11.8094 -8.9956 2.8384
-11.5782 -9.0029 2.8384
-11.3522 -9.0098 2.8384
-11.1312 -9.0166 2.8384
-10.9150 -9.0232 2.8384
-10.7034 -9.0296 2.8384
-10.4962 -9.0358 2.8384
-10.2933 -9.0418 2.8384
-7.2115 -6.4636 2.0278
-7.1636 -6.5513 2.0540
-7.1155 -6.6394 2.0804
-7.0673 -6.7284 2.1070
-8.8354 -8.5823 2.6860
-8.6644 -8.5871 2.6860
-8.4964 -8.5918 2.6860
-8.3314 -8.5963 2.6860
-8.1693 -8.6006 2.6860
-8.0098 -8.6049 2.6860
-7.8530 -8.6090 2.6860
-7.6988 -8.6130 2.6860
-7.5469 -8.6169 2.6860
-7.3975 -8.6207 2.6860
-7.2503 -8.6244 2.6860
-7.1054 -8.6280 2.6860
-6.9625 -8.6315 2.6860
-6.8218 -8.6350 2.6860
-6.6830 -8.6383 2.6860
-6.5461 -8.6415 2.6860
-6.4111 -8.6446 2.6860
-6.2778 -8.6476 2.6860
-6.1463 -8.6506 2.6860
-6.0164 -8.6535 2.6860
-5.8882 -8.6563 2.6860
-5.7615 -8.6590 2.6860
-5.7507 -8.8373 2.7405
-5.7416 -9.0242 2.7976
-5.6962 -9.1585 2.8384
-5.5684 -9.1611 2.8384
-5.4419 -9.1635 2.8384
-5.3169 -9.1660 2.8384
-5.1931 -9.1683 2.8384
-5.0706 -9.1706 2.8384
-4.9493 -9.1729 2.8384
-4.8291 -9.1750 2.8384
-4.7101 -9.1771 2.8384
-4.5922 -9.1792 2.8384
-4.4754 -9.1811 2.8384
-4.3596 -9.1831 2.8384
-4.2447 -9.1849 2.8384
-4.1309 -9.1867 2.8384
-4.0179 -9.1885 2.8384
-3.9058 -9.1902 2.8384
-3.7946 -9.1918 2.8384
-3.6842 -9.1934 2.8384
-3.5746 -9.1949 2.8384
-3.4658 -9.1964 2.8384
-3.3577 -9.1978 2.8384
-3.2503 -9.1992 2.8384
-3.1436 -9.2006 2.8384
-21.5916 3.6591 0.2477
-21.5924 3.4462 0.3086
-21.5932 3.2340 0.3694
-21.5940 3.0223 0.4301
-21.5948 2.8112 0.4908
-21.5955 2.6007 0.5515
-21.5963 2.3906 0.6122
-21.5094 2.1721 0.6702
-21.5102 1.9637 0.7306
-21.5148 1.7559 0.7913
-21.5955 1.5539 0.8550
-21.5963 1.3456 0.9158
-21.5970 1.1375 0.9767
-21.5978 0.9296 1.0377
-21.5985 0.7218 1.0988
-21.5993 0.5141 1.1600
-21.6001 0.3065 1.2212
-21.6008 0.0989 1.2827
-21.6016 -0.1088 1.3442
-21.6024 -0.3165 1.4059
-21.6031 -0.5243 1.4678
-21.6039 -0.7323 1.5299
-21.6047 -0.9405 1.5921
-21.6054 -1.1489 1.6546
-21.6062 -1.3576 1.7173
-21.6070 -1.5666 1.7802
-21.6077 -1.7760 1.8433
-21.6085 -1.9859 1.9067
-21.6093 -2.1961 1.9704
-21.6100 -2.4069 2.0343
-21.6108 -2.6182 2.0986
-21.6116 -2.8301 2.1632
-21.5369 -3.0320 2.2203
-21.5293 -3.2432 2.2844
-21.5301 -3.4563 2.3497
-21.6231 -3.6859 2.4258
-21.6238 -3.9015 2.4922
-21.6246 -4.1180 2.5590
-22.1194 -4.4345 2.6862
-21.5638 -4.5406 2.6860
-21.0329 -4.6421 2.6860
-20.5243 -4.7388 2.6860
-20.0363 -4.8313 2.6860
-19.6914 -4.9507 2.7030
-19.6804 -5.1516 2.7652
-19.6694 -5.3534 2.8277
-19.3028 -5.4556 2.8384
-18.8777 -5.5343 2.8384
-18.4676 -5.6098 2.8384
-18.0717 -5.6823 2.8384
-17.6891 -5.7520 2.8384
-17.3193 -5.8190 2.8384
-16.9613 -5.8835 2.8384
-16.6147 -5.9456 2.8384
-16.2789 -6.0055 2.8384
-15.9532 -6.0632 2.8384
-15.6373 -6.1189 2.8384
-15.3305 -6.1726 2.8384
-15.0325 -6.2244 2.8384
-14.7429 -6.2746 2.8384
-14.4612 -6.3230 2.8384
-14.1870 -6.3698 2.8384
-13.9201 -6.4151 2.8384
-13.6601 -6.4589 2.8384
-13.4067 -6.5013 2.8384
-13.1596 -6.5425 2.8384
-12.9185 -6.5823 2.8384
-12.6833 -6.6208 2.8384
-12.4535 -6.6582 2.8384
-12.2290 -6.6945 2.8384
-12.0097 -6.7297 2.8384
-11.7952 -6.7638 2.8384
-11.5853 -6.7970 2.8384
-11.3800 -6.8292 2.8384
-11.1790 -6.8604 2.8384
-10.9821 -6.8908 2.8384
-10.7893 -6.9203 2.8384
-10.6002 -6.9489 2.8384
-10.4149 -6.9768 2.8384
-10.2331 -7.0039 2.8384
-10.0547 -7.0303 2.8384
-9.8797 -7.0559 2.8384
-9.1866 -6.7007 2.6860
-9.0269 -6.7236 2.6860
-8.8699 -6.7460 2.6860
-8.7157 -6.7678 2.6860
-8.5641 -6.7890 2.6860
-8.4150 -6.8096 2.6860
-8.2683 -6.8297 2.6860
-8.1240 -6.8493 2.6860
-7.9819 -6.8683 2.6860
-7.8421 -6.8869 2.6860
-7.2121 -6.4638 2.5144
-7.1638 -6.5523 2.5423
-7.1152 -6.6413 2.5705
-7.0663 -6.7309 2.5989
-7.1733 -6.9729 2.6860
-7.0452 -6.9889 2.6860
-6.9188 -7.0044 2.6860
-6.7942 -7.0195 2.6860
-6.6711 -7.0342 2.6860
-6.5497 -7.0486 2.6860
-6.4297 -7.0626 2.6860
-6.3113 -7.0763 2.6860
-6.1943 -7.0896 2.6860
-6.0787 -7.1026 2.6860
-5.9644 -7.1153 2.6860
-5.8515 -7.1276 2.6860
-5.7543 -7.1577 2.6928
-5.7465 -7.3002 2.7419
-5.7385 -7.4462 2.7923
-5.7191 -7.5810 2.8384
-5.6061 -7.5925 2.8384
-5.4942 -7.6037 2.8384
-5.3834 -7.6146 2.8384
-5.2738 -7.6253 2.8384
-5.1651 -7.6356 2.8384
-5.0575 -7.6457 2.8384
-4.9509 -7.6556 2.8384
-4.8452 -7.6651 2.8384
-4.7405 -7.6745 2.8384
-4.6366 -7.6836 2.8384
-4.5337 -7.6924 2.8384
-4.4315 -7.7010 2.8384
-4.3302 -7.7094 2.8384
-4.2297 -7.7175 2.8384
-4.1300 -7.7254 2.8384
-4.0310 -7.7332 2.8384
-3.9327 -7.7406 2.8384
-3.8352 -7.7479 2.8384
-3.7383 -7.7549 2.8384
-3.6420 -7.7618 2.8384
-3.5464 -7.7684 2.8384
-3.4514 -7.7749 2.8384
-3.3570 -7.7812 2.8384
-3.2632 -7.7872 2.8384
-3.1699 -7.7931 2.8384
-3.0772 -7.7988 2.8384
-2.9849 -7.8043 2.8384
-2.8932 -7.8096 2.8384
-2.8019 -7.8147 2.8384
-2.7112 -7.8197 2.8384
-21.5899 3.9488 1.2303
-21.5907 3.7355 1.2896
-21.5915 3.5229 1.3490
-21.5922 3.3108 1.4085
-21.5930 3.0994 1.4680
-21.5938 2.8886 1.5277
-21.5946 2.6782 1.5874
-21.5953 2.4683 1.6472
-21.5085 2.2497 1.7002
-21.5092 2.0414 1.7600
-21.5100 1.8335 1.8200
-21.5945 1.6323 1.8874
-21.5953 1.4240 1.9479
-21.5961 1.2161 2.0086
-21.5968 1.0083 2.0695
-21.5976 0.8006 2.1306
-21.5984 0.5930 2.1919
-21.5991 0.3854 2.2534
-21.5999 0.1779 2.3152
-21.6006 -0.0298 2.3772
-21.6014 -0.2374 2.4394
-21.6022 -0.4453 2.5020
-21.6029 -0.6533 2.5648
-22.0818 -0.8805 2.6861
-21.5609 -1.0678 2.6860
-21.0625 -1.2465 2.6860
-20.5841 -1.4174 2.6860
-20.1245 -1.5808 2.6860
-19.6968 -1.7385 2.6880
-19.6760 -1.9281 2.7444
-19.6657 -2.1190 2.8027
-19.4991 -2.2917 2.8384
-19.0961 -2.4317 2.8384
-18.7070 -2.5662 2.8384
-18.3309 -2.6955 2.8384
-17.9671 -2.8199 2.8384
-17.6150 -2.9396 2.8384
-17.2740 -3.0551 2.8384
-16.9435 -3.1664 2.8384
-16.6229 -3.2736 2.8384
-16.3119 -3.3772 2.8384
-16.0099 -3.4772 2.8384
-15.7164 -3.5737 2.8384
-15.4311 -3.6671 2.8384
-15.1536 -3.7573 2.8384
-14.8836 -3.8446 2.8384
-14.6207 -3.9291 2.8384
-14.3645 -4.0109 2.8384
-14.1149 -4.0901 2.8384
-13.8715 -4.1669 2.8384
-13.6339 -4.2413 2.8384
-13.4021 -4.3135 2.8384
-13.1758 -4.3834 2.8384
-12.9546 -4.4513 2.8384
-12.7385 -4.5172 2.8384
-12.5272 -4.5812 2.8384
-12.3206 -4.6434 2.8384
-12.1184 -4.7037 2.8384
-11.9204 -4.7624 2.8384
-11.7266 -4.8194 2.8384
-11.5367 -4.8749 2.8384
-11.3506 -4.9288 2.8384
-11.1682 -4.9813 2.8384
-10.9894 -5.0323 2.8384
-10.8139 -5.0820 2.8384
-10.6418 -5.1304 2.8384
-10.4728 -5.1775 2.8384
-10.3068 -5.2233 2.8384
-10.1438 -5.2680 2.8384
-9.9837 -5.3115 2.8384
-9.8263 -5.3539 2.8384
-9.1523 -5.1056 2.6860
-9.0084 -5.1437 2.6860
-8.8667 -5.1809 2.6860
-8.7274 -5.2172 2.6860
-8.5903 -5.2525 2.6860
-8.4553 -5.2870 2.6860
-8.3223 -5.3206 2.6860
-8.1914 -5.3534 2.6860
-8.0624 -5.3855 2.6860
-7.9353 -5.4167 2.6860
-7.8100 -5.4472 2.6860
-7.6865 -5.4770 2.6860
-7.5646 -5.5061 2.6860
-7.4445 -5.5345 2.6860
-7.3259 -5.5622 2.6860
-7.2089 -5.5892 2.6860
-7.0934 -5.6157 2.6860
-6.9794 -5.6415 2.6860
-6.8668 -5.6666 2.6860
-6.7556 -5.6913 2.6860
-6.6457 -5.7153 2.6860
-6.5371 -5.7388 2.6860
-6.4298 -5.7618 2.6860
-6.3238 -5.7841 2.6860
-6.2189 -5.8060 2.6860
-6.1152 -5.8275 2.6860
-6.0126 -5.8484 2.6860
-5.9112 -5.8688 2.6860
-5.8107 -5.8887 2.6860
-5.7493 -5.9475 2.7039
-5.7423 -6.0638 2.7479
-5.7351 -6.1825 2.7929
-5.7267 -6.3024 2.8384
-5.6257 -6.3211 2.8384
-5.5257 -6.3395 2.8384
-5.4267 -6.3573 2.8384
-5.3285 -6.3748 2.8384
-5.2313 -6.3919 2.8384
-5.1348 -6.4086 2.8384
-5.0392 -6.4248 2.8384
-4.9444 -6.4407 2.8384
-4.8504 -6.4562 2.8384
-4.7572 -6.4713 2.8384
-4.6647 -6.4861 2.8384
-4.5729 -6.5005 2.8384
-4.4818 -6.5146 2.8384
-4.3914 -6.5283 2.8384
-4.3016 -6.5417 2.8384
-4.2125 -6.5548 2.8384
-4.1240 -6.5675 2.8384
-4.0361 -6.5799 2.8384
-3.9488 -6.5920 2.8384
-3.8621 -6.6038 2.8384
-3.7759 -6.6153 2.8384
-3.6903 -6.6264 2.8384
-3.6052 -6.6374 2.8384
-3.5206 -6.6479 2.8384
-3.4365 -6.6582 2.8384
-3.3529 -6.6682 2.8384
-3.2697 -6.6780 2.8384
-3.1870 -6.6875 2.8384
-3.1048 -6.6967 2.8384
-3.0229 -6.7056 2.8384
-2.9415 -6.7143 2.8384
-2.8604 -6.7226 2.8384
-2.7798 -6.7308 2.8384
-2.6995 -6.7387 2.8384
-2.6195 -6.7463 2.8384
-2.5399 -6.7537 2.8384
-2.4607 -6.7609 2.8384
-2.3817 -6.7678 2.8384
-21.5881 4.2413 2.2223
-21.5889 4.0276 2.2802
-21.5897 3.8146 2.3382
-21.5905 3.6022 2.3964
-21.5913 3.3904 2.4547
-21.5920 3.1793 2.5132
-21.5928 2.9686 2.5720
-22.0469 2.8164 2.6861
-21.5621 2.5450 2.6860
-21.0971 2.2856 2.6860
-20.6501 2.0373 2.6860
-20.2199 1.7995 2.6860
-19.8055 1.5731 2.6860
-19.6716 1.3715 2.7228
-19.6621 1.1815 2.7766
-19.6525 0.9919 2.8307
-19.3260 0.7895 2.8384
-18.9584 0.5923 2.8384
-18.6026 0.4025 2.8384
-18.2580 0.2196 2.8384
-17.9241 0.0433 2.8384
-17.6003 -0.1267 2.8384
-17.2862 -0.2907 2.8384
-16.9811 -0.4490 2.8384
-16.6848 -0.6020 2.8384
-16.3968 -0.7498 2.8384
-16.1167 -0.8927 2.8384
-15.8442 -1.0310 2.8384
-15.5789 -1.1648 2.8384
-15.3204 -1.2943 2.8384
-15.0685 -1.4197 2.8384
-14.8230 -1.5413 2.8384
-14.5835 -1.6591 2.8384
-14.3498 -1.7733 2.8384
-14.1216 -1.8841 2.8384
-13.8987 -1.9917 2.8384
-13.6809 -2.0960 2.8384
-13.4681 -2.1974 2.8384
-13.2599 -2.2958 2.8384
-13.0563 -2.3915 2.8384
-12.8570 -2.4845 2.8384
-12.6619 -2.5748 2.8384
-12.4708 -2.6627 2.8384
-12.2837 -2.7483 2.8384
-12.1002 -2.8314 2.8384
-11.9204 -2.9124 2.8384
-11.7440 -2.9912 2.8384
-11.5710 -3.0680 2.8384
-11.4012 -3.1427 2.8384
-11.2346 -3.2155 2.8384
-11.0710 -3.2865 2.8384
-10.9102 -3.3557 2.8384
-10.7524 -3.4231 2.8384
-10.5972 -3.4888 2.8384
-10.4446 -3.5529 2.8384
-10.2947 -3.6154 2.8384
-10.1471 -3.6765 2.8384
-10.0020 -3.7360 2.8384
-9.8592 -3.7940 2.8384
-9.7186 -3.8507 2.8384
-9.0659 -3.6963 2.6860
-8.9369 -3.7475 2.6860
-8.8098 -3.7974 2.6860
-8.6846 -3.8462 2.6860
-8.5613 -3.8939 2.6860
-8.4397 -3.9404 2.6860
-8.3198 -3.9859 2.6860
-8.2016 -4.0303 2.6860
-8.0850 -4.0737 2.6860
-7.9699 -4.1161 2.6860
-7.8564 -4.1576 2.6860
-7.7444 -4.1982 2.6860
-7.6337 -4.2379 2.6860
-7.5245 -4.2766 2.6860
-7.4167 -4.3145 2.6860
-7.3101 -4.3516 2.6860
-7.2049 -4.3879 2.6860
-7.1008 -4.4234 2.6860
-6.9980 -4.4580 2.6860
-6.8964 -4.4920 2.6860
-6.7960 -4.5252 2.6860
-6.6966 -4.5577 2.6860
-6.5984 -4.5895 2.6860
-6.5012 -4.6206 2.6860
-6.4050 -4.6510 2.6860
-6.3098 -4.6808 2.6860
-6.2156 -4.7099 2.6860
-6.1224 -4.7384 2.6860
-6.0301 -4.7663 2.6860
-5.9387 -4.7937 2.6860
-5.8482 -4.8204 2.6860
-5.7586 -4.8465 2.6860
-5.7439 -4.9358 2.7211
-5.7375 -5.0338 2.7610
-5.7310 -5.1335 2.8016
-5.7149 -5.2263 2.8384
-5.6244 -5.2511 2.8384
-5.5346 -5.2754 2.8384
-5.4456 -5.2992 2.8384
-5.3574 -5.3224 2.8384
-5.2698 -5.3451 2.8384
-5.1830 -5.3674 2.8384
-5.0968 -5.3892 2.8384
-5.0113 -5.4105 2.8384
-4.9265 -5.4313 2.8384
-4.8423 -5.4517 2.8384
-4.7587 -5.4717 2.8384
-4.6757 -5.4911 2.8384
-4.5933 -5.5102 2.8384
-4.5115 -5.5289 2.8384
-4.4302 -5.5471 2.8384
-4.3495 -5.5649 2.8384
-4.2693 -5.5823 2.8384
-4.1896 -5.5993 2.8384
-4.1105 -5.6160 2.8384
-4.0318 -5.6322 2.8384
-3.9536 -5.6481 2.8384
-3.8758 -5.6636 2.8384
-3.7986 -5.6787 2.8384
-3.7217 -5.6935 2.8384
-3.6453 -5.7079 2.8384
-3.5693 -5.7220 2.8384
-3.4937 -5.7357 2.8384
-3.4185 -5.7491 2.8384
-3.3437 -5.7621 2.8384
-3.2693 -5.7749 2.8384
-3.1952 -5.7872 2.8384
-3.1215 -5.7993 2.8384
-3.0481 -5.8111 2.8384
-2.9751 -5.8225 2.8384
-2.9024 -5.8336 2.8384
-2.8300 -5.8444 2.8384
-2.7579 -5.8550 2.8384
-2.6861 -5.8652 2.8384
-2.6146 -5.8751 2.8384
-2.5434 -5.8847 2.8384
-2.4725 -5.8941 2.8384
-2.4018 -5.9032 2.8384
-2.3313 -5.9119 2.8384
-2.2611 -5.9204 2.8384
-2.1912 -5.9286 2.8384
-2.1214 -5.9366 2.8384
-18.9786 3.9898 2.8384
-18.6538 3.7363 2.8384
-18.3385 3.4917 2.8384
-18.0324 3.2556 2.8384
-17.7349 3.0275 2.8384
-17.4456 2.8072 2.8384
-17.1642 2.5941 2.8384
-16.8903 2.3881 2.8384
-16.6236 2.1887 2.8384
-16.3637 1.9957 2.8384
-16.1104 1.8087 2.8384
-15.8635 1.6276 2.8384
-15.6225 1.4520 2.8384
-15.3873 1.2818 2.8384
-15.1576 1.1167 2.8384
-14.9333 0.9565 2.8384
-14.7140 0.8010 2.8384
-14.4997 0.6500 2.8384
-14.2901 0.5034 2.8384
-14.0850 0.3609 2.8384
-13.8843 0.2224 2.8384
-13.6877 0.0877 2.8384
-13.4952 -0.0432 2.8384
-13.3067 -0.1706 2.8384
-13.1219 -0.2945 2.8384
-12.9407 -0.4152 2.8384
-12.7629 -0.5326 2.8384
-12.5886 -0.6470 2.8384
-12.4176 -0.7584 2.8384
-12.2497 -0.8669 2.8384
-12.0848 -0.9727 2.8384
-11.9229 -1.0758 2.8384
-11.7638 -1.1763 2.8384
-11.6075 -1.2743 2.8384
-11.4538 -1.3699 2.8384
-11.3027 -1.4632 2.8384
-11.1542 -1.5542 2.8384
-11.0080 -1.6430 2.8384
-10.8642 -1.7297 2.8384
-10.7227 -1.8143 2.8384
-10.5834 -1.8970 2.8384
-10.4462 -1.9777 2.8384
-10.3111 -2.0565 2.8384
-10.1780 -2.1335 2.8384
-10.0468 -2.2088 2.8384
-9.9176 -2.2823 2.8384
-9.7902 -2.3542 2.8384
-9.1457 -2.2943 2.6860
-9.0285 -2.3593 2.6860
-8.9129 -2.4229 2.6860
-8.7988 -2.4851 2.6860
-8.6863 -2.5459 2.6860
-8.5753 -2.6053 2.6860
-8.4656 -2.6635 2.6860
-8.3574 -2.7205 2.6860
-8.2505 -2.7762 2.6860
-8.1450 -2.8307 2.6860
-8.0407 -2.8841 2.6860
-7.9377 -2.9363 2.6860
-7.8359 -2.9875 2.6860
-7.7353 -3.0375 2.6860
-7.6359 -3.0865 2.6860
-7.5375 -3.1345 2.6860
-7.4403 -3.1815 2.6860
-7.3442 -3.2276 2.6860
-7.2491 -3.2727 2.6860
-7.1550 -3.3168 2.6860
-7.0619 -3.3601 2.6860
-6.9698 -3.4025 2.6860
-6.8786 -3.4440 2.6860
-6.7884 -3.4847 2.6860
-6.6990 -3.5245 2.6860
-6.6106 -3.5636 2.6860
-6.5230 -3.6019 2.6860
-6.4362 -3.6394 2.6860
-6.3502 -3.6761 2.6860
-6.2651 -3.7122 2.6860
-6.1807 -3.7475 2.6860
-6.0971 -3.7820 2.6860
-6.0142 -3.8159 2.6860
-5.9321 -3.8491 2.6860
-5.8506 -3.8817 2.6860
-5.7699 -3.9137 2.6860
-5.7431 -3.9819 2.7112
-5.7374 -4.0656 2.7468
-5.7315 -4.1505 2.7831
-5.7256 -4.2365 2.8200
-5.6810 -4.2947 2.8384
-5.5998 -4.3246 2.8384
-5.5191 -4.3539 2.8384
-5.4390 -4.3827 2.8384
-5.3596 -4.4109 2.8384
-5.2807 -4.4384 2.8384
-5.2024 -4.4655 2.8384
-5.1246 -4.4920 2.8384
-5.0474 -4.5180 2.8384
-4.9707 -4.5435 2.8384
-4.8946 -4.5684 2.8384
-4.8189 -4.5929 2.8384
-4.7437 -4.6168 2.8384
-4.6691 -4.6403 2.8384
-4.5948 -4.6633 2.8384
-4.5211 -4.6858 2.8384
-4.4478 -4.7078 2.8384
-4.3749 -4.7295 2.8384
-4.3025 -4.7506 2.8384
-4.2305 -4.7713 2.8384
-4.1589 -4.7916 2.8384
-4.0877 -4.8115 2.8384
-4.0169 -4.8309 2.8384
-3.9464 -4.8499 2.8384
-3.8764 -4.8685 2.8384
-3.8067 -4.8867 2.8384
-3.7374 -4.9045 2.8384
-3.6684 -4.9219 2.8384
-3.5997 -4.9389 2.8384
-3.5314 -4.9556 2.8384
-3.4634 -4.9718 2.8384
-3.3958 -4.9877 2.8384
-3.3284 -5.0033 2.8384
-3.2613 -5.0184 2.8384
-3.1945 -5.0332 2.8384
-3.1280 -5.0477 2.8384
-3.0618 -5.0618 2.8384
-2.9959 -5.0756 2.8384
-2.9302 -5.0890 2.8384
-2.8648 -5.1021 2.8384
-2.7996 -5.1149 2.8384
-2.7347 -5.1273 2.8384
-2.6700 -5.1394 2.8384
-2.6055 -5.1512 2.8384
-2.5412 -5.1627 2.8384
-2.4772 -5.1738 2.8384
-2.4134 -5.1846 2.8384
-2.3498 -5.1952 2.8384
-2.2864 -5.2054 2.8384
-2.2232 -5.2153 2.8384
-2.1601 -5.2250 2.8384
-2.0973 -5.2343 2.8384
-2.0346 -5.2434 2.8384
-1.9721 -5.2521 2.8384
-1.9097 -5.2606 2.8384
-14.4043 3.2301 2.8384
-14.2217 3.0476 2.8384
-14.0425 2.8700 2.8384
-13.8665 2.6970 2.8384
-13.6938 2.5286 2.8384
-13.5241 2.3645 2.8384
-13.3575 2.2046 2.8384
-13.1937 2.0487 2.8384
-13.0327 1.8969 2.8384
-12.8745 1.7488 2.8384
-12.7189 1.6043 2.8384
-12.5658 1.4634 2.8384
-12.4152 1.3260 2.8384
-12.2670 1.1918 2.8384
-12.1212 1.0608 2.8384
-11.9776 0.9330 2.8384
-11.8362 0.8082 2.8384
-11.6969 0.6863 2.8384
-11.5597 0.5672 2.8384
-11.4246 0.4509 2.8384
-11.2914 0.3373 2.8384
-11.1601 0.2262 2.8384
-11.0306 0.1177 2.8384
-10.9030 0.0116 2.8384
-10.7771 -0.0922 2.8384
-10.6529 -0.1937 2.8384
-10.5304 -0.2929 2.8384
-10.4095 -0.3900 2.8384
-10.2901 -0.4849 2.8384
-10.1723 -0.5778 2.8384
-10.0560 -0.6687 2.8384
-9.9412 -0.7578 2.8384
-9.8278 -0.8448 2.8384
-9.7158 -0.9301 2.8384
-9.0894 -0.9591 2.6860
-8.9859 -1.0365 2.6860
-8.8836 -1.1122 2.6860
-8.7825 -1.1864 2.6860
-8.6826 -1.2591 2.6860
-8.5838 -1.3303 2.6860
-8.4861 -1.4000 2.6860
-8.3895 -1.4683 2.6860
-8.2940 -1.5353 2.6860
-8.1994 -1.6009 2.6860
-8.1059 -1.6652 2.6860
-8.0134 -1.7282 2.6860
-7.9218 -1.7900 2.6860
-7.8311 -1.8506 2.6860
-7.7414 -1.9100 2.6860
-7.6526 -1.9682 2.6860
-7.5646 -2.0253 2.6860
-7.4775 -2.0812 2.6860
-7.3912 -2.1362 2.6860
-7.3058 -2.1900 2.6860
-7.2211 -2.2428 2.6860
-7.1373 -2.2946 2.6860
-7.0542 -2.3454 2.6860
-6.9718 -2.3953 2.6860
-6.8902 -2.4442 2.6860
-6.8093 -2.4922 2.6860
-6.7291 -2.5393 2.6860
-6.6496 -2.5855 2.6860
-6.5707 -2.6308 2.6860
-6.4925 -2.6753 2.6860
-6.4150 -2.7189 2.6860
-6.3383 -2.7623 2.6860
-6.2618 -2.8038 2.6860
-6.1861 -2.8451 2.6860
-6.1110 -2.8856 2.6860
-6.0365 -2.9253 2.6860
-5.9626 -2.9643 2.6860
-5.8892 -3.0026 2.6860
-5.8163 -3.0402 2.6860
-5.7449 -3.0775 2.6864
-5.7398 -3.1504 2.7180
-5.7346 -3.2240 2.7501
-5.7294 -3.2984 2.7828
-5.7241 -3.3737 2.8160
-5.6959 -3.4360 2.8384
-5.6226 -3.4709 2.8384
-5.5499 -3.5051 2.8384
-5.4776 -3.5387 2.8384
-5.4057 -3.5717 2.8384
-5.3344 -3.6040 2.8384
-5.2635 -3.6358 2.8384
-5.1930 -3.6670 2.8384
-5.1230 -3.6976 2.8384
-5.0533 -3.7276 2.8384
-4.9841 -3.7571 2.8384
-4.9153 -3.7860 2.8384
-4.8469 -3.8144 2.8384
-4.7789 -3.8422 2.8384
-4.7113 -3.8695 2.8384
-4.6441 -3.8963 2.8384
-4.5772 -3.9227 2.8384
-4.5107 -3.9485 2.8384
-4.4445 -3.9738 2.8384
-4.3787 -3.9986 2.8384
-4.3132 -4.0230 2.8384
-4.2480 -4.0468 2.8384
-4.1832 -4.0702 2.8384
-4.1187 -4.0932 2.8384
-4.0545 -4.1157 2.8384
-3.9906 -4.1378 2.8384
-3.9270 -4.1595 2.8384
-3.8637 -4.1807 2.8384
-3.8007 -4.2014 2.8384
-3.7379 -4.2218 2.8384
-3.6755 -4.2417 2.8384
-3.6133 -4.2613 2.8384
-3.5513 -4.2805 2.8384
-3.4897 -4.2992 2.8384
-3.4282 -4.3175 2.8384
-3.3670 -4.3355 2.8384
-3.3061 -4.3531 2.8384
-3.2454 -4.3703 2.8384
-3.1849 -4.3871 2.8384
-3.1247 -4.4036 2.8384
-3.0646 -4.4197 2.8384
-3.0048 -4.4355 2.8384
-2.9452 -4.4508 2.8384
-2.8858 -4.4658 2.8384
-2.8266 -4.4805 2.8384
-2.7676 -4.4949 2.8384
-2.7088 -4.5089 2.8384
-2.6501 -4.5226 2.8384
-2.5917 -4.5359 2.8384
-2.5334 -4.5489 2.8384
-2.4753 -4.5615 2.8384
-2.4173 -4.5739 2.8384
-2.3596 -4.5859 2.8384
-2.3019 -4.5976 2.8384
-2.2445 -4.6090 2.8384
-2.1872 -4.6201 2.8384
-2.1300 -4.6309 2.8384
-2.0730 -4.6413 2.8384
-2.0161 -4.6515 2.8384
-1.9593 -4.6613 2.8384
-1.9027 -4.6709 2.8384
-1.8462 -4.6801 2.8384
-1.7898 -4.6891 2.8384
-1.7335 -4.6978 2.8384
-11.5541 2.7567 2.8384
-11.4397 2.6154 2.8384
-11.3266 2.4769 2.8384
-11.2148 2.3415 2.8384
-11.1041 2.2088 2.8384
-10.9946 2.0789 2.8384
-10.8863 1.9518 2.8384
-10.7791 1.8271 2.8384
-10.6731 1.7051 2.8384
-10.5681 1.5855 2.8384
-10.4642 1.4684 2.8384
-10.3613 1.3536 2.8384
-10.2595 1.2412 2.8384
-10.1586 1.1309 2.8384
-10.0588 1.0229 2.8384
-9.9599 0.9170 2.8384
-9.8620 0.8131 2.8384
-9.7650 0.7113 2.8384
-9.1498 0.5787 2.6860
-9.0597 0.4860 2.6860
-8.9705 0.3952 2.6860
-8.8821 0.3061 2.6860
-8.7945 0.2186 2.6860
-8.7077 0.1329 2.6860
-8.6216 0.0488 2.6860
-8.5363 -0.0337 2.6860
-8.4518 -0.1147 2.6860
-8.3680 -0.1942 2.6860
-8.2849 -0.2721 2.6860
-8.2025 -0.3487 2.6860
-8.1208 -0.4238 2.6860
-8.0398 -0.4976 2.6860
-7.9594 -0.5700 2.6860
-7.8798 -0.6410 2.6860
-7.8007 -0.7108 2.6860
-7.7223 -0.7793 2.6860
-7.6445 -0.8465 2.6860
-7.5673 -0.9126 2.6860
-7.4907 -0.9774 2.6860
-7.4147 -1.0411 2.6860
-7.3393 -1.1037 2.6860
-7.2645 -1.1651 2.6860
-7.1902 -1.2255 2.6860
-7.1165 -1.2848 2.6860
-7.0433 -1.3430 2.6860
-6.9706 -1.4002 2.6860
-6.8985 -1.4564 2.6860
-6.8268 -1.5116 2.6860
-6.7557 -1.5658 2.6860
-6.6851 -1.6191 2.6860
-6.6149 -1.6715 2.6860
-6.5453 -1.7229 2.6860
-6.4761 -1.7735 2.6860
-6.4073 -1.8232 2.6860
-6.3390 -1.8720 2.6860
-6.2712 -1.9200 2.6860
-6.2038 -1.9671 2.6860
-6.1368 -2.0135 2.6860
-6.0703 -2.0590 2.6860
-6.0042 -2.1038 2.6860
-5.9385 -2.1478 2.6860
-5.8731 -2.1910 2.6860
-5.8082 -2.2335 2.6860
-5.7430 -2.2750 2.6857
-5.7384 -2.3403 2.7139
-5.7338 -2.4062 2.7425
-5.7291 -2.4726 2.7715
-5.7244 -2.5396 2.8010
-5.7196 -2.6071 2.8310
-5.6687 -2.6538 2.8384
-5.6032 -2.6929 2.8384
-5.5381 -2.7313 2.8384
-5.4733 -2.7691 2.8384
-5.4088 -2.8063 2.8384
-5.3447 -2.8427 2.8384
-5.2810 -2.8786 2.8384
-5.2175 -2.9139 2.8384
-5.1544 -2.9486 2.8384
-5.0916 -2.9826 2.8384
-5.0291 -3.0161 2.8384
-4.9670 -3.0490 2.8384
-4.9051 -3.0813 2.8384
-4.8435 -3.1131 2.8384
-4.7822 -3.1443 2.8384
-4.7212 -3.1750 2.8384
-4.6605 -3.2051 2.8384
-4.6001 -3.2347 2.8384
-4.5399 -3.2638 2.8384
-4.4800 -3.2924 2.8384
-4.4204 -3.3204 2.8384
-4.3610 -3.3480 2.8384
-4.3019 -3.3750 2.8384
-4.2431 -3.4017 2.8384
-4.1844 -3.4278 2.8384
-4.1260 -3.4534 2.8384
-4.0679 -3.4786 2.8384
-4.0100 -3.5034 2.8384
-3.9523 -3.5277 2.8384
-3.8948 -3.5515 2.8384
-3.8376 -3.5749 2.8384
-3.7805 -3.5978 2.8384
-3.7237 -3.6204 2.8384
-3.6671 -3.6425 2.8384
-3.6107 -3.6642 2.8384
-3.5545 -3.6854 2.8384
-3.4985 -3.7063 2.8384
-3.4427 -3.7268 2.8384
-3.3870 -3.7468 2.8384
-3.3316 -3.7665 2.8384
-3.2763 -3.7858 2.8384
-3.2213 -3.8047 2.8384
-3.1663 -3.8233 2.8384
-3.1116 -3.8414 2.8384
-3.0570 -3.8592 2.8384
-3.0026 -3.8766 2.8384
-2.9484 -3.8936 2.8384
-2.8943 -3.9103 2.8384
-2.8403 -3.9266 2.8384
-2.7866 -3.9426 2.8384
-2.7329 -3.9583 2.8384
-2.6794 -3.9736 2.8384
-2.6261 -3.9885 2.8384
-2.5729 -4.0031 2.8384
-2.5198 -4.0174 2.8384
-2.4668 -4.0313 2.8384
-2.4140 -4.0449 2.8384
-2.3613 -4.0582 2.8384
-2.3087 -4.0711 2.8384
-2.2563 -4.0838 2.8384
-2.2039 -4.0961 2.8384
-2.1517 -4.1081 2.8384
-2.0996 -4.1198 2.8384
-2.0476 -4.1312 2.8384
-1.9957 -4.1422 2.8384
-1.9439 -4.1530 2.8384
-1.8922 -4.1635 2.8384
-1.8406 -4.1736 2.8384
-1.7891 -4.1835 2.8384
-1.7376 -4.1931 2.8384
-1.6863 -4.2024 2.8384
-1.6351 -4.2113 2.8384
-1.5839 -4.2200 2.8384
-9.0852 2.3017 2.6860
-9.0127 2.1932 2.6860
-8.9405 2.0866 2.6860
-8.8687 1.9819 2.6860
-8.7972 1.8790 2.6860
-8.7261 1.7778 2.6860
-8.6553 1.6784 2.6860
-8.5849 1.5808 2.6860
-8.5147 1.4847 2.6860
-8.4450 1.3903 2.6860
-8.3756 1.2976 2.6860
-8.3065 1.2064 2.6860
-8.2378 1.1167 2.6860
-8.1694 1.0285 2.6860
-8.1013 0.9419 2.6860
-8.0336 0.8567 2.6860
-7.9662 0.7729 2.6860
-7.8991 0.6905 2.6860
-7.8324 0.6095 2.6860
-7.7660 0.5298 2.6860
-7.7000 0.4515 2.6860
-7.6342 0.3745 2.6860
-7.5688 0.2987 2.6860
-7.5037 0.2242 2.6860
-7.4389 0.1509 2.6860
-7.3745 0.0788 2.6860
-7.3103 0.0079 2.6860
-7.2465 -0.0619 2.6860
-7.1829 -0.1305 2.6860
-7.1197 -0.1980 2.6860
-7.0568 -0.2644 2.6860
-6.9942 -0.3297 2.6860
-6.9319 -0.3940 2.6860
-6.8699 -0.4573 2.6860
-6.8082 -0.5195 2.6860
-6.7467 -0.5807 2.6860
-6.6856 -0.6409 2.6860
-6.6247 -0.7002 2.6860
-6.5642 -0.7585 2.6860
-6.5039 -0.8158 2.6860
-6.4439 -0.8723 2.6860
-6.3842 -0.9278 2.6860
-6.3247 -0.9825 2.6860
-6.2655 -1.0363 2.6860
-6.2066 -1.0893 2.6860
-6.1480 -1.1414 2.6860
-6.0896 -1.1926 2.6860
-6.0315 -1.2431 2.6860
-5.9736 -1.2928 2.6860
-5.9160 -1.3416 2.6860
-5.8586 -1.3897 2.6860
-5.8015 -1.4371 2.6860
-5.7447 -1.4836 2.6860
-5.7371 -1.5427 2.7092
-5.7331 -1.6030 2.7344
-5.7290 -1.6636 2.7600
-5.7248 -1.7246 2.7859
-5.7206 -1.7859 2.8122
-5.7154 -1.8473 2.8384
-5.6570 -1.8913 2.8384
-5.5989 -1.9347 2.8384
-5.5411 -1.9773 2.8384
-5.4834 -2.0193 2.8384
-5.4260 -2.0606 2.8384
-5.3689 -2.1013 2.8384
-5.3119 -2.1413 2.8384
-5.2552 -2.1806 2.8384
-5.1987 -2.2194 2.8384
-5.1424 -2.2575 2.8384
-5.0863 -2.2950 2.8384
-5.0304 -2.3320 2.8384
-4.9748 -2.3683 2.8384
-4.9193 -2.4041 2.8384
-4.8641 -2.4393 2.8384
-4.8090 -2.4739 2.8384
-4.7542 -2.5079 2.8384
-4.6995 -2.5414 2.8384
-4.6451 -2.5744 2.8384
-4.5908 -2.6068 2.8384
-4.5367 -2.6387 2.8384
-4.4828 -2.6701 2.8384
-4.4291 -2.7010 2.8384
-4.3756 -2.7314 2.8384
-4.3222 -2.7612 2.8384
-4.2690 -2.7906 2.8384
-4.2160 -2.8195 2.8384
-4.1632 -2.8479 2.8384
-4.1105 -2.8758 2.8384
-4.0580 -2.9033 2.8384
-4.0057 -2.9303 2.8384
-3.9535 -2.9568 2.8384
-3.9015 -2.9829 2.8384
-3.8496 -3.0086 2.8384
-3.7979 -3.0338 2.8384
-3.7463 -3.0585 2.8384
-3.6949 -3.0829 2.8384
-3.6437 -3.1068 2.8384
-3.5926 -3.1303 2.8384
-3.5416 -3.1534 2.8384
-3.4908 -3.1761 2.8384
-3.4401 -3.1983 2.8384
-3.3895 -3.2202 2.8384
-3.3391 -3.2417 2.8384
-3.2888 -3.2628 2.8384
-3.2386 -3.2835 2.8384
-3.1886 -3.3038 2.8384
-3.1387 -3.3237 2.8384
-3.0889 -3.3433 2.8384
-3.0392 -3.3625 2.8384
-2.9897 -3.3812 2.8384
-2.9402 -3.3997 2.8384
-2.8909 -3.4178 2.8384
-2.8417 -3.4356 2.8384
-2.7926 -3.4530 2.8384
-2.7436 -3.4700 2.8384
-2.6948 -3.4866 2.8384
-2.6460 -3.5030 2.8384
-2.5973 -3.5190 2.8384
-2.5487 -3.5347 2.8384
-2.5003 -3.5500 2.8384
-2.4519 -3.5650 2.8384
-2.4036 -3.5797 2.8384
-2.3554 -3.5940 2.8384
-2.3073 -3.6080 2.8384
-2.2593 -3.6217 2.8384
-2.2114 -3.6351 2.8384
-2.1635 -3.6481 2.8384
-2.1158 -3.6609 2.8384
-2.0681 -3.6733 2.8384
-2.0205 -3.6855 2.8384
-1.9730 -3.6973 2.8384
-1.9255 -3.7088 2.8384
-1.8782 -3.7201 2.8384
-1.8309 -3.7309 2.8384
-1.7836 -3.7416 2.8384
-1.7365 -3.7519 2.8384
-1.6894 -3.7619 2.8384
-1.6423 -3.7717 2.8384
-1.5954 -3.7811 2.8384
-1.5484 -3.7903 2.8384
-1.5016 -3.7992 2.8384
-1.4548 -3.8078 2.8384
-7.2707 1.9528 2.5251
-7.6833 1.9867 2.6860
-7.6324 1.8973 2.6860
-7.5814 1.8093 2.6860
-7.5305 1.7226 2.6860
-7.4795 1.6371 2.6860
-7.4285 1.5529 2.6860
-7.3776 1.4700 2.6860
-7.3266 1.3882 2.6860
-7.2756 1.3076 2.6860
-7.2247 1.2282 2.6860
-7.1737 1.1500 2.6860
-7.1228 1.0728 2.6860
-7.0719 0.9969 2.6860
-7.0211 0.9220 2.6860
-6.9703 0.8482 2.6860
-6.9195 0.7755 2.6860
-6.8688 0.7038 2.6860
-6.8181 0.6332 2.6860
-6.7675 0.5637 2.6860
-6.7170 0.4951 2.6860
-6.6665 0.4275 2.6860
-6.6161 0.3609 2.6860
-6.5657 0.2952 2.6860
-6.5155 0.2305 2.6860
-6.4652 0.1668 2.6860
-6.4151 0.1040 2.6860
-6.3651 0.0421 2.6860
-6.3151 -0.0190 2.6860
-6.2652 -0.0791 2.6860
-6.2154 -0.1384 2.6860
-6.1657 -0.1968 2.6860
-6.1161 -0.2544 2.6860
-6.0666 -0.3111 2.6860
-6.0171 -0.3670 2.6860
-5.9678 -0.4221 2.6860
-5.9185 -0.4764 2.6860
-5.8694 -0.5299 2.6860
-5.8203 -0.5827 2.6860
-5.7714 -0.6347 2.6860
-5.7376 -0.6877 2.6931
-5.7342 -0.7442 2.7146
-5.7307 -0.8009 2.7364
-5.7272 -0.8578 2.7586
-5.7236 -0.9147 2.7810
-5.7199 -0.9720 2.8037
-5.7162 -1.0294 2.8268
-5.6889 -1.0825 2.8384
-5.6381 -1.1306 2.8384
-5.5875 -1.1781 2.8384
-5.5369 -1.2249 2.8384
-5.4865 -1.2710 2.8384
-5.4362 -1.3165 2.8384
-5.3860 -1.3612 2.8384
-5.3360 -1.4053 2.8384
-5.2860 -1.4488 2.8384
-5.2361 -1.4916 2.8384
-5.1864 -1.5339 2.8384
-5.1368 -1.5755 2.8384
-5.0873 -1.6164 2.8384
-5.0379 -1.6568 2.8384
-4.9886 -1.6966 2.8384
-4.9394 -1.7358 2.8384
-4.8903 -1.7745 2.8384
-4.8414 -1.8125 2.8384
-4.7925 -1.8500 2.8384
-4.7438 -1.8869 2.8384
-4.6951 -1.9233 2.8384
-4.6466 -1.9591 2.8384
-4.5982 -1.9944 2.8384
-4.5499 -2.0292 2.8384
-4.5017 -2.0634 2.8384
-4.4536 -2.0972 2.8384
-4.4056 -2.1304 2.8384
-4.3577 -2.1631 2.8384
-4.3100 -2.1953 2.8384
-4.2623 -2.2271 2.8384
-4.2147 -2.2583 2.8384
-4.1673 -2.2891 2.8384
-4.1199 -2.3194 2.8384
-4.0726 -2.3492 2.8384
-4.0255 -2.3785 2.8384
-3.9784 -2.4074 2.8384
-3.9314 -2.4358 2.8384
-3.8846 -2.4638 2.8384
-3.8378 -2.4914 2.8384
-3.6981 -2.5714 2.8384
-3.7911 -2.5185 2.8384
-3.6517 -2.5973 2.8384
-3.7446 -2.5452 2.8384
-3.6054 -2.6227 2.8384
-3.5130 -2.6723 2.8384
-3.5592 -2.6477 2.8384
-3.4670 -2.6965 2.8384
-3.3294 -2.7666 2.8384
-3.4211 -2.7202 2.8384
-3.2838 -2.7892 2.8384
-3.3752 -2.7436 2.8384
-3.2382 -2.8115 2.8384
-3.1472 -2.8547 2.8384
-3.1926 -2.8333 2.8384
-3.1018 -2.8758 2.8384
-2.9663 -2.9369 2.8384
-3.0566 -2.8965 2.8384
-2.9212 -2.9565 2.8384
-3.0114 -2.9169 2.8384
-2.8763 -2.9758 2.8384
-2.7866 -3.0133 2.8384
-2.8314 -2.9947 2.8384
-2.7418 -3.0315 2.8384
-2.6080 -3.0841 2.8384
-2.6971 -3.0494 2.8384
-2.5635 -3.1010 2.8384
-2.6525 -3.0669 2.8384
-2.5191 -3.1175 2.8384
-2.4306 -3.1496 2.8384
-2.4748 -3.1337 2.8384
-2.3864 -3.1651 2.8384
-2.2541 -3.2098 2.8384
-2.3422 -3.1804 2.8384
-2.2102 -3.2241 2.8384
-2.2981 -3.1952 2.8384
-2.1663 -3.2381 2.8384
-2.0786 -3.2651 2.8384
-2.1224 -3.2517 2.8384
-2.0349 -3.2781 2.8384
-1.9040 -3.3154 2.8384
-1.9912 -3.2909 2.8384
-1.8605 -3.3273 2.8384
-1.9476 -3.3033 2.8384
-1.8170 -3.3389 2.8384
-1.7302 -3.3611 2.8384
-1.7736 -3.3501 2.8384
-1.6869 -3.3718 2.8384
-1.6436 -3.3821 2.8384
-1.6004 -3.3922 2.8384
-1.5572 -3.4021 2.8384
-1.5140 -3.4116 2.8384
-1.4709 -3.4208 2.8384
-1.4278 -3.4298 2.8384
-1.3848 -3.4385 2.8384
-1.3418 -3.4469 2.8384
-6.6996 1.9055 2.6860
-6.6628 1.8281 2.6860
-6.6257 1.7517 2.6860
-6.5885 1.6762 2.6860
-6.5510 1.6017 2.6860
-6.5134 1.5281 2.6860
-6.4755 1.4554 2.6860
-6.4375 1.3836 2.6860
-6.3994 1.3129 2.6860
-6.3610 1.2429 2.6860
-6.3225 1.1738 2.6860
-6.2839 1.1056 2.6860
-6.2451 1.0383 2.6860
-6.2062 0.9719 2.6860
-6.1672 0.9063 2.6860
-6.1281 0.8415 2.6860
-6.0888 0.7776 2.6860
-6.0495 0.7145 2.6860
-6.0100 0.6522 2.6860
-5.9705 0.5906 2.6860
-5.9308 0.5299 2.6860
-5.8911 0.4700 2.6860
-5.8513 0.4108 2.6860
-5.8114 0.3524 2.6860
-5.7715 0.2948 2.6860
-5.7361 0.2380 2.6882
-5.7333 0.1830 2.7058
-5.7305 0.1280 2.7236
-5.7276 0.0730 2.7418
-5.7247 0.0180 2.7601
-5.7217 -0.0370 2.7788
-5.7187 -0.0921 2.7977
-5.7156 -0.1471 2.8169
-5.7125 -0.2022 2.8364
-5.6740 -0.2558 2.8384
-5.6313 -0.3086 2.8384
-5.5885 -0.3607 2.8384
-5.5458 -0.4120 2.8384
-5.5030 -0.4627 2.8384
-5.4602 -0.5127 2.8384
-5.4175 -0.5621 2.8384
-5.3747 -0.6108 2.8384
-5.3319 -0.6588 2.8384
-5.2891 -0.7063 2.8384
-5.2463 -0.7531 2.8384
-5.2035 -0.7992 2.8384
-5.1607 -0.8448 2.8384
-5.1179 -0.8897 2.8384
-5.0751 -0.9341 2.8384
-5.0323 -0.9779 2.8384
-4.9896 -1.0210 2.8384
-4.9468 -1.0636 2.8384
-4.9041 -1.1056 2.8384
-4.8614 -1.1470 2.8384
-4.8187 -1.1879 2.8384
-4.7760 -1.2282 2.8384
-4.7334 -1.2680 2.8384
-4.6907 -1.3072 2.8384
-4.6481 -1.3459 2.8384
-4.6056 -1.3841 2.8384
-4.5630 -1.4217 2.8384
-4.5205 -1.4588 2.8384
-4.4780 -1.4954 2.8384
-4.4356 -1.5315 2.8384
-4.3932 -1.5671 2.8384
-4.3508 -1.6022 2.8384
-4.3084 -1.6369 2.8384
-4.2661 -1.6710 2.8384
-4.2238 -1.7046 2.8384
-4.1815 -1.7378 2.8384
-4.1393 -1.7705 2.8384
-4.0971 -1.8027 2.8384
-4.0550 -1.8345 2.8384
-4.0129 -1.8658 2.8384
-3.9708 -1.8967 2.8384
-3.9288 -1.9271 2.8384
-3.8868 -1.9571 2.8384
-3.8449 -1.9866 2.8384
-3.8030 -2.0157 2.8384
-3.7611 -2.0444 2.8384
-3.7193 -2.0727 2.8384
-3.6775 -2.1005 2.8384
-3.6358 -2.1279 2.8384
-3.5941 -2.1549 2.8384
-3.5524 -2.1815 2.8384
-3.5108 -2.2077 2.8384
-3.4692 -2.2335 2.8384
-3.4277 -2.2589 2.8384
-3.3862 -2.2840 2.8384
-3.3447 -2.3086 2.8384
-3.3033 -2.3328 2.8384
-3.2620 -2.3567 2.8384
-3.2207 -2.3801 2.8384
-3.1794 -2.4033 2.8384
-3.1381 -2.4260 2.8384
-3.0969 -2.4484 2.8384
-3.0558 -2.4704 2.8384
-3.0147 -2.4920 2.8384
-2.9736 -2.5133 2.8384
-2.9326 -2.5343 2.8384
-2.8916 -2.5549 2.8384
-2.8506 -2.5751 2.8384
-2.8097 -2.5950 2.8384
-2.7689 -2.6145 2.8384
-2.7280 -2.6337 2.8384
-2.5651 -2.7072 2.8384
-2.6872 -2.6526 2.8384
-2.5245 -2.7248 2.8384
-2.6465 -2.6712 2.8384
-2.4839 -2.7420 2.8384
-2.6058 -2.6894 2.8384
-2.4433 -2.7589 2.8384
-2.4028 -2.7755 2.8384
-2.2411 -2.8387 2.8384
-2.3623 -2.7918 2.8384
-2.2007 -2.8538 2.8384
-2.3219 -2.8078 2.8384
-2.1604 -2.8685 2.8384
-2.2815 -2.8234 2.8384
-2.1202 -2.8829 2.8384
-2.0799 -2.8970 2.8384
-1.9193 -2.9505 2.8384
-2.0397 -2.9108 2.8384
-1.8792 -2.9632 2.8384
-1.9995 -2.9244 2.8384
-1.8391 -2.9755 2.8384
-1.9594 -2.9376 2.8384
-1.7991 -2.9876 2.8384
-1.7591 -2.9994 2.8384
-1.5994 -3.0437 2.8384
-1.7192 -3.0109 2.8384
-1.5596 -3.0540 2.8384
-1.6792 -3.0221 2.8384
-1.5198 -3.0641 2.8384
-1.6393 -3.0330 2.8384
-1.4800 -3.0739 2.8384
-1.4402 -3.0835 2.8384
-1.4004 -3.0928 2.8384
-1.3607 -3.1018 2.8384
-1.3210 -3.1105 2.8384
-1.2813 -3.1189 2.8384
-1.2416 -3.1271 2.8384
-5.8789 1.7692 2.6860
-5.8516 1.7021 2.6860
-5.8240 1.6356 2.6860
-5.7962 1.5700 2.6860
-5.7680 1.5050 2.6860
-5.7396 1.4412 2.6860
-5.7319 1.3822 2.6959
-5.7299 1.3254 2.7087
-5.7278 1.2688 2.7217
-5.7258 1.2124 2.7350
-5.7237 1.1562 2.7485
-5.7215 1.1002 2.7622
-5.7193 1.0443 2.7762
-5.7171 0.9886 2.7905
-5.7148 0.9331 2.8049
-5.7125 0.8777 2.8196
-5.7102 0.8223 2.8346
-5.6849 0.7641 2.8384
-5.6518 0.7055 2.8384
-5.6185 0.6475 2.8384
-5.5851 0.5902 2.8384
-5.5514 0.5336 2.8384
-5.5176 0.4776 2.8384
-5.4836 0.4222 2.8384
-5.4495 0.3675 2.8384
-5.4152 0.3135 2.8384
-5.3808 0.2600 2.8384
-5.3462 0.2072 2.8384
-5.3116 0.1550 2.8384
-5.2767 0.1035 2.8384
-5.2418 0.0525 2.8384
-5.2067 0.0021 2.8384
-5.1715 -0.0477 2.8384
-5.1362 -0.0968 2.8384
-5.1008 -0.1454 2.8384
-5.0653 -0.1934 2.8384
-5.0297 -0.2408 2.8384
-4.9940 -0.2877 2.8384
-4.9582 -0.3340 2.8384
-4.9223 -0.3797 2.8384
-4.8864 -0.4249 2.8384
-4.8503 -0.4695 2.8384
-4.8142 -0.5136 2.8384
-4.7780 -0.5571 2.8384
-4.7418 -0.6001 2.8384
-4.7054 -0.6426 2.8384
-4.6690 -0.6845 2.8384
-4.6326 -0.7260 2.8384
-4.5961 -0.7669 2.8384
-4.5595 -0.8073 2.8384
-4.5229 -0.8471 2.8384
-4.4862 -0.8865 2.8384
-4.4495 -0.9254 2.8384
-4.4127 -0.9639 2.8384
-4.3759 -1.0018 2.8384
-4.3391 -1.0392 2.8384
-4.3022 -1.0762 2.8384
-4.2653 -1.1127 2.8384
-4.2284 -1.1487 2.8384
-4.1914 -1.1843 2.8384
-4.1544 -1.2194 2.8384
-4.1173 -1.2540 2.8384
-4.0803 -1.2882 2.8384
-4.0432 -1.3220 2.8384
-4.0061 -1.3552 2.8384
-3.9689 -1.3881 2.8384
-3.9318 -1.4205 2.8384
-3.8946 -1.4525 2.8384
-3.8574 -1.4841 2.8384
-3.8202 -1.5152 2.8384
-3.7830 -1.5460 2.8384
-3.7458 -1.5763 2.8384
-3.7086 -1.6062 2.8384
-3.6713 -1.6357 2.8384
-3.6341 -1.6648 2.8384
-3.5968 -1.6934 2.8384
-3.5595 -1.7217 2.8384
-3.5223 -1.7497 2.8384
-3.4850 -1.7771 2.8384
-3.4477 -1.8042 2.8384
-3.4104 -1.8310 2.8384
-3.3732 -1.8573 2.8384
-3.3359 -1.8833 2.8384
-3.2986 -1.9089 2.8384
-3.2613 -1.9341 2.8384
-3.2241 -1.9590 2.8384
-3.1868 -1.9835 2.8384
-3.1495 -2.0076 2.8384
-3.1123 -2.0314 2.8384
-3.0750 -2.0548 2.8384
-3.0377 -2.0779 2.8384
-3.0005 -2.1006 2.8384
-2.9633 -2.1230 2.8384
-2.9260 -2.1450 2.8384
-2.8888 -2.1667 2.8384
-2.8516 -2.1880 2.8384
-2.8144 -2.2090 2.8384
-2.7772 -2.2297 2.8384
-2.7400 -2.2500 2.8384
-2.7028 -2.2700 2.8384
-2.6656 -2.2897 2.8384
-2.6285 -2.3091 2.8384
-2.5913 -2.3281 2.8384
-2.5542 -2.3469 2.8384
-2.5171 -2.3653 2.8384
-2.4799 -2.3833 2.8384
-2.4428 -2.4011 2.8384
-2.4057 -2.4186 2.8384
-2.3687 -2.4357 2.8384
-2.3316 -2.4526 2.8384
-2.2945 -2.4691 2.8384
-2.2575 -2.4854 2.8384
-2.2205 -2.5013 2.8384
-2.1834 -2.5170 2.8384
-2.1464 -2.5323 2.8384
-2.1094 -2.5473 2.8384
-2.0725 -2.5621 2.8384
-2.0355 -2.5766 2.8384
-1.9247 -2.6183 2.8384
-1.9985 -2.5908 2.8384
-1.8877 -2.6316 2.8384
-1.9616 -2.6046 2.8384
-1.8508 -2.6446 2.8384
-1.7771 -2.6699 2.8384
-1.8140 -2.6574 2.8384
-1.7402 -2.6821 2.8384
-1.6297 -2.7170 2.8384
-1.7034 -2.6940 2.8384
-1.5929 -2.7281 2.8384
-1.6665 -2.7056 2.8384
-1.5560 -2.7389 2.8384
-1.4825 -2.7598 2.8384
-1.5193 -2.7495 2.8384
-1.4457 -2.7698 2.8384
-1.4089 -2.7796 2.8384
-1.3722 -2.7891 2.8384
-1.3354 -2.7983 2.8384
-1.2987 -2.8073 2.8384
-1.2620 -2.8160 2.8384
-1.2253 -2.8245 2.8384
-1.1886 -2.8326 2.8384
-1.1519 -2.8405 2.8384
-5.5048 1.7520 2.8384
-5.4831 1.6898 2.8384
-5.4611 1.6281 2.8384
-5.4387 1.5670 2.8384
-5.4160 1.5065 2.8384
-5.3929 1.4466 2.8384
-5.3695 1.3872 2.8384
-5.3459 1.3285 2.8384
-5.3219 1.2703 2.8384
-5.2976 1.2126 2.8384
-5.2730 1.1557 2.8384
-5.2481 1.0991 2.8384
-5.2229 1.0431 2.8384
-5.1975 0.9878 2.8384
-5.1718 0.9329 2.8384
-5.1459 0.8787 2.8384
-5.1197 0.8250 2.8384
-5.0932 0.7718 2.8384
-5.0665 0.7192 2.8384
-5.0396 0.6671 2.8384
-5.0125 0.6156 2.8384
-4.9851 0.5646 2.8384
-4.9576 0.5141 2.8384
-4.9298 0.4642 2.8384
-4.9018 0.4148 2.8384
-4.8736 0.3659 2.8384
-4.8452 0.3175 2.8384
-4.8167 0.2697 2.8384
-4.7879 0.2223 2.8384
-4.7590 0.1755 2.8384
-4.7299 0.1292 2.8384
-4.7007 0.0833 2.8384
-4.6713 0.0380 2.8384
-4.6417 -0.0068 2.8384
-4.6120 -0.0512 2.8384
-4.5821 -0.0950 2.8384
-4.5521 -0.1384 2.8384
-4.5219 -0.1813 2.8384
-4.4916 -0.2237 2.8384
-4.4612 -0.2656 2.8384
-4.4306 -0.3071 2.8384
-4.3999 -0.3481 2.8384
-4.3691 -0.3886 2.8384
-4.3382 -0.4287 2.8384
-4.3071 -0.4683 2.8384
-4.2760 -0.5074 2.8384
-4.2447 -0.5461 2.8384
-4.2134 -0.5844 2.8384
-4.1819 -0.6223 2.8384
-4.1503 -0.6596 2.8384
-4.1187 -0.6966 2.8384
-4.0869 -0.7331 2.8384
-4.0551 -0.7692 2.8384
-4.0232 -0.8048 2.8384
-3.9911 -0.8400 2.8384
-3.9591 -0.8748 2.8384
-3.9269 -0.9092 2.8384
-3.8946 -0.9432 2.8384
-3.8623 -0.9767 2.8384
-3.8299 -1.0099 2.8384
-3.7975 -1.0426 2.8384
-3.7650 -1.0750 2.8384
-3.7324 -1.1069 2.8384
-3.6997 -1.1385 2.8384
-3.6670 -1.1696 2.8384
-3.6343 -1.2004 2.8384
-3.6014 -1.2308 2.8384
-3.5686 -1.2608 2.8384
-3.5356 -1.2904 2.8384
-3.5027 -1.3196 2.8384
-3.4696 -1.3485 2.8384
-3.4366 -1.3770 2.8384
-3.4034 -1.4051 2.8384
-3.3703 -1.4329 2.8384
-3.3371 -1.4602 2.8384
-3.3038 -1.4873 2.8384
-3.2706 -1.5139 2.8384
-3.2372 -1.5403 2.8384
-3.2039 -1.5662 2.8384
-3.1705 -1.5918 2.8384
-3.1371 -1.6171 2.8384
-3.1036 -1.6420 2.8384
-3.0702 -1.6666 2.8384
-3.0367 -1.6908 2.8384
-3.0031 -1.7147 2.8384
-2.9696 -1.7382 2.8384
-2.9360 -1.7614 2.8384
-2.9024 -1.7843 2.8384
-2.8687 -1.8069 2.8384
-2.8351 -1.8291 2.8384
-2.8014 -1.8510 2.8384
-2.7677 -1.8726 2.8384
-2.7340 -1.8939 2.8384
-2.7002 -1.9148 2.8384
-2.6665 -1.9355 2.8384
-2.6327 -1.9558 2.8384
-2.5989 -1.9758 2.8384
-2.5651 -1.9955 2.8384
-2.5313 -2.0148 2.8384
-2.4975 -2.0339 2.8384
-2.4636 -2.0527 2.8384
-2.4298 -2.0712 2.8384
-2.3959 -2.0894 2.8384
-2.3620 -2.1073 2.8384
-2.3281 -2.1248 2.8384
-2.2942 -2.1421 2.8384
-2.2603 -2.1591 2.8384
-2.2264 -2.1758 2.8384
-2.1925 -2.1922 2.8384
-2.1585 -2.2083 2.8384
-2.1246 -2.2242 2.8384
-2.0906 -2.2397 2.8384
-2.0567 -2.2550 2.8384
