ply
format ascii 1.0
element vertex 1893
property float32 x
property float32 y
property float32 z
end_header
6.5176 7.6994 -4.2547
6.5168 6.7801 -3.8403
6.5169 6.9242 -3.9048
6.5171 7.0717 -3.9709
6.5172 7.2228 -4.0389
6.5173 7.3777 -4.1088
6.5175 7.5365 -4.1807
6.5146 8.7705 -4.7452
6.5150 8.9690 -4.8370
6.5155 9.1737 -4.9320
6.5161 9.3849 -5.0301
6.5166 9.6030 -5.1318
6.5171 9.8284 -5.2371
6.5177 10.0614 -5.3462
6.5183 10.3026 -5.4593
6.5189 10.5525 -5.5768
6.5195 10.8115 -5.6989
6.5300 11.0969 -5.8346
6.5305 11.3761 -5.9668
6.5311 11.6663 -6.1044
6.5316 11.9684 -6.2479
17.5484 32.9978 -17.1871
17.2087 33.2199 -17.2650
6.5124 7.8602 -4.3272
6.5128 8.0322 -4.4058
6.5132 8.2089 -4.4867
6.5136 8.3907 -4.5702
6.5141 8.5778 -4.6563
-6.1015 11.8098 -6.1364
-5.1947 11.2218 -5.7838
-5.6055 11.7724 -6.0794
-6.2493 11.7818 -6.1353
-5.7689 11.7849 -6.0980
-6.4088 11.7739 -6.1450
-5.9342 11.7974 -6.1170
-6.7253 12.0440 -6.3005
-6.4489 11.2622 -5.9056
-6.7866 11.2820 -5.9454
-6.6166 11.2720 -5.9252
-7.8062 11.2689 -6.0381
-7.0045 11.3660 -6.0052
-7.8853 11.1276 -5.9805
-7.4617 10.2954 -5.5506
-7.0998 11.2486 -5.9590
-7.4337 10.0304 -5.4250
-7.9822 10.5344 -5.7164
-7.1469 11.0589 -5.8745
-8.0276 10.3638 -5.6429
-8.0723 10.1963 -5.5709
-7.1698 10.8380 -5.7734
-7.1922 10.6232 -5.6753
-26.8933 11.9212 -9.0933
-26.9743 11.6359 -8.9970
-27.0549 11.3516 -8.9016
6.5160 6.9142 -3.3829
6.5161 7.0598 -3.4419
6.5163 7.2090 -3.5024
6.5164 7.3618 -3.5646
6.5165 7.5184 -3.6285
6.5167 7.6790 -3.6941
6.5122 7.8382 -3.7590
6.5126 8.0077 -3.8286
6.5130 8.1817 -3.9002
6.5134 8.3606 -3.9740
6.5139 8.5446 -4.0501
6.5143 8.7340 -4.1285
6.5148 8.9290 -4.2094
6.5153 9.1300 -4.2930
6.5158 9.3372 -4.3794
6.5163 9.5511 -4.4687
6.5168 9.7719 -4.5611
6.5174 10.0001 -4.6567
6.5180 10.2361 -4.7558
6.5186 10.4804 -4.8586
6.5192 10.7335 -4.9652
6.5287 11.0108 -5.0829
6.5292 11.2831 -5.1980
6.5297 11.5659 -5.3177
6.5302 11.8599 -5.4424
6.5307 12.1658 -5.5724
6.5313 12.4845 -5.7080
6.5318 12.8168 -5.8496
6.5325 13.1636 -5.9976
6.5331 13.5262 -6.1526
6.9300 14.7488 -6.6979
17.3175 37.9056 -17.1871
-5.2532 11.2116 -5.0907
-5.4470 11.3087 -5.1430
-5.6460 11.4082 -5.1969
-5.8505 11.5104 -5.2524
-6.0974 11.6859 -5.3418
-6.2299 11.6356 -5.3285
-5.6667 10.3179 -4.7339
-6.4957 11.5347 -5.3023
-6.6290 11.4841 -5.2895
-6.7627 11.4334 -5.2768
-6.8460 11.2989 -5.2256
-6.9899 11.2651 -5.2212
-7.1387 11.2373 -5.2198
-7.4279 11.4237 -5.3184
-7.3673 10.8230 -5.0626
-7.4063 11.1313 -5.1943
-8.1917 10.5378 -5.0074
-7.3472 10.5525 -4.9482
-8.2418 10.3758 -4.9447
-7.3026 10.2562 -4.8214
-7.6083 10.4510 -4.9257
-7.2269 9.7107 -4.5890
-7.1790 9.4378 -4.4722
6.5153 7.0466 -2.9310
6.5154 7.1938 -2.9846
6.5155 7.3446 -3.0396
6.5156 7.4991 -3.0960
6.5158 7.6574 -3.1540
6.5120 7.8151 -3.2115
6.5124 7.9820 -3.2728
6.5128 8.1534 -3.3358
6.5132 8.3294 -3.4006
6.5136 8.5104 -3.4674
6.5141 8.6966 -3.5361
6.5146 8.8882 -3.6070
6.5150 9.0856 -3.6801
6.5155 9.2890 -3.7555
6.5160 9.4987 -3.8334
6.5165 9.7152 -3.9139
6.5171 9.9388 -3.9971
6.5176 10.1698 -4.0832
6.5182 10.4088 -4.1724
6.5188 10.6562 -4.2649
6.5274 10.9257 -4.3661
6.5279 11.1914 -4.4657
6.5283 11.4671 -4.5691
6.5293 12.0511 -4.7885
6.5288 11.7535 -4.6766
6.5298 12.3609 -4.9051
6.5286 14.1140 -5.5668
6.5304 12.6836 -5.0267
6.5293 14.5163 -5.7192
6.5309 13.0201 -5.1536
6.5300 14.9384 -5.8792
6.5315 13.3714 -5.2863
6.5307 15.3818 -6.0474
6.5314 15.8484 -6.2246
6.5321 13.7386 -5.4250
-5.7017 11.3971 -4.5106
-5.9046 11.4982 -4.5563
-5.3119 11.2029 -4.4232
-6.0509 11.4838 -4.5564
-5.5042 11.2987 -4.4663
-6.2001 11.4725 -4.5580
-6.5515 11.2593 -4.4921
-5.8726 10.5986 -4.2165
-6.6812 11.2101 -4.4791
-6.5024 11.4498 -4.5615
-6.9723 11.4245 -4.5717
-7.4157 11.0809 -4.4633
-7.1027 11.3687 -4.5565
-7.3049 10.6727 -4.3064
-7.0551 11.0340 -4.4295
-7.9311 11.3324 -4.5808
-8.0163 11.2040 -4.5372
-7.0910 10.8389 -4.3584
-7.0383 9.6239 -3.9047
-8.1106 10.6200 -4.3259
-7.1685 9.5912 -3.8991
-8.1521 10.4478 -4.2646
-28.7036 13.2449 -6.6495
-28.7848 12.9386 -6.5530
6.5145 7.1781 -2.4827
6.5146 7.3268 -2.5310
6.5147 7.4792 -2.5804
6.5149 7.6353 -2.6311
6.5150 7.7953 -2.6831
6.5122 7.9560 -2.7353
6.5126 8.1247 -2.7903
6.5130 8.2980 -2.8467
6.5134 8.4761 -2.9048
6.5139 8.6592 -2.9645
6.5143 8.8475 -3.0260
6.5148 9.0414 -3.0894
6.5153 9.2410 -3.1546
6.5158 9.4468 -3.2220
6.5163 9.6591 -3.2914
6.5168 9.8781 -3.3632
6.5173 10.1044 -3.4374
6.5179 10.3382 -3.5141
6.5185 10.5801 -3.5934
6.5191 10.8305 -3.6757
6.5266 11.1017 -3.7649
6.5271 11.3706 -3.8533
6.5275 11.6497 -3.9451
6.5280 11.9395 -4.0405
6.5285 12.2409 -4.1397
6.5290 12.5545 -4.2430
6.5295 12.8812 -4.3507
6.5300 13.2219 -4.4631
6.5306 13.5776 -4.5805
6.5276 13.9420 -4.7007
6.5282 14.3308 -4.8291
6.5289 14.7383 -4.9637
6.5296 15.1659 -5.1051
6.5303 15.6151 -5.2536
6.5310 16.0877 -5.4100
6.5318 16.5859 -5.5749
6.5288 17.1015 -5.7457
6.5299 17.6576 -5.9299
6.5310 18.2466 -6.1251
-6.7944 28.0726 -9.3908
-7.1480 28.2286 -9.4456
-7.3767 27.8933 -9.3361
-7.6873 27.8762 -9.3333
-5.6035 11.6816 -3.9406
-5.5002 11.1664 -3.7690
-5.6799 11.2345 -3.7943
-5.8636 11.3040 -3.8201
-6.0514 11.3752 -3.8467
-6.2437 11.4480 -3.8739
-6.0907 10.8969 -3.6899
-6.7484 11.7847 -3.9933
-6.7946 11.5853 -3.9286
-6.6282 11.0378 -3.7457
-7.2899 11.0750 -3.7704
-7.4486 11.0658 -3.7705
-6.9659 11.3328 -3.8488
-7.4949 10.8906 -3.7140
-7.1785 11.4124 -3.8789
-7.5406 10.7190 -3.6588
-7.0521 9.8085 -3.3512
-7.3481 11.4185 -3.8841
-8.3488 11.1224 -3.8074
-7.1580 9.7428 -3.3319
-8.3825 10.9317 -3.7459
-8.4839 10.8321 -3.7157
-8.5850 10.7328 -3.6856
-8.6858 10.6339 -3.6556
-8.7864 10.5352 -3.6258
6.5138 7.3090 -2.0359
6.5139 7.4593 -2.0789
6.5140 7.6133 -2.1228
6.5141 7.7710 -2.1678
6.5120 7.9301 -2.2132
6.5124 8.0964 -2.2606
6.5128 8.2670 -2.3093
6.5132 8.4422 -2.3592
6.5136 8.6223 -2.4105
6.5141 8.8074 -2.4633
6.5145 8.9979 -2.5175
6.5150 9.1940 -2.5734
6.5155 9.3960 -2.6309
6.5160 9.6042 -2.6901
6.5165 9.8189 -2.7512
6.5170 10.0406 -2.8143
6.5176 10.2695 -2.8794
6.5181 10.5061 -2.9467
6.5187 10.7509 -3.0163
6.5255 11.0146 -3.0912
6.5259 11.2771 -3.1658
6.5263 11.5492 -3.2431
6.5267 11.8316 -3.3233
6.5271 12.1249 -3.4066
6.5276 12.4299 -3.4932
6.5281 12.7474 -3.5833
6.5286 13.0781 -3.6772
6.5291 13.4230 -3.7750
6.5296 13.7831 -3.8772
6.5273 14.1532 -3.9821
6.5279 14.5470 -4.0938
6.5285 14.9596 -4.2108
6.5292 15.3926 -4.3336
6.5299 15.8476 -4.4625
6.5306 16.3263 -4.5982
6.5281 16.8221 -4.7387
6.5291 17.3549 -4.8897
6.5301 17.9183 -5.0493
6.5312 18.5150 -5.2183
6.5324 19.1486 -5.3977
6.5337 19.8224 -5.5885
6.5377 20.5491 -5.7942
6.5400 21.3196 -6.0123
6.5425 22.1449 -6.2459
-6.1192 28.2339 -7.9697
-4.3137 18.9483 -5.3481
-4.5125 18.9099 -5.3367
-4.7307 18.9492 -5.3472
-4.9615 19.0295 -5.3692
-7.4864 27.5377 -7.7689
-5.4026 19.0869 -5.3841
-8.3558 28.3917 -8.0078
-8.8052 19.1446 -5.3867
-5.4255 11.4832 -3.2303
-5.5900 11.5227 -3.2406
-5.7571 11.5626 -3.2511
-5.9809 11.7087 -3.2914
-6.1835 11.8044 -3.3175
-6.5360 12.1717 -3.4198
-6.4929 11.7991 -3.3143
-6.2135 11.0223 -3.0952
-6.4019 11.0893 -3.1131
-6.3648 10.7689 -3.0223
-6.7922 11.2280 -3.1502
-7.0756 11.4310 -3.2062
-7.2532 11.4547 -3.2118
-7.2381 11.1767 -3.1328
-7.6956 11.6215 -3.2564
-7.1623 10.5801 -2.9636
-7.1247 10.2971 -2.8833
-7.0643 9.9909 -2.7965
-8.1224 11.2429 -3.1458
-8.2028 11.1144 -3.1086
-8.2533 10.9483 -3.0610
-8.3534 10.8502 -3.0323
-8.4531 10.7525 -3.0037
-8.5526 10.6550 -2.9752
-8.6518 10.5578 -2.9467
6.5130 7.4401 -1.5888
6.5131 7.5920 -1.6264
6.5132 7.7475 -1.6648
6.5118 7.9051 -1.7037
6.5122 8.0689 -1.7441
6.5126 8.2369 -1.7854
6.5130 8.4094 -1.8277
6.5134 8.5866 -1.8712
6.5139 8.7686 -1.9157
6.5143 8.9559 -1.9615
6.5148 9.1485 -2.0085
6.5152 9.3468 -2.0568
6.5157 9.5511 -2.1065
6.5162 9.7617 -2.1577
6.5167 9.9789 -2.2104
6.5173 10.2032 -2.2647
6.5178 10.4348 -2.3208
6.5184 10.6742 -2.3787
6.5243 10.9308 -2.4404
6.5247 11.1870 -2.5022
6.5251 11.4526 -2.5661
6.5255 11.7279 -2.6324
6.5259 12.0136 -2.7010
6.5263 12.3105 -2.7722
6.5267 12.6191 -2.8461
6.5272 12.9404 -2.9230
6.5277 13.2751 -3.0030
6.5282 13.6242 -3.0864
6.5263 13.9837 -3.1722
6.5269 14.3646 -3.2629
6.5275 14.7633 -3.3578
6.5282 15.1812 -3.4572
6.5288 15.6196 -3.5613
6.5295 16.0802 -3.6706
6.5302 16.5650 -3.7856
6.5283 17.0688 -3.9050
6.5293 17.6085 -4.0327
6.5304 18.1792 -4.1676
6.5315 18.7838 -4.3104
6.5327 19.4256 -4.4619
6.5359 20.1143 -4.6243
6.5381 20.8448 -4.7964
6.5404 21.6254 -4.9802
6.5429 22.4617 -5.1769
6.5263 23.2913 -5.3723
6.5272 24.2494 -5.5974
6.5283 25.2840 -5.8404
6.5341 26.4241 -6.1078
-7.1987 44.8473 -10.4116
-5.5542 28.8778 -6.6948
-5.8682 28.9052 -6.6977
-6.1029 28.5530 -6.6124
-6.4919 28.9164 -6.6927
-6.6474 28.2486 -6.5342
-7.0396 28.5951 -6.6101
-7.2158 28.0665 -6.4835
-7.3685 27.4879 -6.3454
-7.8016 27.9539 -6.4482
-7.9365 27.3513 -6.3044
-8.6177 28.6003 -6.5870
-7.0596 19.0990 -4.3745
-5.3723 12.1842 -2.7716
-5.5249 12.1926 -2.7699
-5.6791 12.2010 -2.7682
-5.4645 11.4343 -2.5906
-5.6269 11.4729 -2.5957
-5.7920 11.5122 -2.6008
-5.9598 11.5519 -2.6058
-6.4673 12.2295 -2.7544
-6.1691 11.3846 -2.5599
-6.3167 11.3801 -2.5547
-6.4657 11.3755 -2.5493
-6.6162 11.3707 -2.5437
-6.7289 11.2997 -2.5233
-7.1248 11.6940 -2.6064
-6.5912 10.5762 -2.3527
-7.0723 11.0969 -2.4636
-7.0361 10.7981 -2.3924
-7.0011 10.5112 -2.3239
-6.9493 10.2089 -2.2521
-7.6543 11.0047 -2.4222
-7.7544 10.9127 -2.3964
-7.8542 10.8210 -2.3706
-8.0957 10.9211 -2.3866
-8.0182 10.5924 -2.3089
-8.1559 10.5527 -2.2942
-8.1974 10.3894 -2.2526
-8.2383 10.2286 -2.2115
-8.2785 10.0704 -2.1711
6.5123 7.5718 -1.1393
6.5124 7.7252 -1.1715
6.5116 7.8814 -1.2043
6.5120 8.0428 -1.2379
6.5124 8.2084 -1.2723
6.5128 8.3782 -1.3075
6.5132 8.5526 -1.3435
6.5136 8.7317 -1.3804
6.5141 8.9158 -1.4182
6.5145 9.1051 -1.4569
6.5150 9.2999 -1.4966
6.5155 9.5004 -1.5374
6.5160 9.7071 -1.5793
6.5165 9.9201 -1.6223
6.5170 10.1398 -1.6666
6.5175 10.3667 -1.7122
6.5181 10.6010 -1.7591
6.5186 10.8433 -1.8075
6.5235 11.1011 -1.8587
6.5239 11.3604 -1.9102
6.5243 11.6290 -1.9634
6.5246 11.9075 -2.0184
6.5250 12.1966 -2.0754
6.5254 12.4970 -2.1345
6.5259 12.8093 -2.1957
6.5263 13.1344 -2.2593
6.5268 13.4731 -2.3254
6.5255 13.8227 -2.3935
6.5260 14.1916 -2.4652
6.5266 14.5772 -2.5399
6.5272 14.9809 -2.6179
6.5278 15.4038 -2.6995
6.5284 15.8477 -2.7849
6.5291 16.3142 -2.8745
6.5298 16.8051 -2.9686
6.5286 17.3169 -3.0666
6.5296 17.8635 -3.1709
6.5306 18.4416 -3.2811
6.5318 19.0540 -3.3975
6.5329 19.7041 -3.5210
6.5363 20.4021 -3.6531
6.5384 21.1421 -3.7930
6.5407 21.9330 -3.9423
6.5432 22.7803 -4.1021
6.5282 23.6265 -4.2618
6.5293 24.5977 -4.4444
6.5304 25.6467 -4.6413
6.5368 26.8043 -4.8581
6.5407 28.0523 -5.0917
6.5479 29.4293 -5.3489
6.5527 30.9265 -5.6284
6.5459 32.5177 -5.9253
-6.2592 45.4945 -8.3408
-6.7366 45.5348 -8.3412
-7.1611 45.2271 -8.2773
-7.4585 44.1960 -8.0808
-5.3899 28.4110 -5.1836
-5.7215 28.5731 -5.2071
-5.8704 27.8464 -5.0685
-6.3353 28.6114 -5.2010
-6.6157 28.5055 -5.1746
-6.9175 28.4920 -5.1647
-7.1970 28.3857 -5.1377
-7.2693 27.4988 -4.9694
-7.5622 27.4777 -4.9574
-7.9993 27.9570 -5.0351
-8.1552 27.4487 -4.9347
-5.3949 12.0823 -2.1058
-5.5449 12.0903 -2.1008
-5.6965 12.0984 -2.0956
-5.5012 11.3855 -1.9657
-5.6509 11.4016 -1.9619
-5.8025 11.4179 -1.9579
-5.9559 11.4344 -1.9537
-6.1112 11.4510 -1.9493
-6.2686 11.4678 -1.9447
-6.8615 12.2591 -2.0706
-6.5587 11.4478 -1.9257
-6.8118 11.6185 -1.9461
-6.7929 11.3253 -1.8887
-6.9653 11.3539 -1.8849
-7.1345 11.3734 -1.8793
-7.0325 10.9662 -1.8033
-7.2775 11.1029 -1.8167
-7.4526 11.1265 -1.8112
-7.5545 11.0393 -1.7874
-7.6562 10.9522 -1.7635
-7.7575 10.8654 -1.7396
-7.8586 10.7787 -1.7156
-7.9300 10.6526 -1.6851
-7.2842 9.5848 -1.5067
-8.1013 10.4433 -1.6309
-8.1427 10.2843 -1.5952
-8.1832 10.1275 -1.5599
-37.3097 19.4283 -1.1480
-37.8820 19.2626 -1.0522
6.5115 7.7049 -0.6855
6.5115 7.8597 -0.7123
6.5118 8.0188 -0.7396
6.5122 8.1819 -0.7675
6.5126 8.3492 -0.7959
6.5130 8.5209 -0.8249
6.5134 8.6972 -0.8546
6.5139 8.8783 -0.8848
6.5143 9.0644 -0.9157
6.5148 9.2558 -0.9473
6.5152 9.4528 -0.9797
6.5157 9.6556 -1.0128
6.5162 9.8646 -1.0468
6.5167 10.0800 -1.0816
6.5172 10.3023 -1.1174
6.5178 10.5318 -1.1541
6.5183 10.7688 -1.1919
6.5224 11.0198 -1.2313
6.5228 11.2731 -1.2713
6.5231 11.5353 -1.3124
6.5235 11.8071 -1.3549
6.5238 12.0889 -1.3987
6.5242 12.3814 -1.4439
6.5246 12.6853 -1.4907
6.5250 13.0013 -1.5391
6.5254 13.3303 -1.5893
6.5259 13.6731 -1.6414
6.5251 14.0281 -1.6951
6.5256 14.4015 -1.7513
6.5262 14.7918 -1.8098
6.5268 15.2005 -1.8708
6.5274 15.6287 -1.9345
6.5280 16.0781 -2.0010
6.5287 16.5504 -2.0707
6.5278 17.0431 -2.1432
6.5288 17.5675 -2.2200
6.5298 18.1210 -2.3007
6.5309 18.7066 -2.3858
6.5320 19.3269 -2.4756
6.5345 19.9896 -2.5712
6.5366 20.6927 -2.6723
6.5388 21.4423 -2.7797
6.5411 22.2436 -2.8942
6.5291 23.0510 -3.0098
6.5302 23.9652 -3.1398
6.5313 24.9497 -3.2793
6.5357 26.0259 -3.4313
6.5394 27.1887 -3.5951
6.5435 28.4541 -3.7729
6.5494 29.8441 -3.9677
6.5543 31.3619 -4.1800
6.5485 32.9797 -4.4061
6.5530 34.8235 -4.6629
6.5600 36.8901 -4.9501
6.5547 39.1296 -5.2611
6.5786 41.8406 -5.6362
6.5668 44.6791 -6.0290
-5.7706 45.9698 -6.2235
-6.0814 44.8066 -6.0570
-6.5843 45.1142 -6.0888
-7.0521 45.1493 -6.0829
-7.5719 45.4838 -6.1167
-6.6242 37.4701 -5.0290
-5.5924 28.3136 -3.7836
-5.6481 27.1625 -3.6212
-6.2266 28.5102 -3.7914
-6.6081 28.8685 -3.8289
-6.8146 28.4586 -3.7641
-7.0973 28.3832 -3.7432
-7.3256 28.0992 -3.6944
-7.6485 28.1810 -3.6933
-8.0245 28.4396 -3.7147
-8.2247 28.0731 -3.6540
-8.4589 27.8393 -3.6104
-8.6925 27.6141 -3.5675
-7.0721 19.0882 -2.4133
-5.5627 11.9903 -1.4498
-5.7115 11.9977 -1.4412
-5.8618 12.0051 -1.4323
-6.0137 12.0126 -1.4231
-6.1672 12.0200 -1.4136
-6.3310 12.0440 -1.4056
-6.4997 12.0730 -1.3979
-6.1845 11.2200 -1.2886
-6.3384 11.2349 -1.2794
-6.4550 11.1817 -1.2621
-6.6524 11.2650 -1.2599
-6.8125 11.2802 -1.2497
-7.1046 11.5056 -1.2621
-7.1329 11.3004 -1.2269
-7.2146 11.1839 -1.2014
-6.7160 10.1891 -1.0825
-7.3368 10.8957 -1.1443
-7.4358 10.8114 -1.1219
-7.7735 11.0675 -1.1342
-7.4737 10.4211 -1.0542
-7.4098 10.1205 -1.0100
-7.1481 9.5643 -0.9411
-7.9423 10.4121 -1.0096
-7.9894 10.2635 -0.9800
-8.0359 10.1167 -0.9506
-36.2591 33.9813 -2.2144
-36.2702 33.3349 -2.0921
-36.2812 32.6999 -1.9714
-36.5281 32.2846 -1.8639
-37.1764 32.2197 -1.7754
-37.9295 32.2329 -1.6887
-37.5495 30.0730 -1.3149
-37.7011 29.5993 -1.2031
-37.1494 28.5888 -1.0712
-37.4624 28.2564 -0.9660
-38.0059 28.0935 -0.8651
-38.5553 27.9269 -0.7620
-39.1106 27.7565 -0.6567
-39.6721 27.5823 -0.5490
-40.2398 27.4042 -0.4390
-40.8140 27.2220 -0.3266
-41.3948 27.0357 -0.2116
-41.9995 26.8561 -0.0942
-21.5641 12.3673 0.2556
-21.5651 12.0935 0.3155
-21.5661 11.8226 0.3750
-21.5671 11.5547 0.4344
-21.5681 11.2895 0.4934
6.5108 7.8398 -0.2253
6.5117 7.9974 -0.2467
6.5120 8.1582 -0.2683
6.5124 8.3231 -0.2903
6.5128 8.4922 -0.3127
6.5132 8.6657 -0.3354
6.5136 8.8439 -0.3585
6.5141 9.0270 -0.3821
6.5145 9.2152 -0.4060
6.5150 9.4087 -0.4304
6.5154 9.6079 -0.4553
6.5159 9.8130 -0.4807
6.5164 10.0244 -0.5067
6.5169 10.2423 -0.5332
6.5175 10.4671 -0.5603
6.5180 10.6993 -0.5880
6.5213 10.9437 -0.6167
6.5217 11.1913 -0.6458
6.5220 11.4475 -0.6757
6.5223 11.7128 -0.7063
6.5226 11.9877 -0.7378
6.5230 12.2728 -0.7702
6.5234 12.5687 -0.8035
6.5237 12.8762 -0.8378
6.5241 13.1960 -0.8733
6.5245 13.5289 -0.9099
6.5243 13.8744 -0.9476
6.5248 14.2364 -0.9867
6.5253 14.6144 -1.0273
6.5258 15.0095 -1.0694
6.5264 15.4232 -1.1131
6.5270 15.8568 -1.1586
6.5277 16.3118 -1.2060
6.5283 16.7900 -1.2555
6.5281 17.2906 -1.3070
6.5290 17.8216 -1.3611
6.5300 18.3823 -1.4179
6.5311 18.9754 -1.4776
6.5323 19.6037 -1.5404
6.5349 20.2752 -1.6070
6.5369 20.9875 -1.6773
6.5391 21.7469 -1.7518
6.5415 22.5587 -1.8310
6.5311 23.3823 -1.9115
6.5322 24.3090 -2.0010
6.5334 25.3070 -2.0968
6.5383 26.3997 -2.2010
6.5421 27.5788 -2.3129
6.5463 28.8621 -2.4342
6.5510 30.2650 -2.5661
6.5559 31.8037 -2.7102
6.5512 33.4486 -2.8640
6.5560 35.3201 -3.0378
6.5626 37.4126 -3.2314
6.5572 39.6826 -3.4411
6.5764 42.4005 -3.6904
6.5708 45.3187 -3.9580
6.5800 48.7741 -4.2735
-5.1626 45.3622 -3.9982
-5.4619 44.1049 -3.8769
-6.1712 46.0897 -4.0395
-6.5227 45.3046 -3.9581
-7.0012 45.4380 -3.9562
-7.4175 45.1681 -3.9182
-7.9426 45.5457 -3.9355
-5.3965 29.2353 -2.5156
-5.5621 28.5493 -2.4456
-5.8702 28.6211 -2.4402
-6.1159 28.3916 -2.4085
-6.2340 27.6127 -2.3301
-6.5373 27.6808 -2.3228
-6.9573 28.2114 -2.3535
-7.2612 28.2420 -2.3415
-7.5054 28.0419 -2.3098
-7.8194 28.1023 -2.2990
-8.0226 27.7695 -2.2556
-8.1644 27.2501 -2.1968
-5.6848 11.8176 -0.7960
-5.8203 11.8018 -0.7823
-5.9565 11.7856 -0.7682
-6.0936 11.7692 -0.7537
-6.2316 11.7525 -0.7389
-6.3705 11.7356 -0.7237
-6.5000 11.6998 -0.7070
-6.6179 11.6426 -0.6887
-6.7358 11.5850 -0.6701
-6.8537 11.5273 -0.6512
-6.9793 11.4819 -0.6327
-7.1183 11.4571 -0.6150
-6.9365 10.9253 -0.5704
-7.2073 11.1110 -0.5633
-7.2743 10.9785 -0.5396
-7.3405 10.8474 -0.5158
-7.4321 10.7557 -0.4939
-7.4826 10.6066 -0.4692
-7.2021 10.0011 -0.4251
-7.9514 10.8182 -0.4405
-36.2594 33.9871 0.1517
-36.2707 33.3468 0.2532
-36.2809 32.7170 0.3539
-21.5415 19.0525 0.2694
-21.4498 18.6066 0.3268
-21.4607 18.2571 0.3851
-21.5360 17.9670 0.4444
-21.5373 17.6197 0.5020
-21.5386 17.2779 0.5593
-21.5399 16.9414 0.6162
-21.5411 16.6100 0.6727
-21.5423 16.2836 0.7290
-21.5435 15.9620 0.7850
-21.5447 15.6450 0.8407
-21.5459 15.3324 0.8961
-21.5470 15.0241 0.9514
-21.5482 14.7200 1.0064
-21.5493 14.4199 1.0612
-21.5504 14.1237 1.1158
-21.5515 13.8312 1.1702
-21.4753 13.4938 1.2201
-21.4701 13.2056 1.2736
-21.4972 12.9404 1.3290
-21.5621 12.7001 1.3868
-21.5631 12.4244 1.4406
-21.5641 12.1519 1.4943
-21.5651 11.8823 1.5479
-21.5661 11.6155 1.6014
6.5115 7.9790 0.2435
6.5119 8.1376 0.2277
6.5123 8.3002 0.2119
6.5126 8.4668 0.1959
6.5130 8.6378 0.1797
6.5134 8.8132 0.1634
6.5139 8.9934 0.1469
6.5143 9.1785 0.1302
6.5147 9.3688 0.1133
6.5152 9.5645 0.0962
6.5157 9.7660 0.0789
6.5162 9.9734 0.0614
6.5167 10.1872 0.0437
6.5172 10.4076 0.0256
6.5177 10.6351 0.0073
6.5203 10.8732 -0.0113
6.5206 11.1155 -0.0301
6.5209 11.3660 -0.0494
6.5212 11.6251 -0.0689
6.5215 11.8935 -0.0889
6.5218 12.1716 -0.1092
6.5221 12.4601 -0.1300
6.5225 12.7596 -0.1512
6.5229 13.0707 -0.1729
6.5232 13.3943 -0.1951
6.5236 13.7312 -0.2178
6.5239 14.0822 -0.2411
6.5244 14.4486 -0.2651
6.5249 14.8312 -0.2897
6.5255 15.2313 -0.3151
6.5260 15.6501 -0.3412
6.5266 16.0891 -0.3682
6.5273 16.5498 -0.3961
6.5274 17.0325 -0.4249
6.5283 17.5427 -0.4549
6.5293 18.0806 -0.4860
6.5303 18.6485 -0.5184
6.5314 19.2492 -0.5522
6.5333 19.8881 -0.5876
6.5352 20.5662 -0.6246
6.5373 21.2878 -0.6635
6.5395 22.0573 -0.7044
6.5319 22.8451 -0.7464
6.5330 23.7200 -0.7918
6.5342 24.6594 -0.8400
6.5355 25.6713 -0.8912
6.5410 26.7810 -0.9465
6.5449 27.9766 -1.0055
6.5480 29.2728 -1.0688
6.5525 30.6941 -1.1374
6.5496 32.2151 -1.2105
6.5538 33.9268 -1.2915
6.5585 35.8231 -1.3804
6.5580 37.9033 -1.4772
6.5598 40.2466 -1.5853
6.5742 42.9706 -1.7093
6.5749 45.9711 -1.8454
6.5809 49.4516 -2.0019
-5.5637 45.5436 -1.8594
-5.9009 44.6768 -1.8101
-6.4769 45.6052 -1.8323
-6.9137 45.4886 -1.8112
-7.3282 45.2404 -1.7838
-7.7280 44.9280 -1.7529
-8.0482 44.2046 -1.7054
-5.5778 29.0273 -1.1064
-5.8741 29.0384 -1.0926
-6.1635 29.0114 -1.0766
-6.2865 28.2337 -1.0325
-6.4290 27.6030 -0.9937
-6.8808 28.2929 -1.0017
-7.1895 28.3566 -0.9863
-7.4595 28.2631 -0.9646
-7.6400 27.8456 -0.9315
-7.8106 27.4189 -0.8978
-7.0808 19.0845 -0.4968
-6.1094 11.4288 -0.1043
-6.2426 11.4113 -0.0870
-6.3766 11.3935 -0.0694
-6.5116 11.3755 -0.0513
-6.5564 11.2015 -0.0322
-6.7843 11.3385 -0.0137
-6.9220 11.3195 0.0058
-7.0660 11.3085 0.0258
-7.1448 11.1931 0.0459
-7.2692 11.1496 0.0665
-7.0861 10.6432 0.0839
-6.9695 10.2528 0.1011
-7.5145 10.8288 0.1287
-21.5030 30.3593 0.4241
-21.5053 29.7519 0.4793
-21.4152 29.0351 0.5317
-21.5007 28.5722 0.5878
-21.5029 28.0109 0.6413
-21.5049 27.4636 0.6943
-21.5070 26.9296 0.7469
-21.5090 26.4084 0.7990
-21.5109 25.8995 0.8507
-21.5128 25.4022 0.9021
-21.5146 24.9162 0.9531
-21.5164 24.4409 1.0037
-21.4347 23.8830 1.0499
-21.4365 23.4298 1.0997
-21.5254 23.0795 1.1540
-21.5270 22.6430 1.2034
-21.5287 22.2153 1.2527
-21.5302 21.7961 1.3017
-21.5318 21.3850 1.3505
-21.5333 20.9816 1.3991
-21.5348 20.5858 1.4475
-21.5363 20.1973 1.4958
-21.5377 19.8157 1.5439
-21.5391 19.4408 1.5918
-21.5405 19.0723 1.6396
-21.4489 18.6293 1.6801
-21.4597 18.2828 1.7283
-21.5350 17.9956 1.7817
-21.5363 17.6509 1.8292
-21.5376 17.3117 1.8765
-21.5389 16.9776 1.9239
-21.5401 16.6486 1.9711
-21.5413 16.3244 2.0184
-21.5425 16.0049 2.0656
-21.5437 15.6900 2.1128
-21.5449 15.3793 2.1600
-21.5461 15.0730 2.2072
-21.5472 14.7707 2.2544
-21.5483 14.4723 2.3016
-21.5494 14.1778 2.3489
-21.5505 13.8869 2.3962
-21.4743 13.5508 2.4348
-21.4691 13.2641 2.4813
-21.4701 12.9846 2.5286
-21.5611 12.7616 2.5868
-21.9841 12.7317 2.6860
-21.5929 12.2330 2.6859
-21.2154 11.7545 2.6859
6.5117 8.1209 0.7233
6.5121 8.2812 0.7133
6.5125 8.4455 0.7034
6.5129 8.6140 0.6935
6.5133 8.7868 0.6837
6.5137 8.9642 0.6739
6.5141 9.1464 0.6642
6.5145 9.3336 0.6545
6.5150 9.5260 0.6449
6.5154 9.7240 0.6353
6.5159 9.9277 0.6258
6.5164 10.1376 0.6164
6.5169 10.3538 0.6070
6.5174 10.5768 0.5976
6.5180 10.8070 0.5884
6.5195 11.0462 0.5792
6.5198 11.2913 0.5700
6.5201 11.5447 0.5609
6.5203 11.8069 0.5519
6.5206 12.0784 0.5429
6.5210 12.3599 0.5339
6.5213 12.6518 0.5251
6.5216 12.9548 0.5163
6.5219 13.2698 0.5075
6.5223 13.5973 0.4989
6.5231 13.9392 0.4903
6.5236 14.2948 0.4818
6.5240 14.6657 0.4734
6.5246 15.0531 0.4651
6.5251 15.4582 0.4569
6.5257 15.8823 0.4487
6.5262 16.3268 0.4407
6.5269 16.7934 0.4327
6.5276 17.2839 0.4249
6.5285 17.8008 0.4172
6.5295 18.3456 0.4097
6.5305 18.9210 0.4023
6.5316 19.5296 0.3950
6.5336 20.1770 0.3879
6.5356 20.8641 0.3810
6.5376 21.5952 0.3743
6.5398 22.3749 0.3677
6.5339 23.1788 0.3610
6.5351 24.0658 0.3549
6.5363 25.0183 0.3490
6.5400 26.0534 0.3436
6.5437 27.1715 0.3385
6.5477 28.3842 0.3338
6.5495 29.6924 0.3293
6.5541 31.1335 0.3255
6.5522 32.6805 0.3219
6.5566 34.4166 0.3192
6.5611 36.3383 0.3173
6.5605 38.4473 0.3159
6.5625 40.8243 0.3156
6.5719 43.5536 0.3170
6.5791 46.6397 0.3196
-6.3529 45.3539 0.3089
-6.8178 45.4820 0.3290
-7.1860 44.9812 0.3457
-6.4893 28.2557 0.3303
-6.8058 28.3803 0.3515
-7.0714 28.2864 0.3709
-7.5141 28.8749 0.4006
-21.3632 44.6468 1.6312
-21.4504 43.7500 1.6664
-21.4544 42.7204 1.6954
-21.4582 41.7291 1.7248
-21.4618 40.7739 1.7543
-21.3815 39.6969 1.7771
-21.4681 38.9624 1.8140
-21.4713 38.1036 1.8442
-21.4745 37.2734 1.8745
-21.4776 36.4703 1.9051
-21.4806 35.6927 1.9359
-21.4835 34.9395 1.9669
-6.8577 10.9185 0.6377
-7.1912 11.2110 0.6791
-21.4925 32.8146 2.0611
-21.4951 32.1467 2.0928
-21.4975 31.4976 2.1247
-21.5000 30.8664 2.1568
-21.5023 30.2523 2.1891
-21.5046 29.6544 2.2216
-21.4144 28.9472 2.2445
-21.5000 28.4927 2.2861
-21.5021 27.9395 2.3191
-21.5041 27.3999 2.3523
-21.5062 26.8733 2.3856
-21.5081 26.3591 2.4191
-21.5100 25.8567 2.4529
-21.5119 25.3658 2.4868
-21.5137 24.8857 2.5208
-21.5155 24.4161 2.5551
-21.4339 23.8637 2.5795
-21.4465 23.4275 2.6153
-21.7382 23.2993 2.6859
-21.4576 22.5663 2.6859
-21.1824 21.8588 2.6859
-20.9127 21.1759 2.6859
-20.6485 20.5163 2.6859
-20.3894 19.8792 2.6859
-20.1353 19.2635 2.6859
-19.8862 18.6683 2.6859
-19.6489 18.0992 2.6869
-19.6325 17.7440 2.7178
-19.6273 17.4053 2.7504
-19.6221 17.0724 2.7832
-19.6168 16.7449 2.8162
-19.5356 16.3592 2.8383
-19.3046 15.8582 2.8383
-19.0778 15.3726 2.8383
-18.8549 14.9017 2.8383
-18.6359 14.4450 2.8383
-18.4207 14.0021 2.8383
-18.2092 13.5722 2.8383
-18.0012 13.1549 2.8383
-17.7967 12.7498 2.8383
-17.5957 12.3563 2.8383
-17.3979 11.9741 2.8383
-17.2033 11.6027 2.8383
-17.0118 11.2417 2.8383
-16.8234 10.8908 2.8383
-16.6380 10.5495 2.8383
-16.4555 10.2176 2.8383
-16.2757 9.8948 2.8383
-16.0988 9.5806 2.8383
-15.9245 9.2747 2.8383
-15.7528 8.9770 2.8383
6.5119 8.2668 1.2168
6.5123 8.4289 1.2127
6.5127 8.5950 1.2089
6.5131 8.7653 1.2053
6.5135 8.9401 1.2020
6.5139 9.1195 1.1989
6.5143 9.3037 1.1961
6.5148 9.4930 1.1937
6.5152 9.6877 1.1915
6.5157 9.8879 1.1897
6.5162 10.0941 1.1882
6.5167 10.3064 1.1870
6.5172 10.5252 1.1863
6.5177 10.7509 1.1859
6.5184 10.9841 1.1859
6.5187 11.2240 1.1863
6.5190 11.4720 1.1871
6.5192 11.7284 1.1883
6.5195 11.9937 1.1901
6.5198 12.2685 1.1923
6.5201 12.5534 1.1951
6.5204 12.8488 1.1984
6.5207 13.1556 1.2024
6.5210 13.4743 1.2070
6.5214 13.8059 1.2122
6.5227 14.1534 1.2184
6.5232 14.5134 1.2252
6.5237 14.8890 1.2327
6.5242 15.2813 1.2412
6.5247 15.6916 1.2505
6.5253 16.1211 1.2609
6.5258 16.5713 1.2723
6.5270 17.0451 1.2850
6.5278 17.5426 1.2989
6.5288 18.0661 1.3141
6.5298 18.6182 1.3308
6.5308 19.2012 1.3491
6.5319 19.8179 1.3690
6.5339 20.4741 1.3911
6.5359 21.1705 1.4151
6.5380 21.9114 1.4415
6.5402 22.7016 1.4703
6.5359 23.5222 1.5004
6.5371 24.4216 1.5347
6.5385 25.3877 1.5725
6.5427 26.4392 1.6146
6.5465 27.5734 1.6609
6.5507 28.8036 1.7121
6.5511 30.1240 1.7677
6.5558 31.5855 1.8306
6.5549 33.1593 1.8989
6.5574 34.9098 1.9764
6.5637 36.8685 2.0644
6.5631 39.0071 2.1613
6.5689 41.4414 2.2733
6.5739 44.1818 2.4007
6.5790 47.2966 2.5470
-7.1326 45.2776 2.4813
-8.1170 48.5261 2.6859
-8.5018 48.0208 2.6859
-8.8747 47.4972 2.6859
-7.3650 37.4453 2.1419
-10.4836 48.4297 2.8383
-10.8258 47.8127 2.8383
-11.1547 47.1831 2.8383
-6.9637 28.2564 1.7232
-11.7724 45.8915 2.8383
-12.0613 45.2320 2.8383
-12.3370 44.5649 2.8383
-12.5995 43.8913 2.8383
-12.8490 43.2127 2.8383
-13.0858 42.5301 2.8383
-13.3099 41.8443 2.8383
-13.5216 41.1566 2.8383
-13.7210 40.4676 2.8383
-13.9084 39.7783 2.8383
-14.0842 39.0898 2.8383
-7.0788 19.0788 1.4101
-14.4016 37.7176 2.8383
-14.5440 37.0354 2.8383
-14.6757 36.3567 2.8383
-14.7972 35.6822 2.8383
-14.9088 35.0124 2.8383
-15.0107 34.3477 2.8383
-15.1033 33.6888 2.8383
-15.1869 33.0359 2.8383
-15.2618 32.3895 2.8383
-15.3284 31.7500 2.8383
-15.3869 31.1177 2.8383
-15.4377 30.4928 2.8383
-15.4810 29.8757 2.8383
-15.5172 29.2665 2.8383
-15.5465 28.6655 2.8383
-15.5693 28.0728 2.8383
-15.5858 27.4885 2.8383
-15.5962 26.9128 2.8383
-15.6009 26.3457 2.8383
-15.6001 25.7874 2.8383
-15.5941 25.2379 2.8383
-7.0697 11.2045 1.2877
-7.2159 11.2014 1.3156
-15.5470 23.6423 2.8383
-15.5224 23.1281 2.8383
-15.4937 22.6227 2.8383
-15.4612 22.1261 2.8383
-15.4250 21.6382 2.8383
-15.3852 21.1590 2.8383
-15.3422 20.6884 2.8383
-15.2960 20.2263 2.8383
-15.2469 19.7728 2.8383
-15.1951 19.3274 2.8383
-15.1405 18.8905 2.8383
-15.0835 18.4617 2.8383
-15.0242 18.0409 2.8383
-14.9626 17.6281 2.8383
-14.8990 17.2232 2.8383
-14.8335 16.8259 2.8383
-14.7661 16.4363 2.8383
-14.6970 16.0542 2.8383
-14.6264 15.6795 2.8383
-14.5542 15.3120 2.8383
-14.4807 14.9517 2.8383
-14.4059 14.5984 2.8383
-14.3299 14.2519 2.8383
-14.2528 13.9123 2.8383
-14.1746 13.5792 2.8383
-14.0955 13.2527 2.8383
-14.0156 12.9326 2.8383
-13.9349 12.6187 2.8383
-13.8534 12.3110 2.8383
-13.7712 12.0093 2.8383
-13.6885 11.7135 2.8383
-13.6052 11.4236 2.8383
-13.5214 11.1393 2.8383
-13.4372 10.8606 2.8383
-13.3526 10.5873 2.8383
-13.2676 10.3194 2.8383
-13.1824 10.0568 2.8383
-13.0969 9.7992 2.8383
-13.0112 9.5466 2.8383
-12.9253 9.2990 2.8383
-12.8393 9.0562 2.8383
-12.7532 8.8181 2.8383
-12.6670 8.5845 2.8383
-12.5808 8.3556 2.8383
-12.4945 8.1310 2.8383
-12.4083 7.9107 2.8383
-12.3222 7.6947 2.8383
-12.2360 7.4828 2.8383
-12.1500 7.2749 2.8383
-12.0641 7.0711 2.8383
6.5121 8.4176 1.7267
6.5125 8.5815 1.7287
6.5129 8.7494 1.7312
6.5133 8.9217 1.7341
6.5137 9.0984 1.7375
6.5141 9.2799 1.7414
6.5146 9.4663 1.7458
6.5150 9.6578 1.7508
6.5155 9.8548 1.7564
6.5159 10.0574 1.7625
6.5164 10.2660 1.7693
6.5169 10.4808 1.7767
6.5174 10.7023 1.7849
6.5174 10.9297 1.7935
6.5176 11.1649 1.8030
6.5179 11.4077 1.8133
6.5181 11.6587 1.8244
6.5184 11.9182 1.8364
6.5186 12.1868 1.8493
6.5189 12.4649 1.8632
6.5192 12.7532 1.8780
6.5195 13.0523 1.8940
6.5198 13.3629 1.9111
6.5201 13.6856 1.9295
6.5219 14.0248 1.9496
6.5224 14.3746 1.9706
6.5228 14.7392 1.9931
6.5233 15.1197 2.0172
6.5238 15.5171 2.0429
6.5243 15.9326 2.0705
6.5248 16.3677 2.1000
6.5254 16.8238 2.1315
6.5272 17.3057 2.1657
6.5281 17.8097 2.2020
6.5290 18.3404 2.2409
6.5300 18.8999 2.2826
6.5311 19.4907 2.3274
6.5324 20.1166 2.3756
6.5343 20.7812 2.4277
6.5363 21.4870 2.4838
6.5384 22.2382 2.5443
6.5367 23.0255 2.6081
6.5380 23.8772 2.6784
6.3762 24.1715 2.6859
6.1915 24.3938 2.6859
6.0022 24.6110 2.6859
5.8085 24.8227 2.6859
5.6103 25.0286 2.6859
5.4077 25.2285 2.6859
5.2009 25.4220 2.6859
4.9900 25.6089 2.6859
4.8187 26.0251 2.7105
4.8001 27.3517 2.8297
4.5795 27.6101 2.8383
4.3404 27.7770 2.8383
4.0976 27.9355 2.8383
3.8514 28.0855 2.8383
3.6018 28.2267 2.8383
3.3492 28.3589 2.8383
3.0935 28.4818 2.8383
2.8352 28.5952 2.8383
2.5743 28.6991 2.8383
2.3111 28.7931 2.8383
2.0458 28.8771 2.8383
1.7787 28.9509 2.8383
1.5100 29.0146 2.8383
1.2398 29.0679 2.8383
0.9686 29.1108 2.8383
0.6964 29.1431 2.8383
0.4236 29.1649 2.8383
0.1504 29.1761 2.8383
-0.1229 29.1766 2.8383
-0.3961 29.1665 2.8383
-0.6690 29.1458 2.8383
-0.9412 29.1145 2.8383
-1.2126 29.0727 2.8383
-1.4828 29.0205 2.8383
-1.7517 28.9578 2.8383
-2.0190 28.8849 2.8383
-2.2845 28.8020 2.8383
-2.5479 28.7089 2.8383
-2.8090 28.6061 2.8383
-3.0676 28.4936 2.8383
-3.3236 28.3717 2.8383
-3.5766 28.2404 2.8383
-3.8264 28.1001 2.8383
-4.0730 27.9510 2.8383
-4.3161 27.7933 2.8383
-4.5556 27.6272 2.8383
-4.7912 27.4530 2.8383
-5.0229 27.2710 2.8383
-5.2504 27.0815 2.8383
-5.4738 26.8847 2.8383
-5.6494 26.4775 2.8167
-5.6677 25.3970 2.7232
-5.7887 24.8437 2.6859
-5.9829 24.6326 2.6859
-6.1727 24.4160 2.6859
-6.3578 24.1941 2.6859
-6.5384 23.9674 2.6859
-6.7142 23.7359 2.6859
-6.8854 23.5001 2.6859
-7.0518 23.2602 2.6859
-7.2134 23.0165 2.6859
-7.3702 22.7692 2.6859
-7.5221 22.5187 2.6859
-7.6693 22.2652 2.6859
-7.8117 22.0089 2.6859
-7.9492 21.7501 2.6859
-8.0820 21.4891 2.6859
-8.2100 21.2262 2.6859
-8.3333 20.9614 2.6859
-8.4519 20.6952 2.6859
-8.5658 20.4277 2.6859
-8.6751 20.1592 2.6859
-8.7798 19.8897 2.6859
-8.8801 19.6197 2.6859
-8.9759 19.3492 2.6859
-9.0673 19.0785 2.6859
-9.6738 19.8748 2.8383
-10.1962 17.8846 2.8383
-9.7613 19.5888 2.8383
-10.2543 17.6039 2.8383
-9.8444 19.3030 2.8383
-10.3087 17.3247 2.8383
-9.9231 19.0178 2.8383
-10.3592 17.0469 2.8383
-9.9976 18.7331 2.8383
-10.4061 16.7707 2.8383
-10.0679 18.4493 2.8383
-7.0676 11.1574 1.9197
-7.2100 11.1515 1.9510
-10.1340 18.1664 2.8383
-10.5255 15.9524 2.8383
-10.6590 14.6290 2.8383
-10.5585 15.6835 2.8383
-10.6766 14.3709 2.8383
-10.5883 15.4166 2.8383
-10.6914 14.1152 2.8383
-10.6149 15.1519 2.8383
-10.7034 13.8620 2.8383
-10.6384 14.8893 2.8383
-10.7128 13.6111 2.8383
-10.7240 13.1171 2.8383
-10.7197 13.3628 2.8383
-10.7259 12.8738 2.8383
-10.7016 11.6969 2.8383
-10.7254 12.6332 2.8383
-10.6904 11.4695 2.8383
-10.7227 12.3952 2.8383
-10.6774 11.2447 2.8383
-10.7177 12.1597 2.8383
-10.7107 11.9270 2.8383
-10.6625 11.0226 2.8383
-10.6074 10.3726 2.8383
-10.6459 10.8033 2.8383
-10.5857 10.1613 2.8383
-10.6274 10.5866 2.8383
-10.5625 9.9527 2.8383
-10.4552 9.1446 2.8383
-10.5378 9.7467 2.8383
-10.4250 8.9492 2.8383
-10.5116 9.5433 2.8383
-10.3937 8.7564 2.8383
-10.4841 9.3427 2.8383
-10.3611 8.5661 2.8383
-10.2568 8.0107 2.8383
-10.3274 8.3785 2.8383
-10.2200 7.8307 2.8383
-10.2927 8.1934 2.8383
-10.1822 7.6531 2.8383
-10.1435 7.4779 2.8383
-10.1039 7.3052 2.8383
-10.0635 7.1350 2.8383
-10.0223 6.9671 2.8383
-9.9803 6.8016 2.8383
-9.9375 6.6384 2.8383
-9.8941 6.4776 2.8383
-9.8500 6.3190 2.8383
-9.8052 6.1628 2.8383
-9.7598 6.0086 2.8383
-9.7139 5.8568 2.8383
6.5124 8.5741 2.2562
6.5128 8.7399 2.2645
6.5132 8.9098 2.2735
6.5136 9.0841 2.2832
6.5140 9.2629 2.2936
6.5144 9.4465 2.3047
6.5148 9.6351 2.3167
6.5153 9.8289 2.3294
6.5157 10.0283 2.3429
6.5162 10.2333 2.3574
6.5167 10.4445 2.3728
6.5172 10.6620 2.3891
6.5163 10.8838 2.4060
6.5166 11.1145 2.4243
6.5168 11.3526 2.4437
6.5170 11.5984 2.4642
6.5172 11.8525 2.4860
6.5175 12.1152 2.5092
6.5177 12.3871 2.5336
6.5180 12.6688 2.5595
6.5182 12.9607 2.5870
6.5185 13.2636 2.6161
6.5188 13.5781 2.6469
6.5211 13.9095 2.6803
6.4519 14.0978 2.6859
6.3664 14.2559 2.6859
6.2782 14.4129 2.6859
6.1872 14.5688 2.6859
6.0936 14.7233 2.6859
5.9972 14.8765 2.6859
5.8981 15.0281 2.6859
5.7964 15.1781 2.6859
5.6919 15.3264 2.6859
5.5847 15.4728 2.6859
5.4748 15.6172 2.6859
5.3623 15.7596 2.6859
5.2471 15.8997 2.6859
5.1292 16.0376 2.6859
5.0088 16.1730 2.6859
4.8857 16.3059 2.6859
4.7953 16.5576 2.7058
4.7841 17.1073 2.7741
4.7568 17.6349 2.8383
4.6162 17.7633 2.8383
4.4731 17.8884 2.8383
4.3275 18.0101 2.8383
4.1794 18.1282 2.8383
4.0290 18.2426 2.8383
3.8763 18.3533 2.8383
3.7213 18.4600 2.8383
3.5641 18.5628 2.8383
3.4049 18.6615 2.8383
3.2436 18.7559 2.8383
3.0804 18.8461 2.8383
2.9153 18.9318 2.8383
2.7484 19.0130 2.8383
2.5799 19.0896 2.8383
2.4097 19.1615 2.8383
2.2381 19.2287 2.8383
2.0650 19.2910 2.8383
1.8907 19.3484 2.8383
1.7152 19.4008 2.8383
1.5386 19.4482 2.8383
1.3610 19.4905 2.8383
1.1825 19.5276 2.8383
1.0033 19.5596 2.8383
0.8234 19.5863 2.8383
0.6430 19.6078 2.8383
0.4622 19.6240 2.8383
0.2811 19.6349 2.8383
0.0998 19.6406 2.8383
-0.0815 19.6408 2.8383
-0.2628 19.6357 2.8383
-0.4440 19.6253 2.8383
-0.6248 19.6097 2.8383
-0.8053 19.5888 2.8383
-0.9852 19.5625 2.8383
-1.1645 19.5311 2.8383
-1.3430 19.4945 2.8383
-1.5207 19.4527 2.8383
-1.6974 19.4058 2.8383
-1.8731 19.3539 2.8383
-2.0475 19.2970 2.8383
-2.2207 19.2351 2.8383
-2.3925 19.1685 2.8383
-2.5628 19.0970 2.8383
-2.7315 19.0209 2.8383
-2.8986 18.9402 2.8383
-3.0638 18.8549 2.8383
-3.2272 18.7652 2.8383
-3.3887 18.6712 2.8383
-3.5482 18.5730 2.8383
-3.7056 18.4706 2.8383
-3.8608 18.3642 2.8383
-4.0137 18.2539 2.8383
-4.1644 18.1399 2.8383
-4.3127 18.0221 2.8383
-4.4585 17.9008 2.8383
-4.6019 17.7760 2.8383
-4.7428 17.6480 2.8383
-4.8810 17.5167 2.8383
-5.0167 17.3823 2.8383
-5.1497 17.2451 2.8383
-5.2800 17.1049 2.8383
-5.4076 16.9621 2.8383
-5.5324 16.8167 2.8383
-5.6544 16.6688 2.8383
-5.6797 16.2496 2.7922
-5.6893 15.8084 2.7416
-5.6983 15.3873 2.6940
-5.7860 15.1932 2.6859
-5.8880 15.0433 2.6859
-5.9874 14.8918 2.6859
-6.0840 14.7388 2.6859
-6.1779 14.5844 2.6859
-6.2691 14.4287 2.6859
-6.3576 14.2718 2.6859
-6.4435 14.1137 2.6859
-6.6849 13.6341 2.6859
-6.5266 13.9547 2.6859
-6.7601 13.4727 2.6859
-6.6071 13.7948 2.6859
-6.8326 13.3107 2.6859
-7.0971 12.6583 2.6859
-6.9026 13.1482 2.6859
-7.1569 12.4946 2.6859
-6.9700 12.9852 2.6859
-7.2143 12.3308 2.6859
-7.0348 12.8219 2.6859
-7.2692 12.1669 2.6859
-7.0601 11.1102 2.5558
-7.3217 12.0031 2.6859
-7.2002 11.1041 2.5906
-7.3417 11.0979 2.6263
-7.3718 11.8394 2.6859
-7.5492 11.1872 2.6859
-7.6590 10.7024 2.6859
-7.5880 11.0251 2.6859
-7.6914 10.5420 2.6859
-7.6246 10.8635 2.6859
-7.8231 9.7505 2.6859
-7.7217 10.3822 2.6859
-7.8438 9.5947 2.6859
-7.7500 10.2231 2.6859
-7.8625 9.4397 2.6859
-7.7763 10.0648 2.6859
-7.8795 9.2857 2.6859
-7.8948 9.1326 2.6859
-7.8007 9.9072 2.6859
-7.9083 8.9806 2.6859
-7.9202 8.8296 2.6859
-7.9582 7.9463 2.6859
-7.9594 7.8031 2.6859
-7.9304 8.6796 2.6859
-7.9592 7.6611 2.6859
-7.9576 7.5203 2.6859
-7.9390 8.5307 2.6859
-7.9547 7.3808 2.6859
-7.9460 8.3829 2.6859
-7.9506 7.2425 2.6859
-7.9452 7.1053 2.6859
-7.9516 8.2362 2.6859
-7.9385 6.9695 2.6859
-7.9307 6.8350 2.6859
-7.9556 8.0907 2.6859
-7.9218 6.7016 2.6859
-7.8883 6.3094 2.6859
-7.9117 6.5696 2.6859
-7.8751 6.1812 2.6859
-7.9005 6.4388 2.6859
-7.8608 6.0543 2.6859
-7.8456 5.9287 2.6859
-7.8294 5.8044 2.6859
-7.8123 5.6813 2.6859
-7.7943 5.5596 2.6859
-7.7755 5.4391 2.6859
-7.7558 5.3199 2.6859
-7.7353 5.2021 2.6859
-7.7141 5.0854 2.6859
-7.6920 4.9701 2.6859
-7.6692 4.8560 2.6859
-7.6457 4.7432 2.6859
6.2275 8.3551 2.6859
6.1949 8.4704 2.6859
6.1608 8.5858 2.6859
6.1250 8.7013 2.6859
6.0877 8.8169 2.6859
6.0488 8.9325 2.6859
6.0083 9.0481 2.6859
5.9661 9.1636 2.6859
5.9222 9.2790 2.6859
5.8767 9.3943 2.6859
5.8295 9.5094 2.6859
5.7806 9.6243 2.6859
5.7300 9.7388 2.6859
5.6776 9.8531 2.6859
5.6235 9.9669 2.6859
5.5677 10.0803 2.6859
5.5101 10.1933 2.6859
5.4507 10.3057 2.6859
5.3896 10.4175 2.6859
5.3266 10.5286 2.6859
5.2619 10.6391 2.6859
5.1954 10.7488 2.6859
5.1271 10.8576 2.6859
5.0569 10.9656 2.6859
4.9850 11.0727 2.6859
4.9113 11.1788 2.6859
4.8358 11.2838 2.6859
4.7839 11.4486 2.7003
4.7763 11.7283 2.7415
4.7689 12.0213 2.7854
4.7611 12.3269 2.8317
4.6830 12.4600 2.8383
4.5920 12.5629 2.8383
4.4991 12.6642 2.8383
4.4045 12.7640 2.8383
4.3080 12.8620 2.8383
4.2098 12.9582 2.8383
4.1098 13.0526 2.8383
4.0080 13.1450 2.8383
3.9046 13.2355 2.8383
3.7995 13.3240 2.8383
3.6927 13.4104 2.8383
3.5843 13.4946 2.8383
3.4743 13.5765 2.8383
3.3628 13.6562 2.8383
3.2498 13.7335 2.8383
3.1352 13.8084 2.8383
3.0193 13.8808 2.8383
2.9019 13.9507 2.8383
2.7832 14.0179 2.8383
2.6632 14.0826 2.8383
2.5420 14.1445 2.8383
2.4195 14.2038 2.8383
2.2959 14.2601 2.8383
2.1712 14.3137 2.8383
2.0454 14.3643 2.8383
1.9187 14.4120 2.8383
1.7910 14.4568 2.8383
1.6624 14.4985 2.8383
1.5331 14.5372 2.8383
1.4029 14.5728 2.8383
1.2721 14.6053 2.8383
1.1406 14.6346 2.8383
1.0086 14.6607 2.8383
0.8760 14.6837 2.8383
0.7430 14.7034 2.8383
0.6097 14.7200 2.8383
0.4760 14.7332 2.8383
0.3421 14.7432 2.8383
0.2080 14.7499 2.8383
0.0739 14.7534 2.8383
-0.0603 14.7535 2.8383
-0.1945 14.7504 2.8383
-0.3286 14.7440 2.8383
-0.4625 14.7344 2.8383
-0.5962 14.7214 2.8383
-0.7296 14.7053 2.8383
-0.8627 14.6858 2.8383
-0.9952 14.6632 2.8383
-1.1273 14.6374 2.8383
-1.2589 14.6083 2.8383
-1.3898 14.5762 2.8383
-1.5200 14.5409 2.8383
-1.6494 14.5025 2.8383
-1.7781 14.4611 2.8383
-1.9059 14.4167 2.8383
-2.0327 14.3692 2.8383
-2.1586 14.3189 2.8383
-2.2834 14.2657 2.8383
-2.4071 14.2095 2.8383
-2.5297 14.1506 2.8383
-2.6511 14.0889 2.8383
-2.7712 14.0246 2.8383
-2.8900 13.9575 2.8383
-3.0075 13.8879 2.8383
-3.1236 13.8158 2.8383
-3.2383 13.7411 2.8383
-3.3515 13.6640 2.8383
-3.4632 13.5846 2.8383
-3.5733 13.5029 2.8383
-3.6819 13.4190 2.8383
-3.7888 13.3328 2.8383
-3.8941 13.2446 2.8383
-3.9977 13.1543 2.8383
-4.0996 13.0620 2.8383
-4.1998 12.9678 2.8383
-4.2982 12.8717 2.8383
-4.3948 12.7739 2.8383
-4.4897 12.6744 2.8383
-4.5827 12.5732 2.8383
-4.6739 12.4704 2.8383
-4.7633 12.3661 2.8383
-4.8508 12.2604 2.8383
-4.9364 12.1533 2.8383
-5.0202 12.0449 2.8383
-5.1021 11.9352 2.8383
-5.1820 11.8243 2.8383
-5.2601 11.7123 2.8383
-5.3363 11.5993 2.8383
-5.4106 11.4853 2.8383
-5.4830 11.3703 2.8383
-5.5535 11.2545 2.8383
-5.6221 11.1377 2.8383
-5.6857 11.0146 2.8368
-5.6912 10.7842 2.8075
-5.6964 10.5610 2.7797
-5.7014 10.3446 2.7532
-5.7061 10.1348 2.7280
-5.7106 9.9313 2.7041
-5.7248 9.7505 2.6859
-5.7756 9.6359 2.6859
-5.8247 9.5210 2.6859
-5.8720 9.4059 2.6859
-5.9177 9.2906 2.6859
-5.9617 9.1752 2.6859
-6.0041 9.0597 2.6859
-6.0448 8.9441 2.6859
-6.0839 8.8285 2.6859
-6.1214 8.7129 2.6859
-6.1572 8.5974 2.6859
-6.1915 8.4820 2.6859
-6.2243 8.3667 2.6859
-6.2555 8.2515 2.6859
-6.2852 8.1366 2.6859
-6.3135 8.0219 2.6859
-6.3402 7.9075 2.6859
-6.3655 7.7933 2.6859
-6.3894 7.6795 2.6859
-6.4118 7.5661 2.6859
-6.4526 7.3404 2.6859
-6.4329 7.4530 2.6859
-6.4709 7.2282 2.6859
-6.5433 6.6745 2.6859
-6.4880 7.1164 2.6859
-6.5541 6.5653 2.6859
-6.5037 7.0052 2.6859
-6.5636 6.4568 2.6859
-6.5181 6.8944 2.6859
-6.5720 6.3489 2.6859
-6.5792 6.2416 2.6859
-6.5313 6.7842 2.6859
-6.5854 6.1350 2.6859
-6.5904 6.0290 2.6859
-6.5985 5.4074 2.6859
-6.5964 5.3063 2.6859
-6.5943 5.9236 2.6859
-6.5933 5.2059 2.6859
-6.5972 5.8190 2.6859
-6.5894 5.1063 2.6859
-6.5990 5.7150 2.6859
-6.5845 5.0075 2.6859
-6.5788 4.9094 2.6859
-6.5998 5.6117 2.6859
-6.5722 4.8121 2.6859
-6.5997 5.5092 2.6859
-6.5648 4.7156 2.6859
-6.5565 4.6199 2.6859
-6.5475 4.5249 2.6859
-6.5376 4.4308 2.6859
-6.5270 4.3374 2.6859
-6.5157 4.2449 2.6859
-6.5037 4.1531 2.6859
5.1619 7.0610 2.6859
5.1291 7.1494 2.6859
5.0951 7.2377 2.6859
5.0598 7.3259 2.6859
5.0233 7.4139 2.6859
4.9856 7.5017 2.6859
4.9466 7.5893 2.6859
4.9063 7.6767 2.6859
4.8648 7.7638 2.6859
4.8220 7.8506 2.6859
4.7852 7.9492 2.6900
4.7730 8.0916 2.7089
4.7689 8.2523 2.7334
4.7645 8.4176 2.7592
4.7600 8.5877 2.7861
4.7552 8.7629 2.8143
4.7409 8.9261 2.8383
4.6848 9.0139 2.8383
4.6273 9.1011 2.8383
4.5683 9.1876 2.8383
4.5080 9.2734 2.8383
4.4464 9.3585 2.8383
4.3833 9.4427 2.8383
4.3189 9.5260 2.8383
4.2532 9.6085 2.8383
4.1860 9.6900 2.8383
4.1176 9.7706 2.8383
4.0477 9.8501 2.8383
3.9766 9.9286 2.8383
3.9041 10.0060 2.8383
3.8303 10.0823 2.8383
3.7552 10.1574 2.8383
3.6788 10.2312 2.8383
3.6012 10.3038 2.8383
3.5222 10.3751 2.8383
3.4421 10.4450 2.8383
3.3607 10.5136 2.8383
3.2781 10.5807 2.8383
3.1943 10.6464 2.8383
3.1094 10.7105 2.8383
3.0233 10.7732 2.8383
2.9360 10.8342 2.8383
2.8477 10.8936 2.8383
2.7583 10.9513 2.8383
2.6679 11.0074 2.8383
2.5765 11.0617 2.8383
2.4840 11.1142 2.8383
2.3906 11.1650 2.8383
2.2963 11.2139 2.8383
2.2010 11.2609 2.8383
2.1049 11.3061 2.8383
2.0080 11.3493 2.8383
1.9103 11.3905 2.8383
1.8118 11.4297 2.8383
1.7126 11.4670 2.8383
1.6126 11.5021 2.8383
1.5121 11.5353 2.8383
1.4109 11.5663 2.8383
1.3091 11.5952 2.8383
1.2068 11.6220 2.8383
1.1040 11.6466 2.8383
1.0008 11.6691 2.8383
0.8971 11.6894 2.8383
0.7931 11.7074 2.8383
0.6887 11.7233 2.8383
0.5841 11.7369 2.8383
0.4792 11.7483 2.8383
0.3741 11.7574 2.8383
0.2688 11.7643 2.8383
0.1635 11.7690 2.8383
0.0580 11.7713 2.8383
-0.0474 11.7714 2.8383
-0.1529 11.7693 2.8383
-0.2582 11.7649 2.8383
-0.3635 11.7582 2.8383
-0.4686 11.7493 2.8383
-0.5735 11.7381 2.8383
-0.6782 11.7247 2.8383
-0.7826 11.7091 2.8383
-0.8867 11.6913 2.8383
-0.9904 11.6712 2.8383
-1.0937 11.6490 2.8383
-1.1965 11.6246 2.8383
-1.2988 11.5980 2.8383
-1.4007 11.5693 2.8383
-1.5019 11.5385 2.8383
-1.6025 11.5056 2.8383
-1.7025 11.4706 2.8383
-1.8018 11.4336 2.8383
-1.9004 11.3945 2.8383
-1.9982 11.3535 2.8383
-2.0952 11.3105 2.8383
-2.1914 11.2655 2.8383
-2.2867 11.2187 2.8383
-2.3812 11.1700 2.8383
-2.4747 11.1194 2.8383
-2.5672 11.0671 2.8383
-3.1007 10.7169 2.8383
-3.5933 10.3111 2.8383
-3.1858 10.6529 2.8383
-2.6588 11.0129 2.8383
-3.6711 10.2386 2.8383
-3.2697 10.5874 2.8383
-2.7493 10.9570 2.8383
-3.7476 10.1649 2.8383
-3.3524 10.5204 2.8383
-3.8228 10.0899 2.8383
-2.8388 10.8995 2.8383
-3.4339 10.4520 2.8383
-3.8967 10.0138 2.8383
-3.5142 10.3822 2.8383
-2.9272 10.8403 2.8383
-3.9693 9.9364 2.8383
-4.0406 9.8581 2.8383
-3.0145 10.7794 2.8383
-4.4401 9.3670 2.8383
-4.1106 9.7786 2.8383
-4.7903 8.8465 2.8383
-4.5019 9.2820 2.8383
-5.0910 8.3052 2.8383
-4.1792 9.6982 2.8383
-4.8438 8.7576 2.8383
-4.5623 9.1963 2.8383
-4.2465 9.6167 2.8383
-4.8960 8.6680 2.8383
-5.1363 8.2136 2.8383
-4.3124 9.5344 2.8383
-4.6214 9.1099 2.8383
-4.9468 8.5780 2.8383
-5.1803 8.1215 2.8383
-4.3769 9.4511 2.8383
-4.6791 9.0227 2.8383
-4.9962 8.4875 2.8383
-5.3431 7.7509 2.8383
-5.2230 8.0292 2.8383
-4.7354 8.9349 2.8383
-5.0443 8.3966 2.8383
-5.3805 7.6578 2.8383
-5.6977 6.6178 2.8328
-5.2643 7.9365 2.8383
-5.5482 7.1906 2.8383
-5.4165 7.5645 2.8383
-5.6997 6.5014 2.8226
-5.3044 7.8439 2.8383
-5.4514 7.4711 2.8383
-5.5780 7.0971 2.8383
-5.7015 6.3874 2.8130
-5.4849 7.3777 2.8383
-5.6065 7.0036 2.8383
-5.7033 6.2755 2.8040
-5.7081 5.9516 2.7802
-5.5172 7.2841 2.8383
-5.7050 6.1655 2.7955
-5.6339 6.9102 2.8383
-5.7096 5.8473 2.7733
-5.7154 5.3515 2.7461
-5.7198 4.8052 2.7277
-5.7066 6.0576 2.7876
-5.6600 6.8168 2.8383
-5.7203 4.7187 2.7261
-5.7109 5.7448 2.7669
-5.7163 5.2570 2.7420
-5.6850 6.7236 2.8383
-5.7208 4.6334 2.7248
-5.7121 5.6441 2.7610
-5.7171 5.1639 2.7383
-5.7211 4.5492 2.7238
-5.7133 5.5450 2.7556
-5.7214 4.4661 2.7233
-5.7179 5.0723 2.7351
-5.7217 4.3841 2.7230
-5.7144 5.4475 2.7506
-5.7186 4.9820 2.7322
-5.7219 4.3031 2.7232
-5.7193 4.8930 2.7298
-5.7220 4.2231 2.7236
-5.7221 4.1442 2.7244
-5.7221 4.0661 2.7256
-5.7220 3.9890 2.7270
-5.7219 3.9128 2.7288
-5.7218 3.8375 2.7309
-5.7216 3.7630 2.7333
