ply
format ascii 1.0
element vertex 2049
property float32 x
property float32 y
property float32 z
end_header
-5.9109 -24.8640 2.6859
-5.7908 -25.4834 2.7635
-4.7906 -25.7986 2.8360
-5.6526 -26.0741 2.8380
-4.5108 -25.7170 2.8353
-5.3612 -25.9769 2.8373
-4.2343 -25.6405 2.8347
-5.0740 -25.8852 2.8367
-3.9610 -25.5687 2.8340
-3.1577 -25.3811 2.8321
-2.8948 -25.3275 2.8315
-3.6906 -25.5016 2.8334
-2.6339 -25.2783 2.8309
-3.4229 -25.4391 2.8328
-2.3749 -25.2333 2.8303
-2.1177 -25.1925 2.8297
-1.6076 -25.1234 2.8285
-1.8620 -25.1559 2.8291
-1.3544 -25.0949 2.8279
-1.1022 -25.0704 2.8273
-0.8508 -25.0499 2.8267
-0.6001 -25.0333 2.8261
-0.3500 -25.0207 2.8255
-0.1001 -25.0119 2.8249
0.1496 -25.0071 2.8243
0.3993 -25.0062 2.8237
0.6492 -25.0091 2.8232
0.8994 -25.0160 2.8226
1.1501 -25.0267 2.8220
1.4014 -25.0414 2.8214
1.6535 -25.0601 2.8208
1.9066 -25.0827 2.8202
-28.5937 4.1051 -5.1159
-31.6981 4.2365 -5.5705
-28.9292 3.5804 -4.9927
-32.3819 3.6885 -5.4871
-32.4807 3.3805 -5.4029
-32.0930 3.0255 -5.2393
-32.6787 2.7611 -5.2347
-28.8088 2.1530 -4.5271
-32.8778 2.1368 -5.0670
-33.0787 1.8282 -4.9985
-48.2558 2.1986 -7.1477
-48.2493 1.7305 -7.0034
-49.1582 1.2871 -6.9901
-43.5200 -13.9876 -1.9608
-42.3357 -14.0580 -1.7923
-40.9379 -14.0328 -1.6217
-39.7469 -14.0536 -1.4661
-38.6156 -14.0735 -1.3189
-37.5395 -14.0923 -1.1794
-36.5202 -14.1125 -1.0471
-36.0267 -14.3223 -0.9339
-36.0346 -14.7292 -0.8347
-36.0425 -15.1395 -0.7352
-36.0505 -15.5535 -0.6353
-36.0581 -15.9711 -0.5351
-36.0652 -16.3923 -0.4344
-36.0724 -16.8174 -0.3333
-36.0797 -17.2468 -0.2318
-36.0870 -17.6804 -0.1298
-36.0944 -18.1184 -0.0272
-36.1019 -18.5611 0.0758
-36.1095 -19.0085 0.1795
-36.1171 -19.4608 0.2837
-21.6573 -11.9413 0.2330
-21.6583 -12.2166 0.2962
-21.6593 -12.4951 0.3598
-21.6604 -12.7769 0.4238
-21.5755 -13.0102 0.4863
-21.5766 -13.2977 0.5509
-21.5796 -13.5900 0.6161
-21.6627 -13.9377 0.6843
-21.6638 -14.2376 0.7507
-21.6650 -14.5415 0.8177
-21.6661 -14.8496 0.8852
-21.6673 -15.1620 0.9533
-21.6685 -15.4788 1.0220
-21.6697 -15.8003 1.0914
-21.6709 -16.1265 1.1614
-21.6721 -16.4578 1.2322
-7.4740 -5.7914 0.4496
-7.3889 -5.8416 0.4690
-21.6759 -17.4831 1.4490
-21.6772 -17.8361 1.5229
-7.2195 -6.0594 0.5321
-7.1734 -6.1411 0.5537
-21.6933 -18.9420 1.7509
-6.8286 -6.0813 0.5756
-6.6925 -6.0785 0.5883
-6.5595 -6.0759 0.6007
-6.4293 -6.0734 0.6127
-6.8794 -6.6274 0.6816
-21.7021 -21.3215 2.2332
-21.7037 -21.7456 2.3178
-21.7053 -22.1784 2.4036
-21.7070 -22.6204 2.4909
-21.7087 -23.0718 2.5796
-21.8404 -23.6741 2.6859
-20.4264 -23.0352 2.6859
-21.1162 -23.3459 2.6859
-19.7689 -22.7410 2.6859
-17.8450 -22.6985 2.8383
-19.7273 -23.1502 2.7682
-17.3083 -22.4695 2.8383
-19.5928 -23.4571 2.8383
-16.7921 -22.2512 2.8383
-18.9855 -23.1914 2.8383
-16.2951 -22.0429 2.8383
-15.8160 -21.8441 2.8383
-18.4035 -22.9389 2.8383
-15.3537 -21.6542 2.8383
-14.9073 -21.4725 2.8383
-12.5124 -20.5345 2.8383
-14.4758 -21.2989 2.8383
-12.1538 -20.4001 2.8383
-14.0582 -21.1326 2.8383
-11.8050 -20.2711 2.8383
-13.6538 -20.9734 2.8383
-11.4657 -20.1473 2.8383
-13.2618 -20.8209 2.8383
-11.1352 -20.0284 2.8383
-12.8816 -20.6747 2.8383
-10.8131 -19.9142 2.8383
-10.4990 -19.8046 2.8383
-8.2909 -18.1985 2.6859
-10.1926 -19.6992 2.8383
-8.0370 -18.1199 2.6859
-7.7881 -18.0445 2.6859
-9.8933 -19.5980 2.8383
-7.5441 -17.9720 2.6859
-7.1489 -14.5205 2.1135
-7.3046 -17.9023 2.6859
-7.0695 -17.8354 2.6859
-8.8148 -18.3652 2.6859
-6.8384 -17.7712 2.6859
-8.5500 -18.2802 2.6859
-6.6113 -17.7095 2.6859
-5.7658 -18.1847 2.8011
-6.3880 -17.6503 2.6859
-5.6228 -18.3735 2.8380
-6.1682 -17.5935 2.6859
-5.4059 -18.3218 2.8375
-5.9519 -17.5390 2.6859
-5.1918 -18.2723 2.8370
-5.7803 -17.6134 2.7054
-4.9805 -18.2249 2.8365
-4.5655 -18.1363 2.8355
-4.7718 -18.1796 2.8360
-4.3616 -18.0951 2.8350
-3.3728 -17.9169 2.8327
-4.1599 -18.0557 2.8345
-3.1804 -17.8866 2.8322
-3.9603 -18.0183 2.8341
-2.9896 -17.8581 2.8318
-3.7626 -17.9827 2.8336
-2.8002 -17.8312 2.8313
-3.5668 -17.9489 2.8332
-2.6122 -17.8060 2.8309
-2.2397 -17.7603 2.8300
-2.4254 -17.7823 2.8304
-2.0552 -17.7399 2.8296
-1.1454 -17.6608 2.8274
-1.8716 -17.7210 2.8291
-0.9655 -17.6495 2.8269
-1.6889 -17.7037 2.8287
-0.7860 -17.6397 2.8265
-1.5070 -17.6879 2.8282
-0.6070 -17.6314 2.8261
-1.3259 -17.6736 2.8278
-0.4282 -17.6245 2.8257
-0.0714 -17.6151 2.8248
-0.2497 -17.6191 2.8252
0.1068 -17.6126 2.8244
0.2851 -17.6115 2.8240
0.4634 -17.6119 2.8235
0.6418 -17.6137 2.8231
0.8205 -17.6170 2.8227
0.9995 -17.6217 2.8222
1.1789 -17.6279 2.8218
1.3587 -17.6356 2.8214
-30.1385 4.4359 -3.9146
-32.6489 4.4818 -4.1403
-40.9454 5.2162 -5.0672
-32.9356 3.8714 -3.9759
-33.0405 3.5591 -3.8887
-32.4626 3.1788 -3.7231
-40.5859 3.5775 -4.5334
-40.4983 3.1747 -4.4031
-40.4115 2.7744 -4.2741
-40.3794 2.3797 -4.1516
-48.8828 2.4064 -4.8825
-48.3603 1.9118 -4.6890
-48.9547 1.4613 -4.6042
-47.8610 0.9656 -4.3626
-48.7148 0.5118 -4.2997
-49.5753 0.0418 -4.2330
-49.2813 -0.4346 -4.0665
-48.9914 -0.9054 -3.9025
-49.1388 -1.3829 -3.7741
-49.4610 -1.8700 -3.6582
-48.5810 -2.3065 -3.4553
-48.8688 -2.7932 -3.3374
-44.9713 -9.6530 -1.0537
-41.7316 -9.3797 -0.8607
-38.9183 -9.1428 -0.6933
-38.3782 -9.4077 -0.5756
-38.3852 -9.8031 -0.4675
-38.3921 -10.2007 -0.3591
-38.3714 -10.5929 -0.2503
-38.3784 -10.9949 -0.1414
-38.3855 -11.3993 -0.0322
-38.3926 -11.8062 0.0773
-38.4276 -12.2248 0.1874
-21.5600 -8.2645 0.4802
-38.4348 -12.6375 0.2978
-21.6439 -8.5380 0.5457
-21.6404 -7.3481 0.2300
-21.6413 -7.5826 0.2926
-21.6448 -8.7816 0.6097
-21.6457 -9.0272 0.6741
-21.5574 -7.7882 0.3541
-21.5583 -8.0253 0.4170
-21.6467 -9.2750 0.7388
-21.6485 -9.7772 0.8694
-21.6476 -9.5250 0.8039
-21.6495 -10.0317 0.9352
-21.6504 -10.2888 1.0015
-21.6543 -11.3429 1.2714
-21.6514 -10.5483 1.0683
-21.6553 -11.6134 1.3401
-21.6563 -11.8869 1.4094
-21.6523 -10.8104 1.1355
-21.6533 -11.0752 1.2032
-21.6573 -12.1635 1.4792
-21.6584 -12.4434 1.5497
-21.5817 -12.9658 1.6863
-21.6594 -12.7265 1.6208
-21.5756 -13.2505 1.7579
-21.5787 -13.5444 1.8309
-21.6652 -14.8108 2.1378
-21.6618 -13.8936 1.9117
-21.6663 -15.1252 2.2149
-21.6629 -14.1952 1.9862
-21.6675 -15.4441 2.2928
-21.6640 -14.5009 2.0616
-21.6687 -15.7677 2.3717
-22.2686 -17.2299 2.6861
-21.6699 -16.0962 2.4515
-21.5835 -17.0416 2.6859
-21.6712 -16.4298 2.5323
-20.9323 -16.8644 2.6859
-19.6621 -17.1617 2.8383
-20.3111 -16.6963 2.6859
-19.1113 -17.0161 2.8383
-7.1909 -6.0307 0.9795
-18.5826 -16.8773 2.8383
-7.1444 -6.1128 1.0021
-18.0746 -16.7448 2.8383
-17.5859 -16.6183 2.8383
-16.6619 -16.3815 2.8383
-17.1154 -16.4973 2.8383
-16.2245 -16.2707 2.8383
-15.8021 -16.1645 2.8383
-14.2466 -15.7813 2.8383
-15.3939 -16.0627 2.8383
-13.8876 -15.6947 2.8383
-14.9990 -15.9650 2.8383
-13.5393 -15.6116 2.8383
-14.6168 -15.8713 2.8383
-13.2012 -15.5316 2.8383
-12.2424 -15.3092 2.8383
-12.8726 -15.4546 2.8383
-11.9399 -15.2404 2.8383
-12.5532 -15.3805 2.8383
-11.6451 -15.1742 2.8383
-10.5371 -14.9321 2.8383
-11.3578 -15.1103 2.8383
-10.2762 -14.8768 2.8383
-11.0776 -15.0488 2.8383
-10.0211 -14.8234 2.8383
-10.8041 -14.9894 2.8383
-9.7716 -14.7719 2.8383
-8.5681 -13.8423 2.6859
-9.0159 -13.9317 2.6859
-8.3510 -13.7999 2.6859
-8.7897 -13.8862 2.6859
-8.1380 -13.7590 2.6859
-7.3248 -13.6086 2.6859
-7.9291 -13.7194 2.6859
-7.1303 -13.5741 2.6859
-7.7240 -13.6812 2.6859
-6.9391 -13.5408 2.6859
-7.5226 -13.6443 2.6859
-6.7511 -13.5087 2.6859
-6.2042 -13.4187 2.6859
-6.5660 -13.4776 2.6859
-6.0273 -13.3907 2.6859
-6.3837 -13.4476 2.6859
-5.8529 -13.3638 2.6859
-5.7663 -13.5382 2.7263
-5.4711 -14.0145 2.8377
-5.7542 -13.8995 2.8043
-5.2978 -13.9887 2.8372
-5.6466 -14.0412 2.8381
-5.1266 -13.9638 2.8368
-4.4612 -13.8730 2.8352
-4.9574 -13.9398 2.8364
-4.2992 -13.8523 2.8349
-4.7902 -13.9167 2.8360
-4.1389 -13.8324 2.8345
-4.6248 -13.8944 2.8356
-3.9802 -13.8133 2.8341
-3.5124 -13.7605 2.8330
-3.8229 -13.7950 2.8337
-3.3591 -13.7444 2.8326
-3.6670 -13.7774 2.8333
-3.2070 -13.7289 2.8322
-2.6096 -13.6739 2.8308
-3.0560 -13.7142 2.8319
-2.9062 -13.7001 2.8315
-2.4626 -13.6618 2.8305
-2.7575 -13.6867 2.8312
-2.3166 -13.6503 2.8301
-2.1713 -13.6394 2.8298
-0.7535 -5.8947 1.2251
-0.8776 -5.9014 1.2251
-0.6919 -5.8918 1.2251
-0.8154 -5.8979 1.2251
-0.6305 -5.8891 1.2251
-0.3866 -5.8809 1.2251
-0.5692 -5.8867 1.2251
-0.3260 -5.8795 1.2251
-0.5082 -5.8845 1.2251
-0.2655 -5.8783 1.2251
-0.4473 -5.8826 1.2251
-0.2051 -5.8774 1.2251
-0.0241 -5.8760 1.2251
-0.1447 -5.8767 1.2251
0.0361 -5.8760 1.2251
-0.0844 -5.8762 1.2251
0.0964 -5.8763 1.2251
0.1567 -5.8768 1.2251
0.2171 -5.8775 1.2251
0.2775 -5.8785 1.2251
0.3380 -5.8798 1.2251
0.3987 -5.8812 1.2251
0.4594 -5.8830 1.2251
-39.6493 6.7634 -3.4652
-39.5664 6.3549 -3.3389
-30.1695 4.5459 -2.4555
-39.4029 5.5471 -3.0895
-39.3221 5.1476 -2.9664
-39.2421 4.7509 -2.8443
-38.8279 4.3196 -2.6999
-39.1675 3.9739 -2.6086
-39.1742 3.5918 -2.4944
-39.1809 3.2103 -2.3806
-39.2279 2.8324 -2.2695
-41.5713 2.5976 -2.2846
-49.8852 2.1496 -2.4536
-49.4411 0.6955 -2.0060
-48.6349 0.2142 -1.8342
-49.2972 -0.2592 -1.7184
-49.7568 -0.7424 -1.5926
-49.8304 -1.2250 -1.4530
-49.6510 -2.1810 -1.1652
-21.6255 -3.4863 0.2318
-21.6263 -3.7012 0.2940
-21.6271 -3.9170 0.3562
-21.6279 -4.1335 0.4186
-21.6287 -4.3510 0.4812
-21.6295 -4.5693 0.5440
-21.6303 -4.7886 0.6069
-21.6311 -5.0089 0.6701
-21.6320 -5.2303 0.7335
-21.6328 -5.4528 0.7971
-21.6336 -5.6765 0.8610
-21.6344 -5.9014 0.9251
-21.6353 -6.1276 0.9895
-21.6361 -6.3551 1.0543
-21.6369 -6.5840 1.1193
-21.6378 -6.8144 1.1847
-21.6386 -7.0463 1.2504
-21.6395 -7.2798 1.3165
-21.6404 -7.5149 1.3829
-21.5589 -7.7223 1.4443
-21.5573 -7.9591 1.5111
-21.5591 -8.1990 1.5786
-21.6430 -8.4729 1.6529
-21.6439 -8.7173 1.7215
-21.6448 -8.9637 1.7907
-21.6457 -9.2123 1.8603
-21.6466 -9.4631 1.9305
-21.6476 -9.7162 2.0013
-21.6485 -9.9717 2.0726
-21.6495 -10.2297 2.1445
-21.6504 -10.4902 2.2170
-21.6514 -10.7534 2.2902
-21.6524 -11.0193 2.3641
-21.6534 -11.2881 2.4387
-21.6544 -11.5598 2.5140
-21.6554 -11.8345 2.5900
-21.8111 -12.1990 2.6859
-21.1951 -12.1291 2.6859
-20.6068 -12.0626 2.6859
-20.0443 -11.9993 2.6859
-19.7089 -12.0634 2.7139
-19.6963 -12.3237 2.7858
-19.5441 -12.4979 2.8383
-19.0415 -12.4426 2.8383
-18.5584 -12.3898 2.8383
-18.0935 -12.3392 2.8383
-17.6456 -12.2907 2.8383
-17.2137 -12.2443 2.8383
-16.7970 -12.1998 2.8383
-16.3946 -12.1571 2.8383
-16.0055 -12.1161 2.8383
-15.6292 -12.0766 2.8383
-15.2649 -12.0388 2.8383
-14.9119 -12.0023 2.8383
-14.5697 -11.9672 2.8383
-7.1869 -6.0238 1.4327
-7.1414 -6.1076 1.4566
-7.0959 -6.1920 1.4807
-13.2979 -11.8394 2.8383
-13.0018 -11.8102 2.8383
-12.7137 -11.7820 2.8383
-12.4330 -11.7548 2.8383
-12.1596 -11.7286 2.8383
-11.8930 -11.7032 2.8383
-11.6329 -11.6787 2.8383
-11.3791 -11.6550 2.8383
-11.1312 -11.6321 2.8383
-10.8890 -11.6099 2.8383
-10.6523 -11.5884 2.8383
-10.4208 -11.5677 2.8383
-10.1943 -11.5476 2.8383
-9.9726 -11.5281 2.8383
-9.7554 -11.5093 2.8383
-9.0303 -10.8740 2.6859
-8.8329 -10.8573 2.6859
-8.6394 -10.8411 2.6859
-8.4496 -10.8253 2.6859
-8.2633 -10.8101 2.6859
-8.0803 -10.7953 2.6859
-7.9006 -10.7810 2.6859
-7.7241 -10.7671 2.6859
-7.5505 -10.7537 2.6859
-7.3799 -10.7406 2.6859
-7.2120 -10.7279 2.6859
-7.0467 -10.7157 2.6859
-6.8841 -10.7038 2.6859
-6.7239 -10.6922 2.6859
-6.5661 -10.6810 2.6859
-6.4106 -10.6702 2.6859
-6.2573 -10.6597 2.6859
-6.1061 -10.6494 2.6859
-5.9570 -10.6395 2.6859
-5.8098 -10.6300 2.6859
-5.7586 -10.7970 2.7305
-5.7482 -11.0483 2.7964
-5.6846 -11.2046 2.8383
-5.5367 -11.1957 2.8383
-5.3905 -11.1870 2.8383
-5.2459 -11.1786 2.8383
-5.1029 -11.1705 2.8383
-4.9615 -11.1627 2.8383
-4.8216 -11.1551 2.8383
-4.6830 -11.1478 2.8383
-4.5459 -11.1407 2.8383
-4.4100 -11.1339 2.8383
-4.2754 -11.1273 2.8383
-4.1420 -11.1209 2.8383
-4.0098 -11.1147 2.8383
-3.8787 -11.1088 2.8383
-3.7487 -11.1031 2.8383
-3.6197 -11.0976 2.8383
-3.4917 -11.0923 2.8383
-3.3647 -11.0873 2.8383
-3.2385 -11.0824 2.8383
-3.1133 -11.0777 2.8383
-2.9888 -11.0733 2.8383
-2.8651 -11.0690 2.8383
-2.7422 -11.0649 2.8383
-2.6200 -11.0610 2.8383
-2.4984 -11.0573 2.8383
-2.3776 -11.0538 2.8383
-2.2573 -11.0504 2.8383
-0.9228 -4.7692 1.2253
-0.8714 -4.7680 1.2253
-0.8202 -4.7667 1.2253
-0.7691 -4.7656 1.2253
-0.7183 -4.7645 1.2253
-0.6677 -4.7636 1.2253
-0.6172 -4.7626 1.2253
-0.5669 -4.7618 1.2253
-0.5167 -4.7610 1.2253
-0.4666 -4.7603 1.2253
-0.4167 -4.7597 1.2253
-0.3669 -4.7592 1.2253
-0.3171 -4.7587 1.2253
-0.2674 -4.7583 1.2253
-0.2178 -4.7579 1.2253
-0.1683 -4.7576 1.2253
-0.1188 -4.7575 1.2253
-0.0693 -4.7573 1.2253
-0.0198 -4.7573 1.2253
0.0297 -4.7573 1.2253
0.0791 -4.7573 1.2253
0.1286 -4.7575 1.2253
0.1781 -4.7577 1.2253
0.2277 -4.7580 1.2253
0.2773 -4.7583 1.2253
0.3270 -4.7588 1.2253
0.3768 -4.7593 1.2253
-39.1111 7.1961 -1.6411
-39.2703 6.8330 -1.5328
-39.2772 6.4431 -1.4185
-30.2009 4.6545 -1.0029
-30.5042 4.3996 -0.9245
-39.2975 5.2803 -1.0773
-39.3043 4.8947 -0.9640
-37.9219 4.3506 -0.8209
-39.3177 4.1260 -0.7381
-39.1718 3.7282 -0.6230
-39.1785 3.3471 -0.5108
-39.1852 2.9665 -0.3988
-39.4641 2.6043 -0.2888
-48.9240 2.7540 -0.2184
-49.1722 2.2916 -0.0792
-49.2307 1.8178 0.0611
-49.2125 1.3411 0.2014
-21.6039 -0.0376 0.2732
-21.6046 -0.2464 0.3349
-21.6054 -0.4552 0.3966
-21.6062 -0.6642 0.4583
-21.6069 -0.8733 0.5202
-21.6077 -1.0826 0.5821
-21.6085 -1.2921 0.6441
-21.6093 -1.5020 0.7062
-21.6100 -1.7122 0.7685
-21.6108 -1.9227 0.8309
-21.6116 -2.1337 0.8934
-21.6123 -2.3451 0.9561
-21.5376 -2.5481 1.0154
-21.5301 -2.7587 1.0779
-21.5309 -2.9710 1.1409
-21.6238 -3.1975 1.2093
-21.6246 -3.4120 1.2731
-21.6254 -3.6272 1.3371
-21.6262 -3.8432 1.4013
-21.6270 -4.0600 1.4658
-21.6278 -4.2777 1.5307
-21.6286 -4.4964 1.5958
-21.6294 -4.7160 1.6612
-21.6302 -4.9366 1.7270
-21.6310 -5.1584 1.7931
-21.6318 -5.3813 1.8596
-21.6326 -5.6053 1.9265
-21.6335 -5.8306 1.9938
-21.6343 -6.0573 2.0615
-21.6351 -6.2853 2.1296
-21.6360 -6.5147 2.1982
-21.6368 -6.7456 2.2673
-21.6377 -6.9780 2.3368
-21.6385 -7.2121 2.4069
-21.6394 -7.4478 2.4775
-21.6403 -7.6853 2.5486
-22.1844 -8.1234 2.6861
-21.5883 -8.1454 2.6859
-21.0201 -8.1668 2.6859
-20.4764 -8.1871 2.6859
-19.9557 -8.2065 2.6859
-19.6983 -8.3273 2.7193
-19.6865 -8.5508 2.7863
-19.5672 -8.7282 2.8383
-19.0992 -8.7453 2.8383
-18.6487 -8.7617 2.8383
-18.2145 -8.7773 2.8383
-17.7959 -8.7924 2.8383
-17.3917 -8.8068 2.8383
-17.0014 -8.8207 2.8383
-16.6240 -8.8340 2.8383
-16.2589 -8.8469 2.8383
-15.9054 -8.8592 2.8383
-15.5630 -8.8711 2.8383
-15.2309 -8.8825 2.8383
-14.9088 -8.8935 2.8383
-14.5961 -8.9042 2.8383
-14.2923 -8.9144 2.8383
-13.9970 -8.9244 2.8383
-13.7098 -8.9339 2.8383
-13.4304 -8.9432 2.8383
-13.1582 -8.9521 2.8383
-12.8931 -8.9607 2.8383
-12.6347 -8.9691 2.8383
-12.3827 -8.9772 2.8383
-12.1369 -8.9850 2.8383
-11.8968 -8.9926 2.8383
-11.6624 -8.9999 2.8383
-11.4333 -9.0070 2.8383
-11.2094 -9.0139 2.8383
-10.9904 -9.0206 2.8383
-7.1887 -6.0219 1.8934
-7.1426 -6.1063 1.9186
-7.0964 -6.1913 1.9440
-10.1597 -9.0454 2.8383
-9.9625 -9.0511 2.8383
-9.7691 -9.0567 2.8383
-9.0651 -8.5755 2.6859
-8.8890 -8.5805 2.6859
-8.7161 -8.5854 2.6859
-8.5464 -8.5901 2.6859
-8.3797 -8.5946 2.6859
-8.2158 -8.5991 2.6859
-8.0548 -8.6034 2.6859
-7.8965 -8.6076 2.6859
-7.7407 -8.6116 2.6859
-7.5875 -8.6156 2.6859
-7.4366 -8.6195 2.6859
-7.2881 -8.6232 2.6859
-7.1418 -8.6268 2.6859
-6.9977 -8.6304 2.6859
-6.8557 -8.6338 2.6859
-6.7157 -8.6372 2.6859
-6.5777 -8.6404 2.6859
-6.4416 -8.6436 2.6859
-6.3072 -8.6467 2.6859
-6.1747 -8.6497 2.6859
-6.0438 -8.6526 2.6859
-5.9145 -8.6554 2.6859
-5.7869 -8.6582 2.6859
-5.7536 -8.8028 2.7299
-5.7445 -8.9895 2.7870
-5.7201 -9.1577 2.8383
-5.5914 -9.1603 2.8383
-5.4640 -9.1628 2.8383
-5.3381 -9.1653 2.8383
-5.2135 -9.1676 2.8383
-5.0901 -9.1700 2.8383
-4.9680 -9.1722 2.8383
-4.8471 -9.1744 2.8383
-4.7273 -9.1765 2.8383
-4.6086 -9.1786 2.8383
-4.4910 -9.1806 2.8383
-4.3745 -9.1825 2.8383
-4.2589 -9.1844 2.8383
-4.1443 -9.1862 2.8383
-4.0307 -9.1880 2.8383
-3.9179 -9.1897 2.8383
-3.8061 -9.1913 2.8383
-3.6950 -9.1929 2.8383
-3.5848 -9.1945 2.8383
-3.4753 -9.1960 2.8383
-3.3666 -9.1974 2.8383
-3.2586 -9.1988 2.8383
-3.1513 -9.2001 2.8383
-3.0447 -9.2015 2.8383
-2.9387 -9.2027 2.8383
-2.8333 -9.2039 2.8383
-2.7285 -9.2051 2.8383
-2.6242 -9.2062 2.8383
-2.5206 -9.2072 2.8383
-2.4174 -9.2082 2.8383
-2.3147 -9.2092 2.8383
-2.2124 -9.2101 2.8383
-0.9113 -3.9770 1.2255
-0.8675 -3.9774 1.2255
-0.8240 -3.9777 1.2255
-0.7805 -3.9780 1.2255
-0.7373 -3.9784 1.2255
-0.6941 -3.9787 1.2255
-0.6511 -3.9789 1.2255
-0.6083 -3.9792 1.2255
-0.5655 -3.9794 1.2255
-0.5229 -3.9796 1.2255
-0.4804 -3.9798 1.2255
-0.4379 -3.9800 1.2255
-0.3956 -3.9802 1.2255
-0.3533 -3.9803 1.2255
-0.3111 -3.9805 1.2255
-0.2689 -3.9806 1.2255
-0.2268 -3.9807 1.2255
-0.1848 -3.9808 1.2255
-0.1427 -3.9808 1.2255
-0.1007 -3.9809 1.2255
-0.0588 -3.9809 1.2255
-0.0168 -3.9809 1.2255
0.0252 -3.9809 1.2255
0.0671 -3.9809 1.2255
0.1091 -3.9809 1.2255
0.1511 -3.9808 1.2255
0.1931 -3.9807 1.2255
0.2352 -3.9806 1.2255
0.2773 -3.9806 1.2255
0.3195 -3.9804 1.2255
-39.1020 7.7194 0.1379
-39.1088 7.3290 0.2491
-39.1156 6.9399 0.3602
-21.5937 3.6164 0.2601
-21.5944 3.4025 0.3212
-21.5952 3.1892 0.3823
-21.5960 2.9766 0.4434
-21.5092 2.7533 0.5023
-21.5099 2.5426 0.5631
-21.5107 2.3324 0.6239
-21.5873 2.1301 0.6870
-21.5960 1.9206 0.7483
-21.5968 1.7107 0.8094
-21.5976 1.5011 0.8705
-21.5983 1.2918 0.9317
-21.5991 1.0826 0.9929
-21.5999 0.8737 1.0542
-21.6006 0.6648 1.1157
-21.6014 0.4561 1.1772
-21.6022 0.2474 1.2388
-21.6029 0.0387 1.3006
-21.6037 -0.1701 1.3625
-21.6045 -0.3789 1.4246
-21.6052 -0.5879 1.4869
-21.6060 -0.7970 1.5493
-21.6068 -1.0064 1.6120
-21.6075 -1.2160 1.6748
-21.6083 -1.4259 1.7379
-21.6091 -1.6361 1.8012
-21.6098 -1.8467 1.8648
-21.6106 -2.0578 1.9286
-21.6114 -2.2694 1.9927
-21.5873 -2.4786 2.0547
-21.5291 -2.6836 2.1136
-21.5299 -2.8960 2.1783
-21.5307 -3.1091 2.2435
-21.6236 -3.3371 2.3188
-21.6244 -3.5525 2.3849
-21.6252 -3.7687 2.4514
-21.6260 -3.9858 2.5183
-21.6268 -4.2038 2.5856
-21.8937 -4.4771 2.6859
-21.3459 -4.5820 2.6859
-20.8216 -4.6820 2.6859
-20.3190 -4.7775 2.6859
-19.8368 -4.8688 2.6859
-19.6880 -5.0362 2.7295
-19.6769 -5.2385 2.7921
-19.5494 -5.4096 2.8383
-19.1132 -5.4905 2.8383
-18.6927 -5.5681 2.8383
-18.2870 -5.6426 2.8383
-17.8952 -5.7142 2.8383
-17.5166 -5.7830 2.8383
-17.1505 -5.8492 2.8383
-16.7961 -5.9129 2.8383
-16.4529 -5.9742 2.8383
-16.1203 -6.0333 2.8383
-15.7978 -6.0903 2.8383
-15.4848 -6.1453 2.8383
-15.1809 -6.1984 2.8383
-14.8856 -6.2496 2.8383
-14.5985 -6.2991 2.8383
-14.3193 -6.3470 2.8383
-14.0475 -6.3932 2.8383
-13.7829 -6.4380 2.8383
-13.5251 -6.4813 2.8383
-13.2738 -6.5231 2.8383
-13.0287 -6.5638 2.8383
-12.7895 -6.6032 2.8383
-12.5561 -6.6413 2.8383
-12.3281 -6.6782 2.8383
-12.1054 -6.7141 2.8383
-11.8877 -6.7489 2.8383
-11.6747 -6.7826 2.8383
-11.4664 -6.8154 2.8383
-11.2626 -6.8472 2.8383
-11.0630 -6.8780 2.8383
-10.8675 -6.9080 2.8383
-10.6759 -6.9372 2.8383
-10.4881 -6.9655 2.8383
-10.3040 -6.9931 2.8383
-10.1234 -7.0199 2.8383
-9.9462 -7.0459 2.8383
-9.7722 -7.0713 2.8383
-9.0859 -6.7149 2.6859
-8.9271 -6.7376 2.6859
-8.7711 -6.7597 2.6859
-8.6178 -6.7812 2.6859
-8.4670 -6.8021 2.6859
-7.2367 -5.9351 2.3366
-7.1905 -6.0199 2.3631
-7.1439 -6.1051 2.3897
-7.0972 -6.1907 2.4166
-7.0503 -6.2770 2.4438
-7.6119 -6.9168 2.6859
-7.4769 -6.9342 2.6859
-7.3438 -6.9512 2.6859
-7.2127 -6.9677 2.6859
-7.0834 -6.9839 2.6859
-6.9558 -6.9996 2.6859
-6.8300 -7.0149 2.6859
-6.7059 -7.0298 2.6859
-6.5833 -7.0444 2.6859
-6.4624 -7.0586 2.6859
-6.3429 -7.0724 2.6859
-6.2249 -7.0859 2.6859
-6.1084 -7.0990 2.6859
-5.9932 -7.1118 2.6859
-5.8793 -7.1243 2.6859
-5.7668 -7.1365 2.6859
-5.7495 -7.2672 2.7306
-5.7415 -7.4132 2.7809
-5.7333 -7.5627 2.8326
-5.6311 -7.5897 2.8383
-5.5184 -7.6011 2.8383
-5.4068 -7.6121 2.8383
-5.2963 -7.6228 2.8383
-5.1869 -7.6333 2.8383
-5.0785 -7.6435 2.8383
-4.9712 -7.6534 2.8383
-4.8648 -7.6631 2.8383
-4.7593 -7.6725 2.8383
-4.6548 -7.6817 2.8383
-4.5512 -7.6906 2.8383
-4.4484 -7.6993 2.8383
-4.3464 -7.7078 2.8383
-4.2453 -7.7160 2.8383
-4.1449 -7.7240 2.8383
-4.0453 -7.7318 2.8383
-3.9464 -7.7393 2.8383
-3.8482 -7.7467 2.8383
-3.7507 -7.7538 2.8383
-3.6539 -7.7607 2.8383
-3.5577 -7.7674 2.8383
-3.4622 -7.7739 2.8383
-3.3672 -7.7802 2.8383
-3.2729 -7.7863 2.8383
-3.1790 -7.7923 2.8383
-3.0858 -7.7980 2.8383
-2.9930 -7.8035 2.8383
-2.9008 -7.8089 2.8383
-2.8090 -7.8141 2.8383
-2.7177 -7.8191 2.8383
-2.6269 -7.8239 2.8383
-2.5365 -7.8285 2.8383
-2.4465 -7.8330 2.8383
-2.3569 -7.8373 2.8383
-2.2677 -7.8414 2.8383
-2.1788 -7.8454 2.8383
-2.0903 -7.8492 2.8383
-0.8944 -3.5078 1.2679
-0.8547 -3.5078 1.2673
-0.8153 -3.5078 1.2668
-0.7761 -3.5078 1.2663
-0.7370 -3.5078 1.2658
-0.6981 -3.5078 1.2653
-0.6593 -3.5078 1.2649
-0.6207 -3.5078 1.2645
-0.5822 -3.5078 1.2641
-0.5438 -3.5078 1.2638
-0.5055 -3.5078 1.2634
-0.4674 -3.5078 1.2631
-0.4293 -3.5078 1.2628
-0.3914 -3.5078 1.2626
-0.3535 -3.5078 1.2623
-0.3157 -3.5078 1.2621
-0.2780 -3.5078 1.2620
-0.2403 -3.5078 1.2618
-0.2027 -3.5078 1.2617
-0.1651 -3.5078 1.2615
-0.1275 -3.5078 1.2614
-0.0900 -3.5078 1.2614
-0.0525 -3.5078 1.2613
-0.0150 -3.5078 1.2613
0.0225 -3.5078 1.2613
0.0600 -3.5078 1.2613
0.0975 -3.5078 1.2614
0.1350 -3.5078 1.2615
0.1726 -3.5078 1.2616
0.2102 -3.5078 1.2617
0.2478 -3.5078 1.2618
0.2855 -3.5078 1.2620
-21.5895 4.5535 1.0635
-21.5903 4.3369 1.1231
-21.5911 4.1210 1.1827
-21.5919 3.9060 1.2424
-21.5927 3.6917 1.3021
-21.5935 3.4781 1.3618
-21.5943 3.2651 1.4216
-21.5951 3.0527 1.4814
-21.5958 2.8408 1.5414
-21.5090 2.6188 1.5949
-21.5098 2.4088 1.6548
-21.5144 2.1995 1.7152
-21.5951 1.9976 1.7820
-21.5958 1.7879 1.8425
-21.5966 1.5785 1.9032
-21.5974 1.3692 1.9641
-21.5981 1.1602 2.0252
-21.5989 0.9513 2.0864
-21.5997 0.7426 2.1479
-21.6004 0.5339 2.2096
-21.6012 0.3253 2.2715
-21.6020 0.1166 2.3336
-21.6027 -0.0921 2.3960
-21.6035 -0.3010 2.4587
-21.6043 -0.5099 2.5217
-21.6050 -0.7191 2.5850
-21.9110 -0.9415 2.6860
-21.3953 -1.1269 2.6859
-20.9011 -1.3040 2.6859
-20.4267 -1.4731 2.6859
-19.9709 -1.6349 2.6859
-19.6839 -1.8037 2.7067
-19.6736 -1.9954 2.7651
-19.6632 -2.1873 2.8237
-19.3508 -2.3430 2.8383
-18.9509 -2.4816 2.8383
-18.5647 -2.6148 2.8383
-18.1914 -2.7429 2.8383
-17.8303 -2.8662 2.8383
-17.4808 -2.9849 2.8383
-17.1422 -3.0992 2.8383
-16.8140 -3.2095 2.8383
-16.4957 -3.3158 2.8383
-16.1868 -3.4184 2.8383
-15.8868 -3.5174 2.8383
-15.5953 -3.6131 2.8383
-15.3119 -3.7056 2.8383
-15.0363 -3.7950 2.8383
-14.7679 -3.8816 2.8383
-14.5067 -3.9653 2.8383
-14.2521 -4.0464 2.8383
-14.0040 -4.1249 2.8383
-13.7621 -4.2009 2.8383
-13.5260 -4.2747 2.8383
-13.2956 -4.3462 2.8383
-13.0705 -4.4155 2.8383
-12.8507 -4.4828 2.8383
-12.6358 -4.5481 2.8383
-12.4257 -4.6115 2.8383
-12.2202 -4.6731 2.8383
-12.0191 -4.7329 2.8383
-11.8222 -4.7911 2.8383
-11.6294 -4.8476 2.8383
-11.4405 -4.9025 2.8383
-11.2554 -4.9560 2.8383
-11.0739 -5.0079 2.8383
-10.8960 -5.0585 2.8383
-10.7214 -5.1078 2.8383
-10.5500 -5.1557 2.8383
-10.3818 -5.2024 2.8383
-10.2167 -5.2478 2.8383
-10.0545 -5.2920 2.8383
-9.8951 -5.3352 2.8383
-9.7384 -5.3773 2.8383
-9.0697 -5.1272 2.6859
-8.9264 -5.1650 2.6859
-8.7854 -5.2018 2.6859
-8.6466 -5.2377 2.6859
-8.5101 -5.2728 2.6859
-8.3756 -5.3069 2.6859
-8.2432 -5.3403 2.6859
-8.1128 -5.3728 2.6859
-7.9843 -5.4045 2.6859
-7.8576 -5.4354 2.6859
-7.7328 -5.4656 2.6859
-7.6097 -5.4951 2.6859
-7.4883 -5.5239 2.6859
-7.3685 -5.5520 2.6859
-7.2504 -5.5794 2.6859
-7.1337 -5.6062 2.6859
-7.0186 -5.6323 2.6859
-6.9050 -5.6579 2.6859
-6.7927 -5.6828 2.6859
-6.6818 -5.7072 2.6859
-6.5723 -5.7310 2.6859
-6.4640 -5.7542 2.6859
-6.3570 -5.7769 2.6859
-6.2513 -5.7991 2.6859
-6.1467 -5.8207 2.6859
-6.0432 -5.8419 2.6859
-5.9409 -5.8625 2.6859
-5.8396 -5.8827 2.6859
-5.7525 -5.9158 2.6920
-5.7454 -6.0321 2.7360
-5.7382 -6.1507 2.7810
-5.7309 -6.2718 2.8270
-5.6522 -6.3160 2.8383
-5.5514 -6.3345 2.8383
-5.4516 -6.3526 2.8383
-5.3528 -6.3703 2.8383
-5.2548 -6.3875 2.8383
-5.1576 -6.4044 2.8383
-5.0614 -6.4208 2.8383
-4.9659 -6.4369 2.8383
-4.8712 -6.4525 2.8383
-4.7773 -6.4678 2.8383
-4.6842 -6.4828 2.8383
-4.5918 -6.4973 2.8383
-4.5001 -6.5116 2.8383
-4.4090 -6.5254 2.8383
-4.3187 -6.5389 2.8383
-4.2290 -6.5521 2.8383
-4.1399 -6.5650 2.8383
-4.0515 -6.5775 2.8383
-3.9637 -6.5897 2.8383
-3.8764 -6.6016 2.8383
-3.7897 -6.6132 2.8383
-3.7035 -6.6245 2.8383
-3.6179 -6.6355 2.8383
-3.5328 -6.6462 2.8383
-3.4482 -6.6566 2.8383
-3.3641 -6.6667 2.8383
-3.2805 -6.6765 2.8383
-3.1973 -6.6861 2.8383
-3.1145 -6.6953 2.8383
-3.0322 -6.7044 2.8383
-2.9503 -6.7131 2.8383
-2.8688 -6.7216 2.8383
-2.7877 -6.7298 2.8383
-2.7069 -6.7377 2.8383
-2.6265 -6.7455 2.8383
-2.5465 -6.7529 2.8383
-2.4668 -6.7601 2.8383
-2.3875 -6.7671 2.8383
-2.3084 -6.7738 2.8383
-2.2297 -6.7802 2.8383
-2.1512 -6.7865 2.8383
-2.0730 -6.7925 2.8383
-1.9951 -6.7983 2.8383
-1.9175 -6.8038 2.8383
-1.8401 -6.8091 2.8383
-0.9075 -3.5078 1.4611
-0.8673 -3.5078 1.4601
-0.8272 -3.5078 1.4591
-0.7874 -3.5078 1.4582
-0.7477 -3.5078 1.4573
-0.7082 -3.5078 1.4564
-0.6689 -3.5078 1.4556
-0.6297 -3.5078 1.4549
-0.5906 -3.5078 1.4542
-0.5517 -3.5078 1.4535
-0.5128 -3.5078 1.4529
-0.4741 -3.5078 1.4523
-0.4355 -3.5078 1.4518
-0.3970 -3.5078 1.4513
-0.3586 -3.5078 1.4509
-0.3202 -3.5078 1.4505
-0.2820 -3.5078 1.4502
-0.2437 -3.5078 1.4499
-0.2056 -3.5078 1.4496
-0.1675 -3.5078 1.4494
-0.1294 -3.5078 1.4492
-0.0913 -3.5078 1.4491
-0.0533 -3.5078 1.4490
-0.0152 -3.5078 1.4490
0.0228 -3.5078 1.4490
0.0608 -3.5078 1.4490
0.0989 -3.5078 1.4491
0.1369 -3.5078 1.4493
0.1750 -3.5078 1.4494
0.2132 -3.5078 1.4497
0.2513 -3.5078 1.4499
0.2896 -3.5078 1.4502
-21.5878 4.8474 2.0605
-21.5886 4.6303 2.1183
-21.5894 4.4140 2.1762
-21.5902 4.1985 2.2342
-21.5910 3.9837 2.2924
-21.5917 3.7697 2.3507
-21.5925 3.5564 2.4093
-21.5933 3.3436 2.4679
-21.5941 3.1315 2.5268
-21.5949 2.9199 2.5859
-21.9285 2.7505 2.6860
-21.4464 2.4808 2.6859
-20.9837 2.2228 2.6859
-20.5387 1.9760 2.6859
-20.1104 1.7395 2.6859
-19.6978 1.5129 2.6859
-19.6702 1.3205 2.7374
-19.6607 1.1295 2.7916
-19.5980 0.9363 2.8383
-19.2195 0.7325 2.8383
-18.8534 0.5365 2.8383
-18.4992 0.3477 2.8383
-18.1561 0.1659 2.8383
-17.8236 -0.0093 2.8383
-17.5012 -0.1782 2.8383
-17.1883 -0.3413 2.8383
-16.8846 -0.4987 2.8383
-16.5895 -0.6507 2.8383
-16.3026 -0.7977 2.8383
-16.0237 -0.9397 2.8383
-15.7522 -1.0771 2.8383
-15.4879 -1.2101 2.8383
-15.2305 -1.3388 2.8383
-14.9796 -1.4635 2.8383
-14.7350 -1.5843 2.8383
-14.4964 -1.7014 2.8383
-14.2636 -1.8149 2.8383
-14.0363 -1.9251 2.8383
-13.8142 -2.0319 2.8383
-13.5973 -2.1356 2.8383
-13.3852 -2.2364 2.8383
-13.1778 -2.3342 2.8383
-12.9749 -2.4293 2.8383
-12.7763 -2.5216 2.8383
-12.5819 -2.6115 2.8383
-12.3915 -2.6987 2.8383
-12.2049 -2.7837 2.8383
-12.0221 -2.8664 2.8383
-11.8429 -2.9468 2.8383
-11.6671 -3.0251 2.8383
-11.4947 -3.1014 2.8383
-11.3254 -3.1757 2.8383
-11.1593 -3.2480 2.8383
-10.9962 -3.3185 2.8383
-10.8360 -3.3872 2.8383
-10.6786 -3.4542 2.8383
-10.5239 -3.5194 2.8383
-10.3718 -3.5831 2.8383
-10.2222 -3.6452 2.8383
-10.0752 -3.7058 2.8383
-9.9304 -3.7649 2.8383
-9.7880 -3.8225 2.8383
-9.1298 -3.6706 2.6859
-8.9992 -3.7226 2.6859
-8.8706 -3.7734 2.6859
-8.7438 -3.8229 2.6859
-8.6190 -3.8714 2.6859
-8.4959 -3.9186 2.6859
-8.3746 -3.9649 2.6859
-8.2551 -4.0100 2.6859
-8.1371 -4.0541 2.6859
-8.0208 -4.0972 2.6859
-7.9060 -4.1393 2.6859
-7.7927 -4.1805 2.6859
-7.6809 -4.2207 2.6859
-7.5705 -4.2601 2.6859
-7.4616 -4.2986 2.6859
-7.3539 -4.3362 2.6859
-7.2476 -4.3729 2.6859
-7.1425 -4.4089 2.6859
-7.0387 -4.4441 2.6859
-6.9361 -4.4785 2.6859
-6.8347 -4.5122 2.6859
-6.7344 -4.5451 2.6859
-6.6352 -4.5773 2.6859
-6.5371 -4.6089 2.6859
-6.4401 -4.6397 2.6859
-6.3441 -4.6699 2.6859
-6.2491 -4.6994 2.6859
-6.1550 -4.7283 2.6859
-6.0619 -4.7565 2.6859
-5.9697 -4.7842 2.6859
-5.8785 -4.8112 2.6859
-5.7880 -4.8377 2.6859
-5.7471 -4.9051 2.7088
-5.7407 -5.0031 2.7486
-5.7342 -5.1028 2.7892
-5.7275 -5.2041 2.8306
-5.6519 -5.2434 2.8383
-5.5614 -5.2679 2.8383
-5.4717 -5.2920 2.8383
-5.3828 -5.3155 2.8383
-5.2946 -5.3385 2.8383
-5.2071 -5.3610 2.8383
-5.1203 -5.3830 2.8383
-5.0342 -5.4046 2.8383
-4.9487 -5.4257 2.8383
-4.8639 -5.4463 2.8383
-4.7798 -5.4664 2.8383
-4.6962 -5.4861 2.8383
-4.6132 -5.5054 2.8383
-4.5308 -5.5243 2.8383
-4.4490 -5.5427 2.8383
-4.3678 -5.5607 2.8383
-4.2870 -5.5783 2.8383
-4.2068 -5.5954 2.8383
-4.1272 -5.6123 2.8383
-4.0480 -5.6287 2.8383
-3.9693 -5.6447 2.8383
-3.8910 -5.6604 2.8383
-3.8133 -5.6756 2.8383
-3.7359 -5.6906 2.8383
-3.6591 -5.7051 2.8383
-3.5826 -5.7193 2.8383
-3.5066 -5.7332 2.8383
-3.4309 -5.7467 2.8383
-3.3557 -5.7598 2.8383
-3.2808 -5.7727 2.8383
-3.2063 -5.7852 2.8383
-3.1321 -5.7974 2.8383
-3.0583 -5.8092 2.8383
-2.9849 -5.8208 2.8383
-2.9118 -5.8320 2.8383
-2.8390 -5.8429 2.8383
-2.7665 -5.8535 2.8383
-2.6943 -5.8638 2.8383
-2.6224 -5.8738 2.8383
-2.5508 -5.8835 2.8383
-2.4794 -5.8930 2.8383
-2.4083 -5.9021 2.8383
-2.3375 -5.9109 2.8383
-2.2669 -5.9195 2.8383
-2.1966 -5.9278 2.8383
-2.1265 -5.9358 2.8383
-2.0566 -5.9435 2.8383
-1.9869 -5.9510 2.8383
-1.9175 -5.9582 2.8383
-1.8482 -5.9651 2.8383
-1.7792 -5.9717 2.8383
-1.7103 -5.9781 2.8383
-1.6416 -5.9843 2.8383
-0.9212 -3.5079 1.6622
-0.8803 -3.5079 1.6606
-0.8397 -3.5079 1.6591
-0.7992 -3.5079 1.6577
-0.7589 -3.5079 1.6564
-0.7188 -3.5079 1.6551
-0.6788 -3.5079 1.6539
-0.6390 -3.5079 1.6528
-0.5993 -3.5079 1.6518
-0.5598 -3.5079 1.6508
-0.5204 -3.5079 1.6499
-0.4811 -3.5079 1.6490
-0.4419 -3.5079 1.6482
-0.4029 -3.5079 1.6475
-0.3639 -3.5079 1.6469
-0.3249 -3.5079 1.6463
-0.2861 -3.5079 1.6458
-0.2473 -3.5079 1.6453
-0.2086 -3.5079 1.6449
-0.1699 -3.5079 1.6446
-0.1313 -3.5079 1.6444
-0.0926 -3.5079 1.6442
-0.0540 -3.5079 1.6441
-0.0155 -3.5079 1.6440
0.0231 -3.5079 1.6440
0.0617 -3.5079 1.6441
0.1003 -3.5079 1.6442
0.1389 -3.5079 1.6444
0.1776 -3.5079 1.6447
0.2163 -3.5079 1.6450
0.2550 -3.5079 1.6454
0.2938 -3.5079 1.6459
-19.6507 4.6844 2.7961
-19.5911 4.4723 2.8383
-19.2460 4.2000 2.8383
-18.9116 3.9377 2.8383
-18.5871 3.6848 2.8383
-18.2722 3.4407 2.8383
-17.9663 3.2052 2.8383
-17.6692 2.9777 2.8383
-17.3802 2.7579 2.8383
-17.0991 2.5454 2.8383
-16.8256 2.3399 2.8383
-16.5592 2.1411 2.8383
-16.2996 1.9486 2.8383
-16.0467 1.7622 2.8383
-15.8000 1.5816 2.8383
-15.5593 1.4065 2.8383
-15.3244 1.2368 2.8383
-15.0950 1.0723 2.8383
-14.8710 0.9125 2.8383
-14.6520 0.7576 2.8383
-14.4380 0.6070 2.8383
-14.2286 0.4609 2.8383
-14.0238 0.3188 2.8383
-13.8233 0.1808 2.8383
-13.6270 0.0466 2.8383
-13.4348 -0.0838 2.8383
-13.2465 -0.2108 2.8383
-13.0619 -0.3342 2.8383
-12.8810 -0.4544 2.8383
-12.7035 -0.5714 2.8383
-12.5294 -0.6854 2.8383
-12.3586 -0.7963 2.8383
-12.1909 -0.9044 2.8383
-12.0262 -1.0098 2.8383
-11.8645 -1.1125 2.8383
-11.7056 -1.2126 2.8383
-11.5495 -1.3102 2.8383
-11.3961 -1.4054 2.8383
-11.2452 -1.4982 2.8383
-11.0968 -1.5889 2.8383
-10.9508 -1.6773 2.8383
-10.8072 -1.7636 2.8383
-10.6658 -1.8479 2.8383
-10.5267 -1.9301 2.8383
-10.3896 -2.0105 2.8383
-10.2547 -2.0889 2.8383
-10.1217 -2.1656 2.8383
-9.9908 -2.2405 2.8383
-9.8616 -2.3137 2.8383
-9.7344 -2.3852 2.8383
-9.0930 -2.3233 2.6859
-8.9759 -2.3881 2.6859
-8.8604 -2.4513 2.6859
-8.7465 -2.5132 2.6859
-8.6341 -2.5737 2.6859
-8.5231 -2.6328 2.6859
-8.4136 -2.6907 2.6859
-8.3055 -2.7474 2.6859
-8.1987 -2.8028 2.6859
-8.0933 -2.8570 2.6859
-7.9891 -2.9101 2.6859
-7.8862 -2.9620 2.6859
-7.7844 -3.0129 2.6859
-7.6839 -3.0627 2.6859
-7.5846 -3.1114 2.6859
-7.4863 -3.1591 2.6859
-7.3892 -3.2058 2.6859
-7.2931 -3.2516 2.6859
-7.1981 -3.2964 2.6859
-7.1040 -3.3403 2.6859
-7.0110 -3.3833 2.6859
-6.9189 -3.4255 2.6859
-6.8278 -3.4667 2.6859
-6.7376 -3.5071 2.6859
-6.6483 -3.5467 2.6859
-6.5599 -3.5855 2.6859
-6.4723 -3.6236 2.6859
-6.3856 -3.6608 2.6859
-6.2997 -3.6974 2.6859
-6.2146 -3.7331 2.6859
-6.1302 -3.7681 2.6859
-6.0466 -3.8025 2.6859
-5.9638 -3.8362 2.6859
-5.8816 -3.8692 2.6859
-5.8002 -3.9015 2.6859
-5.7463 -3.9517 2.6985
-5.7406 -4.0354 2.7341
-5.7348 -4.1203 2.7704
-5.7289 -4.2064 2.8073
-5.7097 -4.2838 2.8383
-5.6278 -4.3141 2.8383
-5.5465 -4.3438 2.8383
-5.4658 -4.3729 2.8383
-5.3857 -4.4014 2.8383
-5.3063 -4.4293 2.8383
-5.2274 -4.4567 2.8383
-5.1490 -4.4835 2.8383
-5.0713 -4.5098 2.8383
-4.9940 -4.5356 2.8383
-4.9173 -4.5608 2.8383
-4.8411 -4.5855 2.8383
-4.7654 -4.6098 2.8383
-4.6902 -4.6335 2.8383
-4.6155 -4.6567 2.8383
-4.5412 -4.6795 2.8383
-4.4674 -4.7018 2.8383
-4.3941 -4.7236 2.8383
-4.3211 -4.7450 2.8383
-4.2486 -4.7659 2.8383
-4.1766 -4.7864 2.8383
-4.1049 -4.8065 2.8383
-4.0336 -4.8261 2.8383
-3.9628 -4.8453 2.8383
-3.8923 -4.8641 2.8383
-3.8221 -4.8825 2.8383
-3.7524 -4.9004 2.8383
-3.6829 -4.9180 2.8383
-3.6139 -4.9352 2.8383
-3.5451 -4.9520 2.8383
-3.4767 -4.9685 2.8383
-3.4086 -4.9845 2.8383
-3.3409 -5.0002 2.8383
-3.2734 -5.0155 2.8383
-3.2062 -5.0305 2.8383
-3.1393 -5.0451 2.8383
-3.0727 -5.0593 2.8383
-3.0064 -5.0732 2.8383
-2.9403 -5.0867 2.8383
-2.8745 -5.1000 2.8383
-2.8090 -5.1128 2.8383
-2.7437 -5.1254 2.8383
-2.6786 -5.1376 2.8383
-2.6138 -5.1495 2.8383
-2.5492 -5.1611 2.8383
-2.4848 -5.1723 2.8383
-2.4206 -5.1832 2.8383
-2.3567 -5.1939 2.8383
-2.2929 -5.2042 2.8383
-2.2294 -5.2142 2.8383
-2.1660 -5.2239 2.8383
-2.1028 -5.2333 2.8383
-2.0398 -5.2424 2.8383
-1.9769 -5.2513 2.8383
-1.9143 -5.2598 2.8383
-1.8518 -5.2680 2.8383
-1.7894 -5.2760 2.8383
-1.7272 -5.2836 2.8383
-1.6651 -5.2910 2.8383
-1.6032 -5.2981 2.8383
-1.5414 -5.3049 2.8383
-1.4797 -5.3115 2.8383
-1.4181 -5.3177 2.8383
-0.8940 -3.5079 1.8702
-0.8526 -3.5079 1.8682
-0.8115 -3.5079 1.8663
-0.7706 -3.5079 1.8645
-0.7298 -3.5079 1.8628
-0.6892 -3.5079 1.8612
-0.6488 -3.5079 1.8597
-0.6085 -3.5079 1.8582
-0.5683 -3.5079 1.8569
-0.5283 -3.5079 1.8557
-0.4884 -3.5079 1.8545
-0.4486 -3.5079 1.8535
-0.4090 -3.5079 1.8525
-0.3694 -3.5079 1.8516
-0.3299 -3.5079 1.8508
-0.2904 -3.5079 1.8501
-0.2511 -3.5079 1.8495
-0.2117 -3.5079 1.8490
-0.1725 -3.5079 1.8486
-0.1332 -3.5079 1.8482
-0.0940 -3.5079 1.8480
-0.0549 -3.5079 1.8478
-0.0157 -3.5079 1.8477
0.0235 -3.5079 1.8478
0.0626 -3.5079 1.8478
0.1018 -3.5079 1.8480
0.1410 -3.5079 1.8483
0.1803 -3.5079 1.8487
0.2196 -3.5079 1.8491
0.2589 -3.5079 1.8496
0.2983 -3.5079 1.8503
-14.9371 3.7710 2.8383
-14.7432 3.5729 2.8383
-14.5531 3.3802 2.8383
-14.3667 3.1927 2.8383
-14.1838 3.0103 2.8383
-14.0044 2.8328 2.8383
-13.8282 2.6599 2.8383
-13.6553 2.4916 2.8383
-13.4854 2.3276 2.8383
-13.3186 2.1679 2.8383
-13.1547 2.0121 2.8383
-12.9935 1.8604 2.8383
-12.8351 1.7125 2.8383
-12.6794 1.5682 2.8383
-12.5262 1.4274 2.8383
-12.3754 1.2901 2.8383
-12.2271 1.1562 2.8383
-12.0811 1.0254 2.8383
-11.9374 0.8978 2.8383
-11.7959 0.7732 2.8383
-11.6566 0.6515 2.8383
-11.5193 0.5327 2.8383
-11.3840 0.4165 2.8383
-11.2507 0.3031 2.8383
-11.1193 0.1922 2.8383
-10.9897 0.0839 2.8383
-10.8620 -0.0220 2.8383
-10.7360 -0.1255 2.8383
-10.6118 -0.2268 2.8383
-10.4892 -0.3258 2.8383
-10.3682 -0.4226 2.8383
-10.2488 -0.5174 2.8383
-10.1309 -0.6101 2.8383
-10.0145 -0.7007 2.8383
-9.8996 -0.7895 2.8383
-9.7861 -0.8764 2.8383
-9.1546 -0.9098 2.6859
-9.0498 -0.9886 2.6859
-8.9463 -1.0657 2.6859
-8.8439 -1.1412 2.6859
-8.7428 -1.2152 2.6859
-8.6428 -1.2876 2.6859
-8.5439 -1.3586 2.6859
-8.4462 -1.4281 2.6859
-8.3495 -1.4962 2.6859
-8.2539 -1.5629 2.6859
-8.1593 -1.6283 2.6859
-8.0658 -1.6924 2.6859
-7.9732 -1.7552 2.6859
-7.8815 -1.8167 2.6859
-7.7908 -1.8771 2.6859
-7.7010 -1.9363 2.6859
-7.6121 -1.9943 2.6859
-7.5241 -2.0511 2.6859
-7.4370 -2.1069 2.6859
-7.3506 -2.1616 2.6859
-7.2651 -2.2152 2.6859
-7.1804 -2.2678 2.6859
-7.0965 -2.3194 2.6859
-7.0133 -2.3700 2.6859
-6.9309 -2.4196 2.6859
-6.8492 -2.4683 2.6859
-6.7683 -2.5161 2.6859
-6.6880 -2.5630 2.6859
-6.6084 -2.6089 2.6859
-6.5295 -2.6541 2.6859
-6.4513 -2.6983 2.6859
-6.3737 -2.7418 2.6859
-6.2967 -2.7844 2.6859
-6.2204 -2.8262 2.6859
-6.1446 -2.8672 2.6859
-6.0695 -2.9076 2.6859
-5.9949 -2.9471 2.6859
-5.9209 -2.9859 2.6859
-5.8474 -3.0240 2.6859
-5.7745 -3.0613 2.6859
-5.7431 -3.1203 2.7052
-5.7379 -3.1940 2.7373
-5.7327 -3.2684 2.7699
-5.7274 -3.3437 2.8030
-5.7219 -3.4199 2.8367
-5.6513 -3.4571 2.8383
-5.5779 -3.4918 2.8383
-5.5051 -3.5258 2.8383
-5.4327 -3.5591 2.8383
-5.3608 -3.5919 2.8383
-5.2894 -3.6241 2.8383
-5.2184 -3.6556 2.8383
-5.1478 -3.6866 2.8383
-5.0777 -3.7170 2.8383
-5.0080 -3.7468 2.8383
-4.9387 -3.7760 2.8383
-4.8698 -3.8047 2.8383
-4.8013 -3.8329 2.8383
-4.7332 -3.8605 2.8383
-4.6655 -3.8876 2.8383
-4.5982 -3.9142 2.8383
-4.5312 -3.9403 2.8383
-4.4646 -3.9659 2.8383
-4.3983 -3.9910 2.8383
-4.3324 -4.0157 2.8383
-4.2668 -4.0398 2.8383
-4.2015 -4.0635 2.8383
-4.1366 -4.0867 2.8383
-4.0720 -4.1094 2.8383
-4.0077 -4.1317 2.8383
-3.9437 -4.1536 2.8383
-3.8800 -4.1751 2.8383
-3.8166 -4.1960 2.8383
-3.7534 -4.2166 2.8383
-3.6906 -4.2368 2.8383
-3.6280 -4.2565 2.8383
-3.5657 -4.2759 2.8383
-3.5036 -4.2948 2.8383
-3.4418 -4.3133 2.8383
-3.3803 -4.3315 2.8383
-3.3190 -4.3492 2.8383
-3.2579 -4.3666 2.8383
-3.1971 -4.3836 2.8383
-3.1365 -4.4002 2.8383
-3.0761 -4.4165 2.8383
-3.0159 -4.4323 2.8383
-2.9560 -4.4479 2.8383
-2.8962 -4.4631 2.8383
-2.8367 -4.4779 2.8383
-2.7773 -4.4924 2.8383
-2.7182 -4.5065 2.8383
-2.6592 -4.5203 2.8383
-2.6004 -4.5337 2.8383
-2.5418 -4.5469 2.8383
-2.4834 -4.5596 2.8383
-2.4251 -4.5721 2.8383
-2.3670 -4.5842 2.8383
-2.3091 -4.5960 2.8383
-2.2513 -4.6075 2.8383
-2.1937 -4.6187 2.8383
-2.1362 -4.6295 2.8383
-2.0788 -4.6401 2.8383
-2.0216 -4.6503 2.8383
-1.9646 -4.6603 2.8383
-1.9076 -4.6699 2.8383
-1.8508 -4.6792 2.8383
-1.7941 -4.6883 2.8383
-1.7376 -4.6970 2.8383
-1.6811 -4.7054 2.8383
-1.6248 -4.7136 2.8383
-1.5685 -4.7215 2.8383
-1.5124 -4.7290 2.8383
-1.4564 -4.7363 2.8383
-1.4004 -4.7433 2.8383
-1.3446 -4.7500 2.8383
-1.2888 -4.7564 2.8383
-0.9083 -3.5080 2.0906
-0.8663 -3.5080 2.0880
-0.8244 -3.5080 2.0856
-0.7828 -3.5079 2.0833
-0.7414 -3.5080 2.0811
-0.7001 -3.5080 2.0790
-0.6590 -3.5079 2.0770
-0.6181 -3.5080 2.0752
-0.5773 -3.5080 2.0735
-0.5367 -3.5080 2.0719
-0.4961 -3.5079 2.0704
-0.4557 -3.5080 2.0691
-0.4154 -3.5080 2.0678
-0.3752 -3.5080 2.0667
-0.3350 -3.5080 2.0657
-0.2950 -3.5080 2.0648
-0.2550 -3.5079 2.0640
-0.2150 -3.5080 2.0634
-0.1752 -3.5080 2.0628
-0.1353 -3.5080 2.0624
-0.0955 -3.5079 2.0620
-0.0557 -3.5080 2.0618
-0.0159 -3.5080 2.0617
0.0238 -3.5080 2.0617
0.0636 -3.5080 2.0619
0.1034 -3.5080 2.0621
0.1432 -3.5080 2.0625
0.1831 -3.5080 2.0629
0.2230 -3.5080 2.0635
0.2629 -3.5080 2.0642
0.3029 -3.5080 2.0650
-11.8824 3.1711 2.8383
-11.7638 3.0201 2.8383
-11.6465 2.8724 2.8383
-11.5305 2.7278 2.8383
-11.4158 2.5864 2.8383
-11.3024 2.4478 2.8383
-11.1902 2.3123 2.8383
-11.0793 2.1796 2.8383
-10.9695 2.0496 2.8383
-10.8609 1.9224 2.8383
-10.7534 1.7978 2.8383
-10.6471 1.6757 2.8383
-10.5418 1.5562 2.8383
-10.4376 1.4390 2.8383
-10.3345 1.3243 2.8383
-10.2324 1.2118 2.8383
-10.1313 1.1016 2.8383
-10.0312 0.9936 2.8383
-9.9321 0.8877 2.8383
-9.8340 0.7839 2.8383
-9.7367 0.6822 2.8383
-9.1228 0.5511 2.6859
-9.0325 0.4586 2.6859
-8.9431 0.3678 2.6859
-8.8545 0.2787 2.6859
-8.7667 0.1914 2.6859
-8.6797 0.1058 2.6859
-8.5934 0.0217 2.6859
-8.5079 -0.0607 2.6859
-8.4232 -0.1416 2.6859
-8.3392 -0.2210 2.6859
-8.2559 -0.2989 2.6859
-8.1734 -0.3753 2.6859
-8.0915 -0.4503 2.6859
-8.0103 -0.5239 2.6859
-7.9298 -0.5962 2.6859
-7.8499 -0.6671 2.6859
-7.7707 -0.7368 2.6859
-7.6922 -0.8052 2.6859
-7.6142 -0.8723 2.6859
-7.5369 -0.9382 2.6859
-7.4601 -1.0029 2.6859
-7.3840 -1.0665 2.6859
-7.3084 -1.1289 2.6859
-7.2334 -1.1902 2.6859
-7.1590 -1.2504 2.6859
-7.0851 -1.3096 2.6859
-7.0118 -1.3676 2.6859
-6.9389 -1.4247 2.6859
-6.8666 -1.4807 2.6859
-6.7949 -1.5358 2.6859
-6.7236 -1.5899 2.6859
-6.6528 -1.6430 2.6859
-6.5826 -1.6952 2.6859
-6.5127 -1.7466 2.6859
-6.4434 -1.7970 2.6859
-6.3745 -1.8465 2.6859
-6.3061 -1.8951 2.6859
-6.2381 -1.9430 2.6859
-6.1706 -1.9899 2.6859
-6.1035 -2.0361 2.6859
-6.0368 -2.0815 2.6859
-5.9706 -2.1261 2.6859
-5.9047 -2.1699 2.6859
-5.8393 -2.2130 2.6859
-5.7742 -2.2554 2.6859
-5.7417 -2.3099 2.7010
-5.7371 -2.3758 2.7296
-5.7325 -2.4424 2.7586
-5.7277 -2.5095 2.7881
-5.7229 -2.5771 2.8180
-5.6978 -2.6360 2.8383
-5.6318 -2.6756 2.8383
-5.5662 -2.7146 2.8383
-5.5009 -2.7528 2.8383
-5.4360 -2.7904 2.8383
-5.3714 -2.8274 2.8383
-5.3072 -2.8637 2.8383
-5.2433 -2.8994 2.8383
-5.1797 -2.9345 2.8383
-5.1165 -2.9690 2.8383
-5.0536 -3.0029 2.8383
-4.9910 -3.0361 2.8383
-4.9287 -3.0689 2.8383
-4.8666 -3.1010 2.8383
-4.8049 -3.1326 2.8383
-4.7435 -3.1636 2.8383
-4.6824 -3.1941 2.8383
-4.6216 -3.2240 2.8383
-4.5610 -3.2535 2.8383
-4.5007 -3.2824 2.8383
-4.4407 -3.3108 2.8383
-4.3809 -3.3386 2.8383
-4.3214 -3.3660 2.8383
-4.2621 -3.3929 2.8383
-4.2031 -3.4193 2.8383
-4.1444 -3.4453 2.8383
-4.0858 -3.4707 2.8383
-4.0276 -3.4957 2.8383
-3.9695 -3.5202 2.8383
-3.9117 -3.5444 2.8383
-3.8541 -3.5680 2.8383
-3.7967 -3.5912 2.8383
-3.7395 -3.6140 2.8383
-3.6826 -3.6363 2.8383
-3.6258 -3.6582 2.8383
-3.5693 -3.6797 2.8383
-3.5129 -3.7008 2.8383
-3.4568 -3.7215 2.8383
-3.4008 -3.7418 2.8383
-3.3450 -3.7616 2.8383
-3.2894 -3.7811 2.8383
-3.2340 -3.8002 2.8383
-3.1788 -3.8189 2.8383
-3.1237 -3.8372 2.8383
-3.0688 -3.8552 2.8383
-3.0141 -3.8728 2.8383
-2.9596 -3.8900 2.8383
-2.9052 -3.9068 2.8383
-2.8509 -3.9233 2.8383
-2.7968 -3.9394 2.8383
-2.7429 -3.9552 2.8383
-2.6891 -3.9707 2.8383
-2.6354 -3.9858 2.8383
-2.5819 -4.0005 2.8383
-2.5285 -4.0149 2.8383
-2.4753 -4.0289 2.8383
-2.4222 -4.0427 2.8383
-2.3692 -4.0561 2.8383
-2.3163 -4.0691 2.8383
-2.2636 -4.0819 2.8383
-2.2110 -4.0943 2.8383
-2.1584 -4.1064 2.8383
-2.1060 -4.1182 2.8383
-2.0538 -4.1297 2.8383
-2.0016 -4.1408 2.8383
-1.9495 -4.1517 2.8383
-1.8975 -4.1623 2.8383
-1.8456 -4.1725 2.8383
-1.7938 -4.1825 2.8383
-1.7422 -4.1921 2.8383
-1.6906 -4.2014 2.8383
-1.6390 -4.2105 2.8383
-1.5876 -4.2192 2.8383
-1.5362 -4.2277 2.8383
-1.4850 -4.2359 2.8383
-1.4338 -4.2438 2.8383
-1.3826 -4.2514 2.8383
-1.3316 -4.2587 2.8383
-1.2806 -4.2657 2.8383
-1.2297 -4.2725 2.8383
-1.0481 -3.8045 2.5236
-0.9234 -3.5080 2.3236
-0.8807 -3.5080 2.3204
-0.8381 -3.5080 2.3174
-0.7958 -3.5080 2.3145
-0.7536 -3.5080 2.3117
-0.7117 -3.5080 2.3092
-0.6699 -3.5080 2.3068
-0.6283 -3.5080 2.3045
-0.5868 -3.5080 2.3024
-0.5454 -3.5080 2.3004
-0.5042 -3.5080 2.2986
-0.4631 -3.5080 2.2969
-0.2591 -3.5080 2.2906
-0.4222 -3.5080 2.2953
-0.2185 -3.5080 2.2898
-0.1780 -3.5080 2.2891
-0.3813 -3.5080 2.2939
-0.1375 -3.5080 2.2886
-0.3405 -3.5080 2.2927
-0.0971 -3.5080 2.2882
-0.0566 -3.5080 2.2879
-0.2998 -3.5080 2.2916
-0.0162 -3.5080 2.2878
0.0242 -3.5080 2.2878
0.0647 -3.5080 2.2879
0.1051 -3.5080 2.2882
0.1456 -3.5080 2.2887
0.1861 -3.5080 2.2892
0.2266 -3.5080 2.2900
0.2672 -3.5080 2.2908
0.3079 -3.5080 2.2918
-9.8178 2.7657 2.8383
-9.7398 2.6446 2.8383
-9.1433 2.3901 2.6859
-9.0702 2.2795 2.6859
-8.9974 2.1709 2.6859
-8.9249 2.0642 2.6859
-8.8528 1.9593 2.6859
-8.7810 1.8563 2.6859
-8.7096 1.7550 2.6859
-8.6385 1.6555 2.6859
-8.5678 1.5577 2.6859
-8.4974 1.4616 2.6859
-8.4274 1.3671 2.6859
-8.3577 1.2742 2.6859
-8.2884 1.1829 2.6859
-8.2194 1.0932 2.6859
-8.1507 1.0050 2.6859
-8.0824 0.9183 2.6859
-8.0144 0.8331 2.6859
-7.9468 0.7493 2.6859
-7.8795 0.6669 2.6859
-7.8125 0.5859 2.6859
-7.7459 0.5062 2.6859
-7.6796 0.4278 2.6859
-7.6136 0.3508 2.6859
-7.5479 0.2750 2.6859
-7.4826 0.2005 2.6859
-7.4176 0.1272 2.6859
-7.3529 0.0551 2.6859
-7.2885 -0.0157 2.6859
-7.2245 -0.0855 2.6859
-7.1607 -0.1540 2.6859
-7.0973 -0.2215 2.6859
-7.0342 -0.2879 2.6859
-6.9713 -0.3532 2.6859
-6.9088 -0.4174 2.6859
-6.8466 -0.4806 2.6859
-6.7847 -0.5427 2.6859
-6.7230 -0.6038 2.6859
-6.6617 -0.6640 2.6859
-6.6007 -0.7232 2.6859
-6.5399 -0.7814 2.6859
-6.4794 -0.8387 2.6859
-6.4192 -0.8951 2.6859
-6.3593 -0.9506 2.6859
-6.2996 -1.0051 2.6859
-6.2403 -1.0589 2.6859
-6.1812 -1.1117 2.6859
-6.1223 -1.1637 2.6859
-6.0638 -1.2149 2.6859
-6.0055 -1.2653 2.6859
-5.9474 -1.3148 2.6859
-5.8896 -1.3636 2.6859
-5.8321 -1.4116 2.6859
-5.7748 -1.4588 2.6859
-5.7404 -1.5113 2.6966
-5.7364 -1.5717 2.7217
-5.7323 -1.6325 2.7472
-5.7281 -1.6936 2.7731
-5.7239 -1.7550 2.7993
-5.7196 -1.8169 2.8260
-5.6859 -1.8694 2.8383
-5.6274 -1.9133 2.8383
-5.5691 -1.9566 2.8383
-5.5110 -1.9991 2.8383
-5.4532 -2.0409 2.8383
-5.3956 -2.0821 2.8383
-5.3383 -2.1226 2.8383
-5.2812 -2.1625 2.8383
-5.2243 -2.2017 2.8383
-5.1676 -2.2403 2.8383
-5.1111 -2.2783 2.8383
-5.0549 -2.3157 2.8383
-4.9988 -2.3525 2.8383
-4.9430 -2.3887 2.8383
-4.8874 -2.4243 2.8383
-4.8320 -2.4593 2.8383
-4.7768 -2.4938 2.8383
-4.7217 -2.5277 2.8383
-4.6669 -2.5610 2.8383
-4.6123 -2.5939 2.8383
-4.5579 -2.6261 2.8383
-4.5036 -2.6579 2.8383
-4.4496 -2.6891 2.8383
-4.3957 -2.7198 2.8383
-4.3420 -2.7500 2.8383
-4.2885 -2.7797 2.8383
-4.2351 -2.8089 2.8383
-4.1819 -2.8377 2.8383
-4.1289 -2.8659 2.8383
-4.0761 -2.8937 2.8383
-4.0235 -2.9210 2.8383
-3.9709 -2.9478 2.8383
-3.9186 -2.9742 2.8383
-3.8664 -3.0001 2.8383
-3.8144 -3.0256 2.8383
-3.7625 -3.0506 2.8383
-3.7108 -3.0752 2.8383
-3.6592 -3.0994 2.8383
-3.6078 -3.1232 2.8383
-3.5565 -3.1465 2.8383
-3.5054 -3.1694 2.8383
-3.4544 -3.1919 2.8383
-3.4036 -3.2140 2.8383
-3.3528 -3.2357 2.8383
-3.3023 -3.2570 2.8383
-3.2518 -3.2779 2.8383
-3.2015 -3.2984 2.8383
-3.1513 -3.3186 2.8383
-3.1012 -3.3383 2.8383
-3.0512 -3.3577 2.8383
-3.0014 -3.3767 2.8383
-2.9517 -3.3953 2.8383
-2.9021 -3.4136 2.8383
-2.8526 -3.4315 2.8383
-2.8033 -3.4491 2.8383
-2.7540 -3.4662 2.8383
-2.7048 -3.4831 2.8383
-2.6558 -3.4996 2.8383
-2.6068 -3.5158 2.8383
-2.5580 -3.5316 2.8383
-2.5093 -3.5470 2.8383
-2.4606 -3.5622 2.8383
-2.4121 -3.5770 2.8383
-2.3636 -3.5914 2.8383
-2.3153 -3.6056 2.8383
-2.2670 -3.6194 2.8383
-2.2188 -3.6329 2.8383
-2.1707 -3.6461 2.8383
-2.1227 -3.6589 2.8383
-2.0747 -3.6715 2.8383
-2.0269 -3.6837 2.8383
-1.9791 -3.6957 2.8383
-1.9314 -3.7073 2.8383
-1.8838 -3.7186 2.8383
-1.8362 -3.7296 2.8383
-1.7887 -3.7403 2.8383
-1.7413 -3.7507 2.8383
-1.6940 -3.7608 2.8383
-1.6467 -3.7707 2.8383
-1.5995 -3.7802 2.8383
-1.5523 -3.7894 2.8383
-1.5052 -3.7984 2.8383
-1.4582 -3.8070 2.8383
-1.4112 -3.8154 2.8383
-1.3643 -3.8235 2.8383
-1.3174 -3.8313 2.8383
-1.2705 -3.8388 2.8383
-1.2238 -3.8460 2.8383
-1.1770 -3.8530 2.8383
-1.1303 -3.8596 2.8383
-1.0837 -3.8661 2.8383
-1.0371 -3.8722 2.8383
-0.8960 -3.5081 2.5675
-0.8527 -3.5081 2.5639
-0.8096 -3.5080 2.5604
-0.7667 -3.5081 2.5571
-0.7240 -3.5080 2.5539
-0.6814 -3.5080 2.5510
-0.6391 -3.5080 2.5482
-0.5969 -3.5081 2.5457
-0.5548 -3.5081 2.5433
-0.5129 -3.5080 2.5411
-0.4711 -3.5081 2.5390
-0.4294 -3.5080 2.5372
-0.3878 -3.5080 2.5355
-0.3463 -3.5081 2.5340
-0.3049 -3.5081 2.5326
-0.2635 -3.5081 2.5314
-0.2222 -3.5081 2.5304
-0.1810 -3.5081 2.5296
-0.1398 -3.5081 2.5289
-0.0987 -3.5080 2.5285
-0.0576 -3.5080 2.5281
-0.0165 -3.5080 2.5280
0.0246 -3.5081 2.5280
0.0658 -3.5081 2.5282
0.1069 -3.5081 2.5285
0.1480 -3.5081 2.5291
0.1892 -3.5080 2.5298
0.2305 -3.5080 2.5306
0.2717 -3.5080 2.5317
0.3131 -3.5080 2.5329
-7.8767 2.3396 2.6859
-7.8257 2.2446 2.6859
-7.7747 2.1510 2.6859
-7.7236 2.0588 2.6859
-7.6725 1.9680 2.6859
-7.6213 1.8785 2.6859
-7.5701 1.7903 2.6859
-7.5189 1.7034 2.6859
-7.4676 1.6178 2.6859
-7.4164 1.5334 2.6859
-7.3652 1.4503 2.6859
-7.3139 1.3684 2.6859
-7.2627 1.2877 2.6859
-7.2115 1.2082 2.6859
-7.1603 1.1299 2.6859
-7.1091 1.0526 2.6859
-7.0580 0.9766 2.6859
-7.0069 0.9016 2.6859
-6.9558 0.8278 2.6859
-6.9048 0.7550 2.6859
-6.8539 0.6832 2.6859
-6.8030 0.6126 2.6859
-6.7521 0.5429 2.6859
-6.7013 0.4743 2.6859
-6.6506 0.4067 2.6859
-6.5999 0.3400 2.6859
-6.5494 0.2744 2.6859
-6.4988 0.2097 2.6859
-6.4484 0.1459 2.6859
-6.3980 0.0830 2.6859
-6.3478 0.0211 2.6859
-6.2976 -0.0399 2.6859
-6.2475 -0.1000 2.6859
-6.1974 -0.1593 2.6859
-6.1475 -0.2177 2.6859
-6.0977 -0.2753 2.6859
-6.0479 -0.3320 2.6859
-5.9982 -0.3879 2.6859
-5.9487 -0.4430 2.6859
-5.8992 -0.4972 2.6859
-5.8499 -0.5508 2.6859
-5.8006 -0.6035 2.6859
-5.7514 -0.6554 2.6859
-5.7374 -0.7110 2.7024
-5.7339 -0.7678 2.7242
-5.7304 -0.8249 2.7462
-5.7268 -0.8821 2.7686
-5.7232 -0.9395 2.7913
-5.7195 -0.9971 2.8143
-5.7157 -1.0549 2.8376
-5.6661 -1.1040 2.8383
-5.6151 -1.1521 2.8383
-5.5643 -1.1995 2.8383
-5.5135 -1.2462 2.8383
-5.4629 -1.2922 2.8383
-5.4124 -1.3376 2.8383
-5.3620 -1.3823 2.8383
-5.3117 -1.4263 2.8383
-5.2615 -1.4697 2.8383
-5.2115 -1.5125 2.8383
-5.1615 -1.5545 2.8383
-5.1117 -1.5961 2.8383
-5.0620 -1.6370 2.8383
-5.0124 -1.6773 2.8383
-4.9629 -1.7169 2.8383
-4.9135 -1.7560 2.8383
-4.8643 -1.7946 2.8383
-4.8151 -1.8325 2.8383
-4.7661 -1.8699 2.8383
-4.7172 -1.9067 2.8383
-4.6683 -1.9429 2.8383
