ply
format ascii 1.0
element vertex 1957
property float32 x
property float32 y
property float32 z
end_header
6.5178 8.1287 -4.4505
6.5124 9.2757 -4.9790
6.5180 8.3076 -4.5325
6.5129 9.4900 -5.0788
6.5181 8.4917 -4.6171
6.5134 9.7114 -5.1821
6.5183 8.6812 -4.7044
6.5140 9.9403 -5.2891
6.5185 8.8764 -4.7945
6.5146 10.1770 -5.4001
6.5187 9.0775 -4.8877
6.5152 10.4222 -5.5152
6.5158 10.6762 -5.6348
6.5164 10.9396 -5.7591
17.3402 33.0338 -17.1870
6.5171 11.2131 -5.8884
6.5178 11.4972 -6.0230
6.5185 11.7927 -6.1633
6.9058 12.8178 -6.6838
-5.5184 13.2506 -6.7855
-6.0474 12.9107 -6.6596
-5.8795 13.2957 -6.8325
-6.2279 12.9295 -6.6823
-6.0363 13.2595 -6.8265
-6.5647 13.2597 -6.8669
-6.8590 12.4692 -6.5140
-6.7717 13.3139 -6.9093
-7.1405 12.6563 -6.6272
-6.4962 12.4378 -6.4685
-7.2526 12.5378 -6.5810
-6.8568 12.7900 -6.6664
-7.4449 11.6830 -6.1959
-7.2031 12.1491 -6.3927
-7.4115 11.3605 -6.0415
-7.4050 12.1893 -6.4302
-7.9722 11.9390 -6.3672
-8.0241 11.7433 -6.2811
-7.4307 11.9411 -6.3158
-7.3026 4.2234 -2.8593
-26.8930 12.7852 -9.4287
-26.9759 12.4949 -9.3293
-26.8096 13.0768 -9.5291
-26.8199 12.0983 -9.1495
-26.9609 10.8893 -8.7095
-26.9045 11.8143 -9.0539
-26.5458 10.4156 -8.4595
-26.9887 11.5313 -8.9593
-27.0725 11.2493 -8.8655
-27.3212 10.4078 -8.5889
-22.8300 8.4383 -7.0800
-22.8926 7.6963 -6.8151
-22.8956 8.2054 -7.0043
-22.8705 7.4381 -6.7162
-22.9145 7.9569 -6.9152
-22.8894 7.1950 -6.6306
-23.1349 7.0222 -6.6106
-23.5802 6.9042 -6.6462
-23.6138 6.6623 -6.5649
-23.2470 6.3126 -6.3747
-23.4363 6.1174 -6.3386
-23.6281 5.9203 -6.3028
6.5169 8.2780 -3.9402
6.5126 9.4404 -4.4222
6.5171 8.4591 -4.0150
6.5173 8.6454 -4.0920
6.5132 9.6574 -4.5129
6.5174 8.8371 -4.1715
6.5137 9.8816 -4.6068
6.5176 9.0346 -4.2536
6.5143 10.1134 -4.7040
6.5178 9.2382 -4.3383
6.5148 10.3532 -4.8048
6.5161 10.8588 -5.0178
6.5154 10.6015 -4.9093
6.5167 11.1257 -5.1306
6.5300 12.6452 -5.7764
6.5174 11.4027 -5.2478
6.5306 12.9842 -5.9209
6.5181 11.6906 -5.3698
6.5312 13.3383 -6.0722
6.5319 13.7085 -6.2305
6.5188 11.9900 -5.4969
6.5196 12.3017 -5.6295
17.5524 37.8755 -17.1870
-5.1997 12.6838 -5.7205
-5.4021 12.7850 -5.7741
-5.7643 13.2445 -5.9902
-5.9398 13.2576 -6.0050
-6.1170 13.2707 -6.0201
-6.2775 13.2444 -6.0177
-6.8767 12.7098 -5.8248
-6.4909 13.3248 -6.0641
-7.1378 12.8635 -5.9064
-6.7950 13.5788 -6.1900
-7.1130 12.5037 -5.7523
-7.1425 12.2510 -5.6473
-6.5219 12.6930 -5.7962
-7.1715 12.0061 -5.5458
-6.6983 12.7013 -5.8103
-7.7470 12.6629 -5.8615
-7.8902 12.5954 -5.8429
-7.4475 11.6138 -5.3995
-7.4140 11.2970 -5.2643
-8.0063 11.9233 -5.5692
-8.0432 11.7095 -5.4826
-7.2812 4.2305 -2.4145
-28.6092 11.6509 -7.6748
-23.0329 9.1153 -6.0851
-23.0991 8.8784 -6.0096
-23.1456 8.6348 -5.9296
-23.0248 8.3318 -5.8083
-22.9065 8.0344 -5.6895
-23.3654 7.9378 -5.7138
-23.2127 7.6319 -5.5885
-23.0631 7.3322 -5.4659
-23.8716 7.3317 -5.5690
-23.9496 7.0992 -5.4993
-25.0397 7.1559 -5.6587
-25.5149 7.0219 -5.6745
-25.5860 6.7726 -5.5993
6.5161 8.4256 -3.4362
6.5162 8.6087 -3.5038
6.5164 8.7971 -3.5734
6.5166 8.9911 -3.6451
6.5167 9.1909 -3.7192
6.5124 9.3904 -3.7930
6.5129 9.6032 -3.8720
6.5134 9.8229 -3.9538
6.5139 10.0499 -4.0383
6.5145 10.2845 -4.1259
6.5151 10.5273 -4.2166
6.5157 10.7787 -4.3106
6.5163 11.0393 -4.4082
6.5170 11.3095 -4.5095
6.5177 11.5901 -4.6148
6.5184 11.8817 -4.7243
6.5191 12.1849 -4.8384
6.5285 12.5173 -4.9640
6.5291 12.8464 -5.0880
6.5297 13.1897 -5.2176
6.5303 13.5483 -5.3530
6.5309 13.9233 -5.4948
6.5315 14.3160 -5.6435
6.5322 14.7277 -5.7994
6.5329 15.1598 -5.9633
6.5291 15.6034 -6.1315
6.9361 17.0818 -6.7059
-5.8935 12.9870 -5.1185
-5.2755 12.6795 -4.9816
-5.4766 12.7797 -5.0260
-6.1075 13.0895 -5.1646
-5.6825 12.8822 -5.0717
-5.5982 11.6747 -4.6117
-6.8237 12.8162 -5.0878
-6.3934 12.9803 -5.1335
-6.5366 12.9256 -5.1181
-6.9676 12.7613 -5.0728
-6.6246 12.7640 -5.0605
-7.2273 12.9127 -5.1400
-7.2584 11.7809 -4.7173
-7.2533 12.6459 -5.0409
-7.5154 11.9172 -4.7794
-7.2246 12.2954 -4.9084
-7.2248 11.1955 -4.4973
-8.1033 12.2737 -4.9386
-7.3054 12.1399 -4.8536
-8.1616 12.0860 -4.8715
-8.2189 11.9016 -4.8056
-7.2698 4.2416 -1.9855
-28.6904 13.4641 -6.7222
-28.7179 12.4524 -6.3853
-28.4896 13.0277 -6.5602
-27.8833 11.7652 -6.0912
-28.8114 12.8323 -6.5195
-28.9933 11.8984 -6.2222
-29.3180 11.6957 -6.1804
-28.8625 11.1862 -5.9759
-30.5342 11.4901 -6.2084
-31.3133 11.4335 -6.2517
-31.6773 11.2153 -6.2090
-25.5195 8.4759 -4.8190
-25.5918 8.2225 -4.7423
-26.5082 8.2317 -4.8194
-27.8000 8.3356 -4.9579
-27.0829 7.8330 -4.7370
-27.8614 7.7642 -4.7783
6.5153 8.5720 -2.9361
6.5154 8.7572 -2.9966
6.5155 8.9477 -3.0588
6.5157 9.1439 -3.1229
6.5121 9.3407 -3.1872
6.5126 9.5494 -3.2555
6.5131 9.7647 -3.3260
6.5136 9.9871 -3.3988
6.5142 10.2168 -3.4742
6.5148 10.4543 -3.5521
6.5154 10.7001 -3.6328
6.5160 10.9546 -3.7164
6.5166 11.2184 -3.8031
6.5173 11.4920 -3.8930
6.5179 11.7761 -3.9865
6.5186 12.0713 -4.0837
6.5271 12.3931 -4.1899
6.5277 12.7128 -4.2952
6.5282 13.0460 -4.4050
6.5287 13.3936 -4.5197
6.5293 13.7567 -4.6396
6.5299 14.1364 -4.7650
6.5305 14.5341 -4.8963
6.5312 14.9510 -5.0341
6.5280 15.3796 -5.1757
6.5287 15.8395 -5.3279
6.5295 16.3238 -5.4881
6.5303 16.8345 -5.6572
6.5312 17.3740 -5.8359
6.5321 17.9449 -6.0251
6.5289 18.5384 -6.2218
-6.9059 29.2980 -9.7992
-7.2374 29.3179 -9.8085
-7.5879 29.4035 -9.8400
-5.3506 12.6761 -4.2655
-5.5503 12.7751 -4.3010
-5.7549 12.8765 -4.3374
-5.9645 12.9804 -4.3748
-6.4947 13.7544 -4.6383
-5.7780 11.9137 -4.0198
-6.3763 12.8060 -4.3235
-6.5363 12.7921 -4.3215
-6.6975 12.7782 -4.3195
-6.8601 12.7642 -4.3175
-7.0573 12.8105 -4.3361
-7.0383 12.4682 -4.2232
-7.1750 12.4084 -4.2059
-7.5573 12.7627 -4.3292
-7.7341 12.7583 -4.3309
-7.8422 12.6401 -4.2941
-7.2124 11.3612 -3.8627
-7.1540 11.0164 -3.7485
-7.9684 11.9977 -4.0859
-8.4996 12.5158 -4.2660
-8.6104 12.4024 -4.2311
-8.7689 12.0920 -4.1329
-8.8794 11.9836 -4.0998
-7.2630 4.2543 -1.5672
-29.9634 14.1453 -5.3966
-31.0935 14.3068 -5.4840
-40.7718 11.9273 -5.0771
6.5144 8.7179 -2.4378
6.5146 8.9051 -2.4911
6.5147 9.0978 -2.5460
6.5118 9.2919 -2.6013
6.5123 9.4967 -2.6596
6.5128 9.7079 -2.7197
6.5134 9.9258 -2.7817
6.5139 10.1508 -2.8457
6.5144 10.3832 -2.9118
6.5150 10.6236 -2.9801
6.5156 10.8723 -3.0508
6.5162 11.1299 -3.1240
6.5169 11.3969 -3.1999
6.5175 11.6739 -3.2785
6.5182 11.9615 -3.3602
6.5189 12.2604 -3.4451
6.5263 12.5840 -3.5369
6.5268 12.9076 -3.6288
6.5273 13.2449 -3.7245
6.5278 13.5968 -3.8243
6.5284 13.9644 -3.9286
6.5289 14.3488 -4.0377
6.5296 14.7514 -4.1518
6.5302 15.1735 -4.2715
6.5276 15.6090 -4.3949
6.5283 16.0748 -4.5269
6.5291 16.5653 -4.6659
6.5299 17.0826 -4.8125
6.5307 17.6291 -4.9673
6.5316 18.2075 -5.1311
6.5292 18.8107 -5.3020
6.5304 19.4624 -5.4865
6.5317 20.1561 -5.6830
6.5330 20.8964 -5.8925
6.5370 21.6965 -6.1189
-5.8923 29.4999 -8.3282
-6.2758 29.8023 -8.4128
-6.5885 29.7491 -8.3970
-6.8286 29.3823 -8.2926
-7.2207 29.6675 -8.3722
-7.3824 29.0162 -8.1876
-7.5640 28.4882 -8.0376
-5.2241 12.9366 -3.6433
-5.3973 12.9780 -3.6543
-5.5730 13.0200 -3.6654
-5.7513 13.0626 -3.6766
-5.6853 12.5602 -3.5345
-5.8729 12.6270 -3.5525
-6.0641 12.6949 -3.5708
-5.7485 11.7227 -3.2966
-6.2394 12.3997 -3.4861
-6.7675 13.1122 -3.6856
-6.8168 12.8815 -3.6198
-6.9727 12.8554 -3.6115
-7.1351 12.8390 -3.6059
-7.2148 12.6751 -3.5589
-7.2687 12.4711 -3.5006
-7.3253 12.2777 -3.4454
-7.5727 12.4025 -3.4793
-7.1943 11.5167 -3.2298
-7.1421 11.1777 -3.1337
-8.2649 12.6486 -3.5450
-8.3032 12.4289 -3.4822
-8.4136 12.3207 -3.4507
-8.5236 12.2130 -3.4193
-8.6331 12.1057 -3.3880
-8.7421 11.9989 -3.3568
-7.2564 4.2665 -1.1562
-39.7863 14.7737 -3.8435
-39.6979 14.3033 -3.7077
-39.6106 13.8384 -3.5735
-39.5242 13.3789 -3.4408
-39.4388 12.9246 -3.3096
-39.3542 12.4753 -3.1798
-39.2706 12.0309 -3.0513
6.5136 8.8639 -1.9390
6.5137 9.0532 -1.9853
6.5138 9.2480 -2.0328
6.5121 9.4458 -2.0810
6.5126 9.6530 -2.1314
6.5131 9.8666 -2.1833
6.5136 10.0870 -2.2367
6.5141 10.3146 -2.2918
6.5147 10.5498 -2.3487
6.5153 10.7930 -2.4075
6.5159 11.0447 -2.4682
6.5165 11.3054 -2.5310
6.5171 11.5757 -2.5960
6.5178 11.8560 -2.6633
6.5185 12.1471 -2.7332
6.5250 12.4606 -2.8082
6.5254 12.7751 -2.8835
6.5259 13.1026 -2.9618
6.5264 13.4439 -3.0434
6.5269 13.8001 -3.1284
6.5274 14.1722 -3.2171
6.5280 14.5614 -3.3098
6.5286 14.9689 -3.4067
6.5265 15.3901 -3.5069
6.5272 15.8387 -3.6134
6.5279 16.3104 -3.7252
6.5287 16.8071 -3.8430
6.5295 17.3310 -3.9670
6.5303 17.8845 -4.0979
6.5283 18.4618 -4.2344
6.5294 19.0832 -4.3812
6.5306 19.7435 -4.5369
6.5319 20.4464 -4.7026
6.5333 21.1964 -4.8793
6.5373 22.0073 -5.0701
6.5399 22.8713 -5.2733
6.5426 23.8006 -5.4917
6.5258 24.7277 -5.7098
6.5268 25.8011 -5.9618
6.5280 26.9659 -6.2350
-5.6643 30.3979 -7.0492
-5.9021 29.9614 -6.9445
-6.0312 29.0410 -6.7276
-6.5135 29.8225 -6.9047
-6.8175 29.7465 -6.8831
-7.1614 29.8381 -6.8999
-7.2991 29.0936 -6.7234
-7.5178 28.7149 -6.6313
-7.8927 28.9331 -6.6769
-8.5344 30.0689 -6.9338
-6.7615 20.5762 -4.7291
-5.4523 12.9269 -2.9463
-5.6260 12.9682 -2.9521
-5.8021 13.0099 -2.9578
-5.9818 13.0543 -2.9641
-6.1409 13.0495 -2.9590
-6.3013 13.0446 -2.9538
-6.5327 13.1803 -2.9802
-6.6883 13.1569 -2.9705
-6.4630 12.4009 -2.7956
-6.5552 12.2725 -2.7623
-6.8579 12.5321 -2.8161
-7.1671 12.7880 -2.8688
-7.3363 12.7849 -2.8631
-7.1014 12.0906 -2.7028
-7.0595 11.7458 -2.6209
-7.7985 12.6836 -2.8248
-7.9112 12.5805 -2.7964
-8.0235 12.4779 -2.7680
-8.1352 12.3757 -2.7396
-8.0300 11.9518 -2.6401
-8.2149 11.9650 -2.6372
-8.2624 11.7784 -2.5901
-8.3090 11.5952 -2.5439
-7.2597 4.2844 -0.7515
-7.3056 4.2159 -0.7311
-39.0637 15.9332 -2.1417
-38.9976 15.4673 -2.0188
-39.0052 15.0348 -1.9006
-39.0127 14.6055 -1.7831
-39.0202 14.1794 -1.6661
-38.8142 13.6810 -1.5412
-38.6030 13.1884 -1.4179
-38.3499 12.6893 -1.2951
-38.1223 12.2066 -1.1750
6.5128 9.0107 -1.4377
6.5129 9.2020 -1.4768
6.5118 9.3972 -1.5166
6.5123 9.6006 -1.5579
6.5128 9.8101 -1.6003
6.5133 10.0262 -1.6439
6.5138 10.2491 -1.6888
6.5144 10.4794 -1.7350
6.5149 10.7174 -1.7826
6.5155 10.9634 -1.8316
6.5161 11.2181 -1.8823
6.5167 11.4819 -1.9346
6.5174 11.7554 -1.9887
6.5181 12.0391 -2.0447
6.5237 12.3430 -2.1043
6.5241 12.6489 -2.1644
6.5245 12.9671 -2.2267
6.5250 13.2985 -2.2914
6.5255 13.6440 -2.3588
6.5260 14.0044 -2.4289
6.5265 14.3811 -2.5019
6.5270 14.7750 -2.5782
6.5276 15.1875 -2.6578
6.5262 15.6154 -2.7403
6.5268 16.0696 -2.8277
6.5275 16.5472 -2.9193
6.5283 17.0502 -3.0156
6.5291 17.5807 -3.1170
6.5299 18.1412 -3.2239
6.5285 18.7279 -3.3356
6.5297 19.3573 -3.4552
6.5309 20.0261 -3.5821
6.5322 20.7383 -3.7169
6.5353 21.5038 -3.8615
6.5377 22.3199 -4.0154
6.5403 23.1953 -4.1803
6.5430 24.1369 -4.3574
6.5278 25.0827 -4.5355
6.5290 26.1709 -4.7396
6.5336 27.3659 -4.9634
6.5377 28.6648 -5.2063
6.5421 30.0867 -5.4718
6.5503 31.6661 -5.7664
6.5441 33.3356 -6.0777
-6.2409 47.3474 -8.6844
-6.5847 46.3229 -8.4896
-7.1526 46.8978 -8.5875
-7.4447 45.6981 -8.3600
-5.1616 29.7776 -5.4421
-5.5039 29.9451 -5.4669
-5.6274 28.9626 -5.2816
-6.1903 30.2205 -5.5044
-6.4859 30.1087 -5.4772
-6.7034 29.6561 -5.3877
-7.0999 29.9947 -5.4416
-7.3198 29.5844 -5.3593
-7.3242 28.3677 -5.1310
-7.7598 28.8461 -5.2092
-8.1246 29.0289 -5.2334
-5.3296 13.5871 -2.3982
-5.4916 13.5958 -2.3936
-5.6550 13.6044 -2.3887
-5.5050 12.8764 -2.2546
-5.6765 12.9168 -2.2552
-5.8505 12.9577 -2.2556
-6.0272 12.9992 -2.2559
-6.4732 13.6017 -2.3529
-6.7099 13.7420 -2.3694
-6.6120 13.2041 -2.2689
-6.4908 12.6439 -2.1650
-6.6483 12.6373 -2.1560
-6.8071 12.6307 -2.1468
-7.2475 13.1314 -2.2232
-6.8529 12.1281 -2.0451
-7.0910 12.2617 -2.0591
-7.3458 12.4145 -2.0758
-7.4547 12.3162 -2.0503
-7.6756 12.4001 -2.0548
-7.8507 12.4048 -2.0459
-7.9630 12.3090 -2.0201
-7.4747 11.3056 -1.8461
-8.1131 12.0097 -1.9508
-8.1611 11.8253 -1.9105
-8.2080 11.6439 -1.8707
-7.2668 4.3050 -0.3493
-7.2873 4.2223 -0.3276
-37.4252 20.2556 -1.3382
-37.8941 20.0377 -1.2404
-37.9022 19.5753 -1.1268
-37.3458 18.8328 -0.9988
-37.6493 18.5317 -0.8952
-38.2576 18.3742 -0.7968
-38.8778 18.2122 -0.6957
-39.5105 18.0455 -0.5917
-40.1561 17.8740 -0.4848
-40.8149 17.6975 -0.3748
-41.4876 17.5159 -0.2617
-39.2518 16.1279 -0.1352
-37.4066 14.9500 -0.0221
-38.8003 15.0752 0.0873
-39.0106 14.7260 0.1982
-39.0180 14.3011 0.3082
-39.0143 13.8752 0.4179
-21.5858 7.4435 0.2917
-21.5866 7.2122 0.3521
6.5119 9.1588 -0.9316
6.5116 9.3516 -0.9634
6.5120 9.5512 -0.9961
6.5125 9.7568 -1.0296
6.5130 9.9688 -1.0640
6.5135 10.1873 -1.0992
6.5141 10.4129 -1.1354
6.5146 10.6458 -1.1726
6.5152 10.8865 -1.2108
6.5158 11.1355 -1.2501
6.5164 11.3932 -1.2906
6.5170 11.6601 -1.3324
6.5177 11.9369 -1.3755
6.5183 12.2240 -1.4200
6.5228 12.5295 -1.4668
6.5232 12.8390 -1.5144
6.5237 13.1610 -1.5636
6.5241 13.4964 -1.6146
6.5246 13.8460 -1.6676
6.5250 14.2108 -1.7227
6.5255 14.5919 -1.7799
6.5260 14.9907 -1.8396
6.5252 15.4050 -1.9014
6.5258 15.8429 -1.9663
6.5264 16.3028 -2.0343
6.5271 16.7863 -2.1055
6.5279 17.2956 -2.1802
6.5286 17.8328 -2.2587
6.5277 18.3953 -2.3407
6.5288 18.9965 -2.4279
6.5299 19.6341 -2.5201
6.5312 20.3116 -2.6177
6.5325 21.0330 -2.7213
6.5357 21.8088 -2.8323
6.5381 22.6356 -2.9503
6.5406 23.5225 -3.0764
6.5287 24.4215 -3.2046
6.5299 25.4413 -3.3489
6.5312 26.5446 -3.5046
6.5363 27.7581 -3.6753
6.5405 29.0753 -3.8602
6.5469 30.5255 -4.0632
6.5519 32.1116 -4.2848
6.5468 33.8091 -4.5218
6.5514 35.7453 -4.7912
6.5586 37.9199 -5.0932
6.5542 40.2917 -5.4222
6.5787 43.1642 -5.8193
6.5667 46.1849 -6.2371
-5.6855 47.4329 -6.4266
-6.1158 47.0321 -6.3632
-6.5439 46.6653 -6.3039
-7.0610 46.9313 -6.3293
-6.2553 38.9238 -5.2400
-7.8496 45.9073 -6.1683
-5.4058 29.8158 -3.9981
-5.7382 29.9398 -4.0060
-5.9300 29.3499 -3.9181
-6.3120 29.7070 -3.9562
-6.6160 29.6755 -3.9419
-6.9600 29.8125 -3.9494
-7.2435 29.6838 -3.9213
-7.5096 29.4920 -3.8844
-7.9652 30.0242 -3.9421
-8.2099 29.7456 -3.8928
-8.4226 29.3700 -3.8306
-8.6698 29.1319 -3.7860
-7.0301 20.5828 -2.6328
-5.5252 13.4863 -1.6756
-5.6857 13.4945 -1.6674
-5.8478 13.5026 -1.6588
-6.0112 13.5107 -1.6500
-6.1770 13.5204 -1.6409
-5.9783 12.7494 -1.5375
-6.1410 12.7657 -1.5292
-6.3056 12.7820 -1.5206
-6.4721 12.7982 -1.5117
-6.6405 12.8146 -1.5024
-6.7260 12.6712 -1.4741
-6.9721 12.8268 -1.4804
-7.0697 12.7053 -1.4542
-7.1814 12.6111 -1.4310
-7.2926 12.5172 -1.4077
-7.3591 12.3495 -1.3760
-7.5135 12.3303 -1.3607
-7.6233 12.2372 -1.3369
-7.9401 12.4701 -1.3483
-7.2692 11.1720 -1.1949
-8.0126 12.0532 -1.2747
-8.0609 11.8709 -1.2409
-8.1084 11.6917 -1.2073
-36.1584 33.6411 -2.1623
-37.5382 30.4442 -1.3889
-38.0907 30.2855 -1.2905
-38.6489 30.1233 -1.1899
-39.2128 29.9575 -1.0871
-39.7826 29.7879 -0.9821
-37.8507 22.5141 0.2744
-7.2694 4.2298 0.0730
-21.5701 12.2744 0.2767
-21.5711 12.0018 0.3364
-21.5721 11.7321 0.3958
-21.5731 11.4654 0.4550
-21.5741 11.2013 0.5139
-21.5750 10.9400 0.5727
-21.5760 10.6813 0.6312
-21.5770 10.4250 0.6895
-21.5779 10.1712 0.7477
-21.5788 9.9197 0.8057
-21.4932 9.6316 0.8601
-21.4941 9.3855 0.9176
-21.5392 9.1602 0.9769
-21.5796 8.9341 1.0362
-21.5805 8.6931 1.0936
-21.5813 8.4539 1.1509
-21.5822 8.2166 1.2081
-21.5831 7.9810 1.2652
-21.5840 7.7471 1.3223
-21.5848 7.5148 1.3794
6.5111 9.3091 -0.4183
6.5118 9.5055 -0.4430
6.5123 9.7074 -0.4681
6.5128 9.9154 -0.4937
6.5133 10.1297 -0.5199
6.5138 10.3508 -0.5467
6.5143 10.5790 -0.5741
6.5149 10.8146 -0.6021
6.5154 11.0582 -0.6308
6.5160 11.3101 -0.6603
6.5166 11.5708 -0.6905
6.5173 11.8409 -0.7215
6.5179 12.1210 -0.7534
6.5216 12.4173 -0.7866
6.5220 12.7186 -0.8204
6.5224 13.0318 -0.8552
6.5228 13.3576 -0.8912
6.5232 13.6970 -0.9283
6.5236 14.0507 -0.9668
6.5241 14.4200 -1.0066
6.5245 14.8058 -1.0478
6.5250 15.2093 -1.0906
6.5248 15.6302 -1.1350
6.5254 16.0736 -1.1814
6.5261 16.5392 -1.2297
6.5267 17.0288 -1.2802
6.5275 17.5446 -1.3330
6.5282 18.0885 -1.3883
6.5279 18.6600 -1.4461
6.5290 19.2690 -1.5072
6.5302 19.9149 -1.5715
6.5314 20.6012 -1.6395
6.5328 21.3320 -1.7115
6.5360 22.1182 -1.7883
6.5384 22.9558 -1.8697
6.5410 23.8544 -1.9566
6.5308 24.7715 -2.0455
6.5320 25.8054 -2.1446
6.5334 26.9238 -2.2511
6.5391 28.1562 -2.3678
6.5434 29.4919 -2.4937
6.5485 30.9558 -2.6311
6.5536 32.5638 -2.7813
6.5495 34.2898 -2.9423
6.5543 36.2534 -3.1244
6.5612 38.4569 -3.3279
6.5568 40.8612 -3.5496
6.5765 43.7410 -3.8134
6.5708 46.8466 -4.0977
-5.5609 47.0268 -4.1401
-6.0387 47.0740 -4.1327
-6.4799 46.8411 -4.0998
-6.9525 46.8431 -4.0865
-7.4227 46.8218 -4.0702
-7.9344 47.0411 -4.0738
-5.3613 29.9780 -2.5857
-5.6815 30.0528 -2.5810
-5.7289 28.7463 -2.4575
-6.0591 28.9119 -2.4597
-6.3933 29.0744 -2.4609
-6.8055 29.5559 -2.4881
-7.1986 29.9112 -2.5037
-7.4508 29.6702 -2.4687
-7.7076 29.4604 -2.4358
-8.0148 29.4464 -2.4185
-8.1519 28.8264 -2.3511
-5.5557 13.3792 -0.9738
-5.7044 13.3656 -0.9608
-5.8527 13.3489 -0.9471
-6.0017 13.3319 -0.9331
-6.1516 13.3147 -0.9187
-6.3023 13.2973 -0.9039
-6.4556 13.2832 -0.8890
-6.5971 13.2429 -0.8719
-6.7277 13.1804 -0.8531
-6.5610 12.5493 -0.7978
-6.7258 12.5637 -0.7838
-7.1640 13.0737 -0.7997
-7.3164 13.0478 -0.7818
-7.2910 12.7100 -0.7452
-7.3686 12.5597 -0.7197
-7.4451 12.4110 -0.6943
-7.5204 12.2640 -0.6688
-7.5861 12.1047 -0.6427
-7.6440 11.9371 -0.6161
-7.7008 11.7718 -0.5896
-36.3986 33.8729 0.1903
-36.8949 33.6779 0.2957
-21.9464 19.6490 0.2365
-21.5381 18.9134 0.2911
-21.5395 18.5509 0.3497
-21.5408 18.1944 0.4079
-21.5421 17.8437 0.4657
-21.5434 17.4987 0.5231
-21.5447 17.1591 0.5802
-21.5460 16.8247 0.6369
-21.5472 16.4954 0.6934
-21.5484 16.1710 0.7495
-21.5496 15.8513 0.8053
-21.5508 15.5361 0.8609
-21.5519 15.2253 0.9162
-21.4695 14.8609 0.9676
-21.4707 14.5596 1.0222
-21.5617 14.3220 1.0812
-21.5628 14.0273 1.1357
-21.5639 13.7362 1.1901
-21.5649 13.4487 1.2443
-21.5660 13.1647 1.2983
-21.5671 12.8840 1.3522
-7.2621 4.2447 0.4734
-21.5691 12.3322 1.4597
-21.5701 12.0609 1.5133
-21.5711 11.7925 1.5669
-21.5721 11.5269 1.6203
-21.5731 11.2640 1.6737
-21.5741 11.0038 1.7271
-21.5750 10.7461 1.7804
-21.5760 10.4909 1.8337
-21.5769 10.2380 1.8870
-21.5779 9.9874 1.9403
-21.4922 9.6999 1.9856
-21.4931 9.4547 2.0387
-21.4970 9.2127 2.0921
-21.5786 9.0051 2.1533
-21.5795 8.7649 2.2068
-21.5804 8.5265 2.2603
-21.5812 8.2899 2.3139
-21.5821 8.0549 2.3675
-21.5830 7.8217 2.4213
6.5116 9.4640 0.1045
6.5120 9.6624 0.0873
6.5125 9.8666 0.0699
6.5130 10.0769 0.0523
6.5135 10.2937 0.0344
6.5140 10.5174 0.0163
6.5146 10.7482 -0.0021
6.5151 10.9866 -0.0208
6.5157 11.2331 -0.0398
6.5163 11.4879 -0.0592
6.5169 11.7518 -0.0789
6.5175 12.0252 -0.0990
6.5182 12.3086 -0.1196
6.5208 12.6063 -0.1406
6.5211 12.9112 -0.1620
6.5215 13.2281 -0.1839
6.5219 13.5578 -0.2063
6.5223 13.9013 -0.2293
6.5227 14.2594 -0.2529
6.5231 14.6331 -0.2772
6.5236 15.0236 -0.3021
6.5238 15.4317 -0.3278
6.5244 15.8597 -0.3543
6.5250 16.3086 -0.3817
6.5256 16.7801 -0.4101
6.5263 17.2759 -0.4394
6.5270 17.7981 -0.4699
6.5271 18.3470 -0.5015
6.5282 18.9298 -0.5345
6.5293 19.5467 -0.5690
6.5305 20.2010 -0.6050
6.5317 20.8963 -0.6428
6.5341 21.6403 -0.6826
6.5364 22.4334 -0.7245
6.5388 23.2821 -0.7687
6.5414 24.1926 -0.8156
6.5329 25.1283 -0.8639
6.5342 26.1765 -0.9167
6.5356 27.3105 -0.9731
6.5419 28.5622 -1.0345
6.5464 29.9169 -1.1002
6.5501 31.3944 -1.1712
6.5553 33.0247 -1.2487
6.5522 34.7800 -1.3318
6.5568 36.7694 -1.4246
6.5639 39.0045 -1.5279
6.5595 41.4420 -1.6401
6.5742 44.3282 -1.7710
6.5751 47.5216 -1.9153
-5.4851 47.0222 -1.9274
-5.8320 46.0871 -1.8754
-6.4259 47.0893 -1.9009
-6.8810 46.9998 -1.8810
-7.2786 46.5460 -1.8455
-7.7242 46.4270 -1.8223
-8.0563 45.6702 -1.7733
-5.6885 30.5069 -1.1709
-5.9997 30.5230 -1.1570
-6.1406 29.7083 -1.1113
-6.4086 29.5506 -1.0898
-6.7159 29.5747 -1.0743
-7.0363 29.6463 -1.0597
-7.2733 29.3700 -1.0320
-7.6134 29.5098 -1.0182
-7.7954 29.0446 -0.9830
-8.1811 29.3391 -0.9727
-7.0464 20.5562 -0.5839
-6.0489 12.9547 -0.2168
-6.1936 12.9367 -0.2001
-6.3392 12.9185 -0.1829
-6.4855 12.8999 -0.1652
-6.5616 12.7429 -0.1455
-6.6864 12.6827 -0.1267
-6.9312 12.8449 -0.1095
-7.0628 12.7917 -0.0897
-7.1463 12.6529 -0.0690
-7.0957 12.2850 -0.0474
-7.1565 12.1190 -0.0268
-6.9925 11.5848 -0.0061
-7.5892 12.3038 0.0149
-21.5023 32.0314 0.2774
-21.5048 31.3788 0.3342
-21.4149 30.6123 0.3888
-21.5005 30.1145 0.4458
-21.5028 29.5140 0.5007
-21.5050 28.9293 0.5550
-21.5072 28.3596 0.6088
-21.5093 27.8042 0.6621
-21.5114 27.2625 0.7149
-21.5134 26.7339 0.7673
-21.5153 26.2178 0.8192
-21.5173 25.7138 0.8707
-21.4357 25.1235 0.9183
-21.5247 24.7441 0.9729
-21.5265 24.2731 1.0234
-21.5283 23.8122 1.0735
-21.5300 23.3611 1.1234
-21.5317 22.9194 1.1730
-21.5333 22.4866 1.2224
-21.5349 22.0623 1.2715
-21.5365 21.6465 1.3204
-21.5380 21.2386 1.3691
-21.5395 20.8384 1.4176
-21.5410 20.4457 1.4659
-21.4495 19.9734 1.5075
-21.5069 19.6473 1.5594
-21.5358 19.3004 1.6092
-21.5372 18.9347 1.6570
-21.5385 18.5752 1.7046
-21.5399 18.2215 1.7521
-21.5412 17.8736 1.7996
-21.5425 17.5312 1.8469
-21.5437 17.1941 1.8942
-21.5450 16.8621 1.9415
-21.5462 16.5351 1.9887
-21.5474 16.2129 2.0359
-21.5486 15.8953 2.0831
-21.5498 15.5821 2.1303
-21.5510 15.2733 2.1774
-21.4749 14.9150 2.2166
-21.4697 14.6111 2.2630
-21.5607 14.3754 2.3197
-21.5618 14.0823 2.3669
-21.5629 13.7928 2.4142
-21.5639 13.5068 2.4616
-21.5650 13.2243 2.5090
-21.5660 12.9450 2.5565
-7.2540 4.2612 0.8759
-21.8473 12.5563 2.6861
-21.4617 12.0654 2.6861
-21.0888 11.5940 2.6861
-20.7279 11.1409 2.6861
-20.3783 10.7052 2.6861
-20.0394 10.2860 2.6861
-19.7107 9.8824 2.6861
-19.6562 9.6228 2.7227
-19.6489 9.3894 2.7659
-19.6414 9.1582 2.8091
-19.5373 8.8852 2.8385
-19.2366 8.5293 2.8385
-18.9439 8.1855 2.8385
-18.6589 7.8533 2.8385
-18.3814 7.5321 2.8385
-18.1108 7.2215 2.8385
-17.8470 6.9209 2.8385
-17.5897 6.6299 2.8385
6.5118 9.6223 0.6396
6.5123 9.8229 0.6301
6.5127 10.0295 0.6206
6.5132 10.2423 0.6112
6.5138 10.4616 0.6019
6.5143 10.6879 0.5926
6.5148 10.9214 0.5833
6.5154 11.1627 0.5742
6.5160 11.4120 0.5651
6.5166 11.6700 0.5560
6.5172 11.9371 0.5470
6.5178 12.2137 0.5381
6.5196 12.5026 0.5293
6.5199 12.7997 0.5205
6.5202 13.1083 0.5117
6.5206 13.4290 0.5031
6.5209 13.7627 0.4945
6.5213 14.1104 0.4859
6.5217 14.4728 0.4775
6.5221 14.8511 0.4691
6.5225 15.2464 0.4609
6.5234 15.6611 0.4527
6.5240 16.0946 0.4446
6.5246 16.5492 0.4366
6.5252 17.0266 0.4288
6.5259 17.5287 0.4210
6.5266 18.0576 0.4134
6.5274 18.6156 0.4059
6.5284 19.2059 0.3985
6.5295 19.8310 0.3913
6.5307 20.4939 0.3843
6.5320 21.1983 0.3774
6.5345 21.9524 0.3708
6.5368 22.7561 0.3644
6.5392 23.6161 0.3583
6.5337 24.5082 0.3519
6.5350 25.4938 0.3462
6.5364 26.5567 0.3408
6.5406 27.7180 0.3359
6.5448 28.9781 0.3314
6.5469 30.3406 0.3272
6.5517 31.8436 0.3237
6.5505 33.4634 0.3204
6.5551 35.2820 0.3180
6.5594 37.2982 0.3165
6.5602 39.5262 0.3156
6.5623 42.0369 0.3159
6.5718 44.9287 0.3179
6.5794 48.2134 0.3212
-6.3017 46.8206 0.3085
-6.7788 46.9458 0.3283
-7.1663 46.4666 0.3452
-6.3589 29.7341 0.3171
-6.6518 29.7056 0.3360
-6.9853 29.8476 0.3578
-7.1875 29.4346 0.3737
-21.4536 44.3895 1.6497
-21.4577 43.3367 1.6786
-21.4615 42.3237 1.7078
-6.5082 12.5366 0.5267
-21.4682 40.4062 1.7667
-21.4717 39.4990 1.7965
-6.8927 12.3967 0.5863
-21.4783 37.7765 1.8568
-21.4814 36.9579 1.8873
-21.4844 36.1658 1.9179
-21.4749 35.3780 1.9476
-21.4911 34.6567 1.9799
-21.4939 33.9358 2.0111
-21.4965 33.2362 2.0425
-21.4991 32.5570 2.0741
-21.5017 31.8971 2.1059
-21.5041 31.2556 2.1379
-21.4142 30.5002 2.1607
-21.4998 30.0119 2.2014
-21.5021 29.4208 2.2339
-21.5043 28.8450 2.2666
-21.5064 28.2837 2.2995
-21.5085 27.7363 2.3325
-21.5106 27.2022 2.3657
-21.5126 26.6808 2.3991
-21.5145 26.1715 2.4327
-21.5164 25.6740 2.4665
-21.4348 25.0900 2.4907
-21.5238 24.7163 2.5350
-21.5256 24.2508 2.5693
-21.5274 23.7952 2.6038
-21.9176 23.7707 2.6861
-21.6322 23.0203 2.6860
-21.3545 22.2983 2.6861
-21.0816 21.6008 2.6861
-20.8143 20.9273 2.6861
-20.5522 20.2769 2.6861
-20.2953 19.6485 2.6861
-20.0433 19.0411 2.6861
-19.7962 18.4538 2.6861
-19.6419 17.9664 2.6982
-19.6343 17.6219 2.7303
-19.6291 17.2855 2.7630
-19.6239 16.9549 2.7958
-19.6186 16.6297 2.8288
-19.4519 16.1756 2.8385
-19.2226 15.6806 2.8385
-18.9974 15.2009 2.8385
-18.7762 14.7357 2.8385
-18.5588 14.2845 2.8385
-18.3451 13.8467 2.8385
-18.1351 13.4218 2.8385
-17.9286 13.0093 2.8385
-17.7255 12.6087 2.8385
-17.5258 12.2197 2.8385
-17.3293 11.8418 2.8385
-17.1360 11.4744 2.8385
-16.9459 11.1173 2.8385
-16.7587 10.7702 2.8385
-16.5745 10.4326 2.8385
-16.3931 10.1042 2.8385
-16.2145 9.7847 2.8385
-7.2550 4.2854 1.2840
-7.2939 4.2162 1.3049
-15.6948 8.8763 2.8385
-15.5267 8.5893 2.8385
-15.3611 8.3097 2.8385
-15.1979 8.0374 2.8385
-15.0370 7.7720 2.8385
-14.8784 7.5134 2.8385
-14.7220 7.2612 2.8385
-14.5679 7.0154 2.8385
-14.4158 6.7756 2.8385
-14.2658 6.5418 2.8385
-14.1179 6.3137 2.8385
-13.9719 6.0910 2.8385
-13.8279 5.8738 2.8385
-13.6858 5.6618 2.8385
-13.5456 5.4548 2.8385
-13.4071 5.2526 2.8385
6.5120 9.7851 1.1899
6.5125 9.9880 1.1883
6.5130 10.1970 1.1869
6.5135 10.4123 1.1860
6.5140 10.6342 1.1854
6.5145 10.8632 1.1852
6.5151 11.0995 1.1854
6.5157 11.3437 1.1860
6.5162 11.5961 1.1871
6.5168 11.8572 1.1887
6.5175 12.1276 1.1907
6.5184 12.4081 1.1934
6.5187 12.6979 1.1964
6.5190 12.9985 1.2001
6.5193 13.3108 1.2043
6.5196 13.6355 1.2092
6.5200 13.9734 1.2149
6.5203 14.3253 1.2212
6.5207 14.6922 1.2283
6.5211 15.0752 1.2363
6.5225 15.4780 1.2453
6.5230 15.8970 1.2552
6.5236 16.3360 1.2660
6.5242 16.7965 1.2780
6.5248 17.2800 1.2912
6.5255 17.7887 1.3056
6.5261 18.3244 1.3215
6.5276 18.8917 1.3390
6.5287 19.4899 1.3580
6.5298 20.1233 1.3789
6.5310 20.7950 1.4017
6.5327 21.5104 1.4267
6.5348 22.2734 1.4542
6.5371 23.0879 1.4843
6.5396 23.9596 1.5173
6.5358 24.8703 1.5520
6.5372 25.8698 1.5914
6.5387 26.9478 1.6348
6.5435 28.1278 1.6835
6.5478 29.4061 1.7371
6.5485 30.7814 1.7955
6.5534 32.3057 1.8616
6.5532 33.9536 1.9337
6.5580 35.7988 2.0160
6.5621 37.8423 2.1083
6.5629 40.1017 2.2113
6.5687 42.6724 2.3302
6.5737 45.5756 2.4659
6.5791 48.8906 2.6223
-7.1076 46.7365 2.5475
-7.8962 48.8040 2.6861
-8.2872 48.3101 2.6861
-8.6664 47.7970 2.6861
-9.0339 47.2667 2.6861
-10.2843 48.7757 2.8385
-10.6337 48.1671 2.8385
-10.9698 47.5450 2.8385
-7.1521 29.7105 1.7977
-11.6022 46.2663 2.8385
-11.8984 45.6121 2.8385
-12.1813 44.9498 2.8385
-12.4512 44.2806 2.8385
-12.7079 43.6055 2.8385
-12.9518 42.9256 2.8385
-13.1829 42.2421 2.8385
-13.4015 41.5561 2.8385
-13.6078 40.8683 2.8385
-7.0581 20.5473 1.4515
-13.9843 39.4914 2.8385
-14.1550 38.8039 2.8385
-14.3145 38.1181 2.8385
-14.4629 37.4348 2.8385
-14.6007 36.7548 2.8385
-14.7280 36.0784 2.8385
-14.8453 35.4063 2.8385
-14.9527 34.7392 2.8385
-15.0506 34.0774 2.8385
-15.1394 33.4215 2.8385
-15.2194 32.7718 2.8385
-15.2908 32.1289 2.8385
-15.3540 31.4929 2.8385
-15.4093 30.8642 2.8385
-15.4569 30.2430 2.8385
-15.4973 29.6297 2.8385
-15.5306 29.0243 2.8385
-15.5572 28.4272 2.8385
-7.0882 12.6673 1.2916
-15.5914 27.2580 2.8385
-15.5995 26.6863 2.8385
-15.6020 26.1232 2.8385
-15.5991 25.5689 2.8385
-15.5911 25.0234 2.8385
-15.5782 24.4867 2.8385
-15.5606 23.9588 2.8385
-15.5386 23.4398 2.8385
-15.5124 22.9295 2.8385
-15.4822 22.4281 2.8385
-15.4482 21.9354 2.8385
-15.4106 21.4513 2.8385
-15.2280 19.6008 2.8385
-15.3696 20.9758 2.8385
-15.1751 19.1591 2.8385
-15.3254 20.5091 2.8385
-15.1196 18.7257 2.8385
-15.2781 20.0508 2.8385
-15.0618 18.3004 2.8385
-14.8750 17.0720 2.8385
-15.0016 17.8831 2.8385
-14.8089 16.6781 2.8385
-14.9393 17.4737 2.8385
-14.7409 16.2917 2.8385
-14.4536 14.8193 2.8385
-14.6713 15.9128 2.8385
-14.3784 14.4689 2.8385
-14.6001 15.5412 2.8385
-14.3020 14.1253 2.8385
-14.5275 15.1767 2.8385
-14.2246 13.7885 2.8385
-13.9866 12.8168 2.8385
-14.1462 13.4581 2.8385
-13.9057 12.5055 2.8385
-14.0668 13.1343 2.8385
-13.8240 12.2003 2.8385
-13.4916 11.0381 2.8385
-13.7417 11.9011 2.8385
-13.4073 10.7617 2.8385
-13.6589 11.6077 2.8385
-13.3226 10.4906 2.8385
-13.5754 11.3201 2.8385
-13.2377 10.2249 2.8385
-12.9812 9.4582 2.8385
-13.1524 9.9642 2.8385
-12.8954 9.2125 2.8385
-13.0669 9.7087 2.8385
-12.8094 8.9716 2.8385
-12.4649 8.0536 2.8385
-12.7233 8.7354 2.8385
-12.3788 7.8350 2.8385
-12.6372 8.5037 2.8385
-12.2927 7.6207 2.8385
-12.5511 8.2765 2.8385
-12.2067 7.4104 2.8385
-11.9493 6.8033 2.8385
-12.1208 7.2042 2.8385
-11.8639 6.6086 2.8385
-7.2668 4.2277 1.7139
-11.7785 6.4176 2.8385
-11.6934 6.2301 2.8385
-11.6085 6.0462 2.8385
-11.5237 5.8658 2.8385
-11.4392 5.6887 2.8385
-11.3550 5.5149 2.8385
-11.2710 5.3443 2.8385
-11.1873 5.1769 2.8385
-11.1038 5.0127 2.8385
-11.0207 4.8514 2.8385
-10.9378 4.6932 2.8385
-10.8553 4.5378 2.8385
-10.7730 4.3852 2.8385
6.5123 9.9533 1.7586
6.5128 10.1586 1.7650
6.5133 10.3701 1.7721
6.5138 10.5880 1.7799
6.5143 10.8126 1.7883
6.5148 11.0444 1.7975
6.5154 11.2836 1.8075
6.5159 11.5308 1.8183
6.5165 11.7863 1.8299
6.5171 12.0507 1.8424
6.5172 12.3233 1.8557
6.5175 12.6062 1.8701
6.5178 12.8995 1.8855
6.5181 13.2039 1.9020
6.5184 13.5201 1.9197
6.5187 13.8488 1.9387
6.5190 14.1909 1.9590
6.5193 14.5473 1.9807
6.5197 14.9189 2.0039
6.5201 15.3068 2.0287
6.5221 15.7162 2.0558
6.5226 16.1408 2.0842
6.5232 16.5855 2.1147
6.5238 17.0519 2.1473
6.5244 17.5419 2.1821
6.5250 18.0572 2.2195
6.5269 18.6033 2.2600
6.5279 19.1770 2.3032
6.5290 19.7833 2.3495
6.5301 20.4253 2.3993
6.5313 21.1062 2.4529
6.5331 21.8316 2.5109
6.5352 22.6051 2.5736
6.5375 23.4308 2.6415
6.4704 24.0558 2.6861
6.2882 24.2804 2.6861
6.1015 24.5001 2.6861
5.9102 24.7145 2.6861
5.7145 24.9232 2.6861
5.5144 25.1261 2.6861
5.3100 25.3228 2.6861
5.1014 25.5131 2.6861
4.8887 25.6966 2.6861
4.8067 26.6185 2.7634
4.7043 27.5201 2.8385
4.4674 27.6912 2.8385
4.2268 27.8540 2.8385
3.9826 28.0085 2.8385
3.7351 28.1543 2.8385
3.4842 28.2911 2.8385
3.2304 28.4188 2.8385
2.9737 28.5373 2.8385
2.7144 28.6461 2.8385
2.4526 28.7453 2.8385
2.1887 28.8346 2.8385
1.9228 28.9139 2.8385
1.6551 28.9830 2.8385
1.3860 29.0418 2.8385
1.1156 29.0903 2.8385
0.8441 29.1283 2.8385
0.5719 29.1558 2.8385
0.2991 29.1727 2.8385
0.0261 29.1791 2.8385
-0.2469 29.1748 2.8385
-0.5198 29.1600 2.8385
-0.7921 29.1345 2.8385
-1.0637 29.0984 2.8385
-1.3344 29.0519 2.8385
-1.6038 28.9951 2.8385
-1.8718 28.9279 2.8385
-2.1380 28.8505 2.8385
-2.4024 28.7632 2.8385
-2.6645 28.6658 2.8385
-2.9243 28.5588 2.8385
-3.1816 28.4422 2.8385
-3.4359 28.3162 2.8385
-3.6874 28.1811 2.8385
-3.9356 28.0370 2.8385
-4.1804 27.8842 2.8385
-4.4217 27.7230 2.8385
-4.6593 27.5534 2.8385
-4.8930 27.3760 2.8385
-5.1227 27.1908 2.8385
-5.3482 26.9982 2.8385
-5.5695 26.7985 2.8385
-5.6610 26.0156 2.7770
-5.6786 24.9716 2.6870
-5.8731 24.7548 2.6861
-6.0653 24.5415 2.6861
-6.2529 24.3229 2.6861
-6.4359 24.0991 2.6861
-6.6143 23.8705 2.6861
-6.7880 23.6374 2.6861
-6.9569 23.4000 2.6861
-7.1212 23.1587 2.6861
-7.2806 22.9136 2.6861
-7.4352 22.6652 2.6861
-7.5850 22.4136 2.6861
-7.7300 22.1591 2.6861
-7.8702 21.9020 2.6861
-8.0057 21.6425 2.6861
-8.1363 21.3809 2.6861
-8.2622 21.1175 2.6861
-8.3834 20.8523 2.6861
-8.5000 20.5858 2.6861
-8.6119 20.3181 2.6861
-8.7192 20.0494 2.6861
-8.8220 19.7799 2.6861
-8.9203 19.5099 2.6861
-9.0142 19.2396 2.6861
-9.1038 18.9695 2.6861
-9.7104 19.7594 2.8385
-9.7960 19.4737 2.8385
-9.8773 19.1884 2.8385
-9.9542 18.9036 2.8385
-10.0269 18.6195 2.8385
-10.0954 18.3364 2.8385
-7.0991 12.6150 1.9833
-7.2510 12.6094 2.0138
-10.2770 17.4932 2.8385
-10.3298 17.2148 2.8385
-10.3788 16.9379 2.8385
-10.4242 16.6625 2.8385
-10.4661 16.3890 2.8385
-10.5044 16.1172 2.8385
-10.5394 15.8473 2.8385
-10.5711 15.5794 2.8385
-10.5996 15.3136 2.8385
-10.6969 14.0179 2.8385
-10.6250 15.0499 2.8385
-10.7079 13.7658 2.8385
-10.6473 14.7885 2.8385
-10.7163 13.5161 2.8385
-10.6667 14.5293 2.8385
-10.6832 14.2724 2.8385
-10.7221 13.2690 2.8385
-10.7252 12.5430 2.8385
-10.7255 13.0244 2.8385
-10.7216 12.3062 2.8385
-10.7159 12.0720 2.8385
-10.7265 12.7824 2.8385
-10.7080 11.8405 2.8385
-10.6726 11.1618 2.8385
-10.6981 11.6116 2.8385
-10.6570 10.9410 2.8385
-10.6863 11.3854 2.8385
-10.6397 10.7228 2.8385
-10.5541 9.8769 2.8385
-10.6207 10.5073 2.8385
-10.5288 9.6721 2.8385
-10.6001 10.2945 2.8385
-10.5022 9.4700 2.8385
-10.5778 10.0844 2.8385
-10.4742 9.2704 2.8385
-10.3825 8.6875 2.8385
-10.4449 9.0735 2.8385
-10.3496 8.4984 2.8385
-10.4143 8.8792 2.8385
-10.3155 8.3118 2.8385
-10.1690 7.5907 2.8385
-10.2804 8.1278 2.8385
-10.1300 7.4166 2.8385
-10.2442 7.9463 2.8385
-10.0902 7.2450 2.8385
-10.2071 7.7673 2.8385
-10.0495 7.0757 2.8385
-9.9229 6.5820 2.8385
-10.0080 6.9088 2.8385
-9.8792 6.4221 2.8385
-9.9658 6.7442 2.8385
-9.8349 6.2645 2.8385
-7.2553 4.2519 2.1337
-9.7900 6.1091 2.8385
-9.0889 5.2138 2.6861
-9.7445 5.9560 2.8385
-9.0438 5.0771 2.6861
-9.1776 5.4931 2.6861
-8.9982 4.9423 2.6861
-8.9523 4.8095 2.6861
-8.9059 4.6786 2.6861
-8.8592 4.5496 2.6861
-8.8122 4.4225 2.6861
-8.7648 4.2973 2.6861
-8.7170 4.1738 2.6861
-8.6690 4.0522 2.6861
-8.6207 3.9324 2.6861
-8.5722 3.8143 2.6861
-8.5233 3.6979 2.6861
-8.4743 3.5833 2.6861
6.5125 10.1279 2.3491
6.5130 10.3358 2.3639
6.5135 10.5498 2.3798
6.5140 10.7704 2.3966
6.5145 10.9978 2.4145
6.5151 11.2325 2.4334
6.5156 11.4747 2.4535
6.5162 11.7251 2.4748
6.5168 11.9838 2.4974
6.5174 12.2516 2.5213
6.5163 12.5254 2.5459
6.5165 12.8118 2.5726
6.5168 13.1088 2.6008
6.5171 13.4171 2.6307
6.5174 13.7373 2.6623
6.4940 14.0192 2.6861
6.4099 14.1777 2.6861
6.3230 14.3352 2.6861
6.2335 14.4915 2.6861
6.1413 14.6466 2.6861
6.0464 14.8002 2.6861
5.9488 14.9525 2.6861
5.8485 15.1032 2.6861
5.7455 15.2522 2.6861
5.6398 15.3995 2.6861
5.5313 15.5448 2.6861
5.4203 15.6881 2.6861
5.3065 15.8293 2.6861
5.1901 15.9682 2.6861
5.0711 16.1047 2.6861
4.9495 16.2388 2.6861
4.8253 16.3703 2.6861
4.7866 16.8077 2.7363
4.7749 17.3726 2.8069
4.6896 17.6981 2.8385
4.5479 17.8249 2.8385
4.4037 17.9482 2.8385
4.2570 18.0680 2.8385
4.1079 18.1843 2.8385
3.9566 18.2969 2.8385
3.8029 18.4056 2.8385
3.6470 18.5104 2.8385
3.4890 18.6111 2.8385
3.3289 18.7077 2.8385
3.1669 18.8000 2.8385
3.0029 18.8880 2.8385
2.8371 18.9715 2.8385
2.6696 19.0505 2.8385
2.5004 19.1248 2.8385
2.3297 19.1944 2.8385
2.1576 19.2593 2.8385
1.9841 19.3193 2.8385
1.8094 19.3743 2.8385
1.6335 19.4244 2.8385
1.4566 19.4694 2.8385
1.2787 19.5092 2.8385
1.1001 19.5440 2.8385
0.9207 19.5735 2.8385
0.7407 19.5978 2.8385
0.5603 19.6169 2.8385
0.3795 19.6306 2.8385
0.1985 19.6391 2.8385
0.0173 19.6423 2.8385
-0.1639 19.6401 2.8385
-0.3449 19.6327 2.8385
-0.5258 19.6199 2.8385
-0.7063 19.6019 2.8385
-0.8863 19.5786 2.8385
-1.0658 19.5500 2.8385
-1.2446 19.5163 2.8385
-1.4226 19.4774 2.8385
-1.5997 19.4334 2.8385
-1.7758 19.3843 2.8385
-1.9508 19.3302 2.8385
-2.1245 19.2712 2.8385
-2.2969 19.2072 2.8385
-2.4679 19.1385 2.8385
-2.6374 19.0650 2.8385
-2.8052 18.9869 2.8385
-2.9713 18.9043 2.8385
-3.1357 18.8172 2.8385
-3.2981 18.7256 2.8385
-3.4586 18.6299 2.8385
-3.6170 18.5299 2.8385
-3.7733 18.4259 2.8385
-3.9274 18.3179 2.8385
-4.6627 17.7226 2.8385
-4.0792 18.2061 2.8385
-4.8023 17.5933 2.8385
-4.2287 18.0906 2.8385
-4.9393 17.4608 2.8385
-4.3758 17.9714 2.8385
-5.0737 17.3253 2.8385
-4.5205 17.8487 2.8385
-5.2055 17.1869 2.8385
-5.4608 16.9020 2.8385
-5.3345 17.0458 2.8385
-5.5843 16.7555 2.8385
-5.8290 15.1318 2.6861
-5.6774 16.5262 2.8247
-5.9298 14.9815 2.6861
-5.6873 16.0725 2.7723
-6.0280 14.8295 2.6861
-5.6966 15.6398 2.7230
-6.1234 14.6760 2.6861
-5.7255 15.2810 2.6861
-6.2161 14.5212 2.6861
-6.3935 14.2079 2.6861
-6.3061 14.3652 2.6861
-6.4781 14.0496 2.6861
-6.8615 13.2458 2.6861
-6.5601 13.8904 2.6861
-6.9304 13.0832 2.6861
-6.6394 13.7303 2.6861
-6.9967 12.9203 2.6861
-6.7161 13.5694 2.6861
-6.9565 12.5691 2.6465
-6.7901 13.4079 2.6861
-7.1045 12.5630 2.6796
-7.2368 12.2662 2.6861
-7.1805 12.4299 2.6861
-7.2907 12.1025 2.6861
-7.5250 11.2865 2.6861
-7.3422 11.9389 2.6861
-7.7333 10.3213 2.6861
-7.5650 11.1243 2.6861
-7.3913 11.7754 2.6861
-7.7608 10.1626 2.6861
-7.6029 10.9626 2.6861
-7.4382 11.6121 2.6861
-7.7863 10.0047 2.6861
-7.6386 10.8013 2.6861
-7.4827 11.4492 2.6861
-7.8099 9.8476 2.6861
-7.6722 10.6407 2.6861
-7.8696 9.3815 2.6861
-7.8317 9.6914 2.6861
-7.7038 10.4806 2.6861
-7.8859 9.2280 2.6861
-7.8515 9.5360 2.6861
-7.9422 8.4757 2.6861
-7.9592 7.6095 2.6861
-7.9005 9.0755 2.6861
-7.9280 6.7868 2.6861
-7.9487 8.3284 2.6861
-7.9571 7.4693 2.6861
-7.9134 8.9239 2.6861
-7.9187 6.6541 2.6861
-7.9537 8.1823 2.6861
-7.9538 7.3303 2.6861
-7.9246 8.7734 2.6861
-7.9082 6.5227 2.6861
-7.9572 8.0373 2.6861
-7.9491 7.1926 2.6861
-7.9342 8.6240 2.6861
-7.8967 6.3925 2.6861
-7.9592 7.8935 2.6861
-7.9433 7.0560 2.6861
-7.8559 6.0096 2.6861
-7.8841 6.2636 2.6861
-7.9599 7.7509 2.6861
-7.9362 6.9208 2.6861
-7.8403 5.8846 2.6861
-7.8705 6.1360 2.6861
-7.7491 5.2787 2.6861
-7.6134 4.5937 2.6861
-7.8239 5.7609 2.6861
-7.7284 5.1614 2.6861
-7.2516 4.2849 2.5669
-7.8065 5.6384 2.6861
-7.7068 5.0453 2.6861
-7.2872 4.2161 2.5882
-7.7882 5.5172 2.6861
-7.6846 4.9305 2.6861
-7.5363 4.2681 2.6861
-7.7691 5.3973 2.6861
-7.6616 4.8170 2.6861
-7.5093 4.1621 2.6861
-7.4537 3.9536 2.6861
-7.6378 4.7047 2.6861
-7.4818 4.0572 2.6861
-7.4251 3.8512 2.6861
-7.3959 3.7499 2.6861
-7.3662 3.6499 2.6861
-7.3361 3.5511 2.6861
-7.3054 3.4534 2.6861
-7.2743 3.3569 2.6861
-7.2428 3.2615 2.6861
-7.2108 3.1673 2.6861
5.8993 9.3390 2.6861
5.8529 9.4541 2.6861
5.8049 9.5689 2.6861
5.7552 9.6836 2.6861
5.7037 9.7979 2.6861
5.6505 9.9118 2.6861
5.5956 10.0253 2.6861
5.5389 10.1384 2.6861
5.4804 10.2510 2.6861
5.4202 10.3630 2.6861
5.3582 10.4743 2.6861
5.2944 10.5851 2.6861
5.2289 10.6950 2.6861
5.1615 10.8042 2.6861
5.0924 10.9125 2.6861
5.0214 11.0200 2.6861
4.9487 11.1265 2.6861
4.8741 11.2319 2.6861
4.7978 11.3363 2.6861
4.7764 11.5771 2.7184
4.7693 11.8637 2.7610
4.7617 12.1623 2.8060
4.7286 12.4079 2.8385
4.6386 12.5116 2.8385
4.5468 12.6136 2.8385
4.4531 12.7141 2.8385
4.3576 12.8128 2.8385
4.2604 12.9099 2.8385
4.1614 13.0052 2.8385
4.0606 13.0985 2.8385
3.9581 13.1899 2.8385
3.8540 13.2794 2.8385
3.7481 13.3668 2.8385
3.6407 13.4520 2.8385
3.5316 13.5351 2.8385
3.4210 13.6158 2.8385
3.3088 13.6943 2.8385
3.1952 13.7704 2.8385
3.0801 13.8440 2.8385
2.9636 13.9152 2.8385
2.8457 13.9837 2.8385
2.7265 14.0497 2.8385
2.6060 14.1130 2.8385
2.4843 14.1736 2.8385
2.3614 14.2315 2.8385
2.2374 14.2864 2.8385
2.1123 14.3386 2.8385
1.9861 14.3878 2.8385
1.8591 14.4341 2.8385
1.7311 14.4774 2.8385
1.6022 14.5177 2.8385
1.4726 14.5549 2.8385
1.3423 14.5890 2.8385
1.2113 14.6200 2.8385
1.0796 14.6478 2.8385
0.9475 14.6725 2.8385
0.8148 14.6939 2.8385
0.6818 14.7122 2.8385
0.5484 14.7271 2.8385
0.4148 14.7389 2.8385
0.2809 14.7474 2.8385
0.1469 14.7526 2.8385
0.0128 14.7546 2.8385
-0.1213 14.7532 2.8385
-0.2553 14.7487 2.8385
-0.3892 14.7408 2.8385
-0.5229 14.7297 2.8385
-0.6563 14.7153 2.8385
-0.7894 14.6977 2.8385
-0.9222 14.6768 2.8385
-1.0544 14.6528 2.8385
-1.1861 14.6256 2.8385
-1.3173 14.5951 2.8385
-1.4477 14.5617 2.8385
-1.5775 14.5250 2.8385
-1.7065 14.4853 2.8385
-1.8347 14.4426 2.8385
-1.9619 14.3969 2.8385
-2.0882 14.3482 2.8385
-2.2135 14.2966 2.8385
-2.3378 14.2422 2.8385
-2.4609 14.1849 2.8385
-2.5828 14.1248 2.8385
-2.7036 14.0620 2.8385
-2.8230 13.9966 2.8385
-2.9412 13.9285 2.8385
-3.0579 13.8578 2.8385
-3.1733 13.7846 2.8385
-3.2872 13.7090 2.8385
-3.3997 13.6310 2.8385
-3.5106 13.5507 2.8385
-3.6200 13.4681 2.8385
-3.7277 13.3832 2.8385
-3.8339 13.2962 2.8385
-3.9384 13.2072 2.8385
-4.0411 13.1161 2.8385
-4.1422 13.0232 2.8385
-4.2416 12.9283 2.8385
-4.3392 12.8316 2.8385
-4.4350 12.7331 2.8385
-4.5290 12.6329 2.8385
-4.6212 12.5312 2.8385
-4.7115 12.4279 2.8385
-4.8000 12.3231 2.8385
-4.8867 12.2169 2.8385
-4.9715 12.1093 2.8385
-5.0544 12.0004 2.8385
-5.1354 11.8904 2.8385
-5.2145 11.7791 2.8385
-5.2917 11.6668 2.8385
-5.3671 11.5535 2.8385
-5.4405 11.4392 2.8385
-5.5121 11.3240 2.8385
-5.5817 11.2079 2.8385
-5.6495 11.0911 2.8385
-5.6914 10.9275 2.8266
-5.6968 10.7002 2.7979
-5.7019 10.4798 2.7706
-5.7068 10.2663 2.7447
-5.7114 10.0591 2.7200
-5.7159 9.8579 2.6965
-5.7455 9.7055 2.6861
-5.7955 9.5909 2.6861
-5.8439 9.4761 2.6861
-5.8906 9.3610 2.6861
-5.9355 9.2458 2.6861
-5.9789 9.1304 2.6861
-6.0205 9.0150 2.6861
-6.0606 8.8995 2.6861
-6.0990 8.7840 2.6861
-6.1358 8.6685 2.6861
-6.1710 8.5532 2.6861
-6.2047 8.4379 2.6861
-6.2368 8.3227 2.6861
-6.2675 8.2078 2.6861
-6.2966 8.0930 2.6861
-6.3242 7.9785 2.6861
-6.3504 7.8643 2.6861
-6.3751 7.7504 2.6861
-6.3984 7.6369 2.6861
-6.4203 7.5237 2.6861
-6.4408 7.4108 2.6861
-6.4600 7.2985 2.6861
-6.4778 7.1865 2.6861
-6.4944 7.0751 2.6861
-6.5096 6.9641 2.6861
-6.5236 6.8536 2.6861
-6.5363 6.7437 2.6861
-6.5478 6.6343 2.6861
-6.5581 6.5256 2.6861
-6.5672 6.4174 2.6861
-6.5751 6.3097 2.6861
-6.5820 6.2028 2.6861
-6.5877 6.0965 2.6861
-6.5923 5.9908 2.6861
-6.5958 5.8858 2.6861
-6.5983 5.7815 2.6861
-6.5998 5.6779 2.6861
-6.6002 5.5749 2.6861
-6.5997 5.4728 2.6861
-6.5982 5.3713 2.6861
-6.5957 5.2705 2.6861
-6.5924 5.1706 2.6861
-6.5881 5.0714 2.6861
-6.5829 4.9729 2.6861
-6.5769 4.8752 2.6861
-6.5700 4.7782 2.6861
-6.5623 4.6821 2.6861
-6.4867 4.0312 2.6861
-6.5538 4.5867 2.6861
-6.4730 3.9414 2.6861
-6.4586 3.8524 2.6861
-6.4436 3.7643 2.6861
-6.4280 3.6769 2.6861
-6.5445 4.4921 2.6861
-6.4117 3.5903 2.6861
-6.3948 3.5046 2.6861
-6.3774 3.4196 2.6861
-6.3593 3.3355 2.6861
-6.3407 3.2521 2.6861
-6.5344 4.3983 2.6861
-6.3216 3.1696 2.6861
-6.3019 3.0879 2.6861
-6.2817 3.0070 2.6861
-6.2610 2.9268 2.6861
-6.2399 2.8475 2.6861
-6.5235 4.3053 2.6861
-6.5120 4.2132 2.6861
-6.4997 4.1218 2.6861
4.8431 7.8090 2.6861
4.7997 7.8955 2.6861
4.7746 8.0147 2.6971
4.7675 8.1676 2.7194
4.7633 8.3304 2.7445
4.7588 8.4978 2.7708
4.7542 8.6702 2.7983
4.7493 8.8478 2.8272
4.7128 8.9712 2.8385
4.6560 9.0586 2.8385
4.5978 9.1454 2.8385
4.5383 9.2315 2.8385
4.4774 9.3169 2.8385
4.4151 9.4014 2.8385
4.3514 9.4851 2.8385
4.2864 9.5679 2.8385
4.2200 9.6498 2.8385
4.1522 9.7308 2.8385
4.0832 9.8108 2.8385
4.0127 9.8898 2.8385
3.9410 9.9677 2.8385
3.8679 10.0444 2.8385
3.7935 10.1200 2.8385
3.7179 10.1945 2.8385
3.6409 10.2676 2.8385
3.5627 10.3395 2.8385
3.4833 10.4101 2.8385
3.4026 10.4793 2.8385
3.3207 10.5471 2.8385
3.2376 10.6134 2.8385
3.1533 10.6783 2.8385
3.0679 10.7417 2.8385
2.9813 10.8035 2.8385
2.8936 10.8636 2.8385
2.8049 10.9222 2.8385
2.7151 10.9791 2.8385
2.6242 11.0342 2.8385
2.5324 11.0876 2.8385
2.4396 11.1393 2.8385
2.3458 11.1891 2.8385
2.2511 11.2371 2.8385
2.1556 11.2832 2.8385
2.0592 11.3274 2.8385
1.9619 11.3696 2.8385
1.8639 11.4098 2.8385
1.7652 11.4481 2.8385
1.6657 11.4843 2.8385
1.5656 11.5185 2.8385
1.4648 11.5506 2.8385
1.3634 11.5807 2.8385
1.2615 11.6086 2.8385
1.1591 11.6343 2.8385
1.0562 11.6579 2.8385
0.9528 11.6793 2.8385
0.8491 11.6986 2.8385
0.2207 11.7673 2.8385
0.1154 11.7709 2.8385
0.0101 11.7722 2.8385
-0.0953 11.7713 2.8385
0.7450 11.7156 2.8385
-0.2006 11.7682 2.8385
-0.3058 11.7627 2.8385
-0.4109 11.7550 2.8385
-0.5159 11.7451 2.8385
-0.6206 11.7330 2.8385
0.6406 11.7304 2.8385
-0.7250 11.7186 2.8385
-0.8292 11.7020 2.8385
-0.9330 11.6832 2.8385
-1.0364 11.6622 2.8385
-1.1394 11.6390 2.8385
-1.2420 11.6136 2.8385
0.5359 11.7430 2.8385
-1.3440 11.5862 2.8385
-1.4455 11.5565 2.8385
-1.5464 11.5248 2.8385
-1.6466 11.4911 2.8385
0.4310 11.7533 2.8385
-1.7462 11.4552 2.8385
-1.8451 11.4173 2.8385
-1.9433 11.3774 2.8385
-2.0406 11.3356 2.8385
-2.1372 11.2918 2.8385
0.3259 11.7615 2.8385
-3.3049 10.5599 2.8385
-2.2329 11.2461 2.8385
-3.3870 10.4924 2.8385
-3.4679 10.4234 2.8385
-2.7878 10.9332 2.8385
-3.5476 10.3531 2.8385
-3.6261 10.2815 2.8385
-3.7792 10.1344 2.8385
-3.7033 10.2085 2.8385
-2.3278 11.1984 2.8385
-4.2071 9.6654 2.8385
-2.8768 10.8750 2.8385
-4.2738 9.5837 2.8385
-4.3391 9.5010 2.8385
-4.4030 9.4175 2.8385
-3.8538 10.0590 2.8385
-4.4656 9.3331 2.8385
-2.4217 11.1490 2.8385
-4.5268 9.2479 2.8385
-4.5866 9.1620 2.8385
-2.9646 10.8151 2.8385
-4.6450 9.0753 2.8385
-4.7021 8.9880 2.8385
-3.9271 9.9824 2.8385
-4.7578 8.9000 2.8385
-2.5147 11.0977 2.8385
-4.8121 8.8115 2.8385
-3.0514 10.7536 2.8385
-4.8650 8.7223 2.8385
-4.9166 8.6327 2.8385
-3.9991 9.9047 2.8385
-4.9668 8.5426 2.8385
-5.0157 8.4520 2.8385
-2.6068 11.0446 2.8385
-5.0631 8.3610 2.8385
-3.1371 10.6905 2.8385
-5.1093 8.2696 2.8385
-5.1540 8.1778 2.8385
-4.0698 9.8260 2.8385
-5.1975 8.0858 2.8385
-2.6978 10.9897 2.8385
-5.2396 7.9935 2.8385
-3.2216 10.6260 2.8385
-5.2804 7.9009 2.8385
-5.3198 7.8081 2.8385
-4.1391 9.7462 2.8385
-5.3580 7.7152 2.8385
-5.3948 7.6221 2.8385
-5.4304 7.5288 2.8385
-5.6173 6.9684 2.8385
-5.7149 5.7111 2.7664
-5.7161 5.6110 2.7607
-5.7057 6.3491 2.8113
-5.7172 5.5125 2.7554
-5.7182 5.4155 2.7506
-5.4647 7.4355 2.8385
-5.7192 5.3202 2.7462
-5.6442 6.8752 2.8385
-5.7201 5.2262 2.7423
-5.7209 5.1337 2.7388
-5.7244 4.6060 2.7261
-5.7075 6.2381 2.8025
-5.7248 4.5222 2.7253
-5.4977 7.3421 2.8385
-5.7250 4.4396 2.7248
-5.6699 6.7819 2.8385
-5.7253 4.3580 2.7247
-5.7217 5.0426 2.7357
-5.7254 4.2774 2.7250
-5.7091 6.1290 2.7942
-5.7255 4.1978 2.7256
-5.7256 4.1192 2.7265
-5.7256 4.0415 2.7277
-5.6943 6.6888 2.8385
-5.7255 3.9648 2.7293
-5.7224 4.9528 2.7330
-5.7254 3.8889 2.7312
-5.7107 6.0217 2.7865
-5.7252 3.8139 2.7334
-5.7250 3.7397 2.7359
-5.7019 6.5777 2.8306
-5.7247 3.6663 2.7387
-5.7244 3.5937 2.7418
-5.7240 3.5219 2.7452
-5.7236 3.4508 2.7489
-5.7231 3.3803 2.7529
-5.7230 4.8642 2.7307
-5.7226 3.3106 2.7572
-5.7122 5.9164 2.7793
-5.7220 3.2416 2.7617
-5.7213 3.1732 2.7665
-5.7207 3.1054 2.7717
-5.7039 6.4622 2.8207
-5.7199 3.0382 2.7770
-5.7192 2.9716 2.7827
-5.7235 4.7770 2.7288
-5.7183 2.9056 2.7886
-5.7136 5.8129 2.7726
-5.7175 2.8402 2.7948
-5.7240 4.6909 2.7272
-5.7166 2.7753 2.8013
-5.7156 2.7109 2.8080
-5.5295 7.2487 2.8385
-5.5600 7.1552 2.8385
-5.5893 7.0618 2.8385
