ply
format ascii 1.0
element vertex 2144
property float32 x
property float32 y
property float32 z
end_header
6.4859 -2.9535 -0.4209
6.4924 -2.6622 -0.4878
6.4926 -2.5902 -0.5044
6.4860 -2.8792 -0.4375
6.4928 -2.5188 -0.5210
6.4861 -2.8054 -0.4541
6.4930 -2.4479 -0.5376
6.4921 -2.7348 -0.4711
6.4932 -2.3775 -0.5542
6.4940 -2.1007 -0.6208
6.4934 -2.3076 -0.5709
6.4943 -2.0326 -0.6375
6.4936 -2.2382 -0.5875
6.4938 -2.1692 -0.6042
6.4945 -1.9648 -0.6543
6.4949 -1.8305 -0.6878
6.4947 -1.8975 -0.6710
6.4951 -1.7639 -0.7046
6.4957 -1.5660 -0.7553
6.4953 -1.6976 -0.7214
6.4955 -1.6316 -0.7383
6.4959 -1.5006 -0.7722
6.4964 -1.3061 -0.8235
6.4961 -1.4355 -0.7893
6.4966 -1.2417 -0.8407
6.4963 -1.3707 -0.8063
6.4968 -1.1776 -0.8579
6.4972 -1.0499 -0.8926
6.4970 -1.1137 -0.8752
6.4974 -0.9863 -0.9101
6.4980 -0.7966 -0.9629
6.4976 -0.9229 -0.9276
6.4982 -0.7336 -0.9807
6.4978 -0.8597 -0.9452
6.4984 -0.6707 -0.9986
6.4986 -0.6079 -1.0165
6.4988 -0.5452 -1.0346
6.4995 -0.2950 -1.1078
6.4989 -0.4826 -1.0528
6.4997 -0.2326 -1.1264
6.4991 -0.4200 -1.0710
6.4999 -0.1701 -1.1451
6.5001 -0.1077 -1.1640
6.4993 -0.3575 -1.0894
6.5003 -0.0452 -1.1829
6.5005 0.0172 -1.2020
6.4967 0.2048 -1.2592
6.5007 0.0798 -1.2212
6.4969 0.2675 -1.2788
6.5008 0.1424 -1.2405
6.4970 0.3302 -1.2985
6.4972 0.4561 -1.3385
6.4971 0.3931 -1.3185
6.4973 0.5192 -1.3587
6.4977 0.7094 -1.4205
6.4974 0.5824 -1.3791
6.4978 0.7732 -1.4414
6.4976 0.6459 -1.3997
6.4982 0.9657 -1.5053
6.4979 0.8372 -1.4625
6.4983 1.0303 -1.5270
6.4981 0.9013 -1.4838
6.4984 1.0952 -1.5489
6.4987 1.2258 -1.5934
6.4985 1.1604 -1.5711
6.4988 1.2915 -1.6160
6.4992 1.4907 -1.6852
6.4989 1.3576 -1.6388
6.4993 1.5577 -1.7088
6.4994 1.6252 -1.7326
6.4990 1.4239 -1.6619
6.4996 1.6930 -1.7567
6.4997 1.7613 -1.7810
6.5002 2.0389 -1.8814
6.4998 1.8300 -1.8057
6.5003 2.1095 -1.9073
6.4999 1.8992 -1.8306
6.5005 2.1806 -1.9334
6.5006 2.2523 -1.9600
6.5001 1.9688 -1.8559
6.5013 2.6198 -2.0980
6.5008 2.3246 -1.9868
6.5009 2.3975 -2.0141
6.5015 2.6953 -2.1267
6.5010 2.4709 -2.0416
6.5016 2.7714 -2.1558
6.5012 2.5450 -2.0696
6.5018 2.8483 -2.1854
6.5019 2.9260 -2.2154
6.5037 3.2456 -2.3405
6.5021 3.0045 -2.2459
6.5040 3.3275 -2.3729
6.5022 3.0838 -2.2768
6.5042 3.4105 -2.4058
6.5024 3.1639 -2.3082
6.5044 3.4944 -2.4393
6.5046 3.5793 -2.4733
6.5056 3.9300 -2.6153
6.5049 3.6653 -2.5079
6.5058 4.0207 -2.6523
6.5051 3.7524 -2.5431
6.5061 4.1125 -2.6900
6.5054 3.8406 -2.5789
6.5063 4.2057 -2.7285
6.5077 4.6930 -2.9318
6.5066 4.3003 -2.7676
6.5080 4.7952 -2.9749
6.5069 4.3962 -2.8075
6.5082 4.8990 -3.0188
6.5071 4.4936 -2.8481
6.5085 5.0046 -3.0637
6.5074 4.5925 -2.8895
6.5088 5.1120 -3.1095
6.5100 5.5613 -3.3030
6.5091 5.2213 -3.1563
6.5104 5.6790 -3.3541
6.5094 5.3325 -3.2042
6.5107 5.7989 -3.4063
6.5097 5.4459 -3.2530
6.5110 5.9213 -3.4598
6.5114 6.0462 -3.5146
6.5164 6.5765 -3.7495
6.5165 6.7154 -3.8114
6.5117 6.1737 -3.5707
6.5166 6.8574 -3.8748
6.5161 6.3078 -3.6304
6.5168 7.0029 -3.9400
6.5162 6.4407 -3.6892
6.5169 7.1518 -4.0070
6.5170 7.3044 -4.0757
6.5172 7.4608 -4.1464
6.5173 7.6213 -4.2192
6.5175 7.7859 -4.2940
6.5176 7.9550 -4.3711
6.4863 -2.8589 -0.0997
6.4917 -2.7872 -0.1177
6.4920 -2.7138 -0.1356
6.4922 -2.6410 -0.1535
6.4924 -2.5688 -0.1713
6.4933 -2.2854 -0.2421
6.4935 -2.2158 -0.2598
6.4926 -2.4972 -0.1891
6.4937 -2.1467 -0.2774
6.4928 -2.4261 -0.2068
6.4939 -2.0780 -0.2949
6.4930 -2.3555 -0.2245
6.4941 -2.0097 -0.3125
6.4949 -1.7404 -0.3826
6.4943 -1.9418 -0.3300
6.4951 -1.6740 -0.4001
6.4945 -1.8743 -0.3476
6.4953 -1.6080 -0.4177
6.4947 -1.8072 -0.3651
6.4955 -1.5422 -0.4352
6.4957 -1.4767 -0.4527
6.4965 -1.2174 -0.5231
6.4959 -1.4115 -0.4703
6.4967 -1.1532 -0.5407
6.4961 -1.3466 -0.4879
6.4969 -1.0892 -0.5584
6.4963 -1.2819 -0.5054
6.4971 -1.0254 -0.5761
6.4973 -0.9617 -0.5938
6.4980 -0.7087 -0.6652
6.4975 -0.8982 -0.6116
6.4982 -0.6458 -0.6832
6.4976 -0.8349 -0.6294
6.4984 -0.5829 -0.7013
6.4978 -0.7717 -0.6473
6.4988 -0.4575 -0.7375
6.4986 -0.5202 -0.7194
6.4990 -0.3949 -0.7558
6.4996 -0.2074 -0.8109
6.4992 -0.3324 -0.7741
6.4994 -0.2699 -0.7925
6.4997 -0.1449 -0.8295
6.5003 0.0425 -0.8856
6.4999 -0.0825 -0.8481
6.5005 0.1050 -0.9046
6.5001 -0.0200 -0.8668
6.4965 0.1674 -0.9230
6.4966 0.2300 -0.9421
6.4967 0.2927 -0.9613
6.4972 0.5444 -1.0394
6.4969 0.3555 -0.9806
6.4973 0.6076 -1.0592
6.4970 0.4183 -1.0001
6.4975 0.6710 -1.0792
6.4971 0.4813 -1.0197
6.4976 0.7345 -1.0993
6.4982 1.0552 -1.2021
6.4977 0.7983 -1.1195
6.4983 1.1200 -1.2231
6.4978 0.8622 -1.1399
6.4984 1.1851 -1.2444
6.4979 0.9263 -1.1605
6.4986 1.2505 -1.2658
6.4981 0.9906 -1.1812
6.4987 1.3161 -1.2874
6.4992 1.5820 -1.3758
6.4993 1.6493 -1.3984
6.4994 1.7171 -1.4213
6.4988 1.3821 -1.3092
6.4996 1.7852 -1.4443
6.4997 1.8538 -1.4676
6.4989 1.4484 -1.3312
6.4998 1.9228 -1.4912
6.4991 1.5150 -1.3534
6.5000 1.9923 -1.5150
6.5002 2.1327 -1.5634
6.5001 2.0623 -1.5391
6.5004 2.2037 -1.5880
6.5008 2.4200 -1.6636
6.5005 2.2752 -1.6129
6.5009 2.4933 -1.6894
6.5006 2.3473 -1.6381
6.5011 2.5672 -1.7155
6.5013 2.7170 -1.7688
6.5012 2.6417 -1.7420
6.5015 2.7929 -1.7959
6.5019 3.0252 -1.8795
6.5016 2.8696 -1.8234
6.5021 3.1042 -1.9082
6.5018 2.9470 -1.8513
6.5037 3.3470 -1.9969
6.5022 3.1840 -1.9372
6.5035 3.2653 -1.9670
6.5047 3.6833 -2.1212
6.5040 3.4295 -2.0273
6.5049 3.7699 -2.1535
6.5051 3.8577 -2.1864
6.5042 3.5131 -2.0581
6.5054 3.9466 -2.2197
6.5056 4.0368 -2.2536
6.5044 3.5977 -2.0894
6.5059 4.1282 -2.2881
6.5066 4.4102 -2.3953
6.5061 4.2208 -2.3232
6.5069 4.5070 -2.4323
6.5064 4.3148 -2.3589
6.5071 4.6053 -2.4700
6.5074 4.7051 -2.5083
6.5077 4.8065 -2.5475
6.5088 5.2294 -2.7118
6.5080 4.9096 -2.5873
6.5091 5.3397 -2.7550
6.5082 5.0144 -2.6280
6.5094 5.4521 -2.7991
6.5097 5.5666 -2.8441
6.5085 5.1210 -2.6695
6.5101 5.6832 -2.8901
6.5114 6.1731 -3.0847
6.5104 5.8020 -2.9371
6.5153 6.3054 -3.1379
6.5107 5.9232 -2.9852
6.5110 6.0469 -3.0344
6.5154 6.4368 -3.1906
6.5156 6.7083 -3.2998
6.5155 6.5711 -3.2445
6.5157 6.8487 -3.3564
6.5159 6.9924 -3.4145
6.5160 7.1394 -3.4742
6.5161 7.2900 -3.5354
6.5162 7.4443 -3.5982
6.5164 7.6025 -3.6628
6.5165 7.7648 -3.7293
6.5167 7.9313 -3.7976
6.5168 8.1024 -3.8679
4.9075 -2.0921 0.1647
4.8814 -2.0256 0.1493
4.8823 -1.9710 0.1350
6.1729 -2.4230 0.1525
6.1740 -2.3551 0.1344
6.4927 -2.4052 0.1225
6.4929 -2.3345 0.1037
6.2161 -2.1676 0.0813
4.6454 -1.5699 0.0474
4.6344 -1.5167 0.0340
4.6353 -1.4678 0.0208
4.6474 -1.4226 0.0076
6.4941 -1.9198 -0.0078
6.4943 -1.8521 -0.0262
6.4945 -1.7849 -0.0445
6.4947 -1.7180 -0.0628
6.4949 -1.6515 -0.0811
6.4951 -1.5853 -0.0993
6.4953 -1.5194 -0.1175
6.4955 -1.4538 -0.1357
6.4957 -1.3885 -0.1538
6.4959 -1.3234 -0.1719
6.4961 -1.2587 -0.1900
6.4963 -1.1941 -0.2081
6.4965 -1.1298 -0.2262
6.4967 -1.0657 -0.2443
6.4969 -1.0018 -0.2624
6.4971 -0.9381 -0.2805
6.4973 -0.8746 -0.2986
6.4975 -0.8112 -0.3167
6.4977 -0.7480 -0.3348
6.4979 -0.6848 -0.3529
6.4981 -0.6219 -0.3711
6.4983 -0.5590 -0.3893
6.4984 -0.4962 -0.4075
6.4986 -0.4335 -0.4257
6.4988 -0.3709 -0.4440
6.4990 -0.3083 -0.4623
6.4992 -0.2458 -0.4807
6.4994 -0.1833 -0.4991
6.4996 -0.1208 -0.5175
6.4998 -0.0583 -0.5360
6.5000 0.0041 -0.5546
6.5002 0.0667 -0.5732
6.5004 0.1292 -0.5919
6.4964 0.1916 -0.6103
6.4965 0.2542 -0.6291
6.4966 0.3168 -0.6480
6.4968 0.3796 -0.6670
6.4969 0.4424 -0.6861
6.4970 0.5053 -0.7052
6.4971 0.5684 -0.7244
6.4972 0.6316 -0.7438
6.4974 0.6950 -0.7632
6.4975 0.7585 -0.7828
6.4976 0.8222 -0.8024
6.4977 0.8860 -0.8222
6.4978 0.9501 -0.8421
6.4980 1.0144 -0.8621
6.4981 1.0789 -0.8822
6.4987 1.4054 -0.9850
6.4982 1.1436 -0.9025
6.4983 1.2087 -0.9229
6.4988 1.4716 -1.0060
6.4984 1.2739 -0.9434
6.4989 1.5381 -1.0272
6.4986 1.3395 -0.9641
6.4991 1.6050 -1.0485
6.4992 1.6722 -1.0700
6.4997 1.9452 -1.1580
6.4993 1.7399 -1.0917
6.4998 2.0146 -1.1805
6.4994 1.8079 -1.1136
6.5000 2.0844 -1.2032
6.4996 1.8763 -1.1357
6.5001 2.1547 -1.2261
6.5002 2.2255 -1.2493
6.5008 2.5143 -1.3443
6.5004 2.2968 -1.2726
6.5009 2.5880 -1.3687
6.5011 2.6623 -1.3933
6.5012 2.7373 -1.4183
6.5005 2.3687 -1.2963
6.5013 2.8130 -1.4435
6.5006 2.4412 -1.3201
6.5015 2.8894 -1.4691
6.5019 3.1231 -1.5476
6.5016 2.9665 -1.4949
6.5021 3.2027 -1.5745
6.5018 3.0444 -1.5211
6.5033 3.2836 -1.6019
6.5038 3.4471 -1.6575
6.5035 3.3649 -1.6295
6.5040 3.5303 -1.6858
6.5047 3.7859 -1.7734
6.5042 3.6145 -1.7146
6.5049 3.8733 -1.8034
6.5044 3.6997 -1.7438
6.5051 3.9618 -1.8339
6.5056 4.1423 -1.8963
6.5054 4.0514 -1.8649
6.5059 4.2344 -1.9283
6.5066 4.5188 -2.0274
6.5061 4.3278 -1.9608
6.5069 4.6164 -2.0615
6.5064 4.4226 -1.9938
6.5071 4.7155 -2.0963
6.5077 4.9186 -2.1677
6.5074 4.8162 -2.1317
6.5080 5.0226 -2.2044
6.5088 5.3454 -2.3188
6.5083 5.1284 -2.2418
6.5091 5.4568 -2.3584
6.5085 5.2359 -2.2799
6.5094 5.5703 -2.3988
6.5101 5.8036 -2.4822
6.5098 5.6858 -2.4400
6.5104 5.9236 -2.5252
6.5107 6.0461 -2.5691
6.5145 6.3015 -2.6612
6.5146 6.4315 -2.7081
6.5111 6.1710 -2.6140
6.5147 6.5642 -2.7560
6.5149 6.8386 -2.8554
6.5148 6.6999 -2.8052
6.5150 6.9805 -2.9070
6.5151 7.1257 -2.9598
6.5153 7.4265 -3.0695
6.5155 7.5825 -3.1265
6.5152 7.2743 -3.0139
6.5156 7.7425 -3.1851
6.5157 7.9065 -3.2453
6.5158 8.0749 -3.3071
6.5160 8.2479 -3.3707
6.2201 -2.5625 0.5108
6.2213 -2.4928 0.4912
6.2225 -2.4236 0.4717
6.2237 -2.3549 0.4523
6.2249 -2.2867 0.4331
6.4927 -2.3140 0.4317
6.4929 -2.2435 0.4118
6.4931 -2.1736 0.3920
6.4933 -2.1041 0.3723
6.4935 -2.0351 0.3527
4.8909 -1.4811 0.2510
4.8971 -1.4315 0.2367
4.9198 -1.3868 0.2231
4.9207 -1.3359 0.2086
4.9216 -1.2853 0.1941
4.9225 -1.2350 0.1797
4.9234 -1.1849 0.1654
4.8971 -1.1288 0.1502
4.8979 -1.0794 0.1360
6.1925 -1.3023 0.1540
6.1936 -1.2404 0.1362
6.4960 -1.2361 0.1242
6.4962 -1.1714 0.1055
6.4964 -1.1070 0.0869
6.4966 -1.0429 0.0684
4.6489 -0.7005 0.0357
4.6495 -0.6549 0.0224
4.6600 -0.6108 0.0092
6.4973 -0.7881 -0.0056
6.4975 -0.7248 -0.0240
6.4977 -0.6617 -0.0424
6.4979 -0.5986 -0.0608
6.4981 -0.5357 -0.0792
6.4983 -0.4729 -0.0975
6.4985 -0.4102 -0.1159
6.4987 -0.3475 -0.1343
6.4989 -0.2849 -0.1527
6.4991 -0.2224 -0.1711
6.4992 -0.1599 -0.1895
6.4994 -0.0974 -0.2079
6.4996 -0.0349 -0.2264
6.4998 0.0276 -0.2448
6.5000 0.0901 -0.2633
6.4962 0.1525 -0.2817
6.4963 0.2150 -0.3002
6.4964 0.2776 -0.3188
6.4965 0.3402 -0.3375
6.4967 0.4030 -0.3562
6.4968 0.4658 -0.3749
6.4969 0.5287 -0.3937
6.4970 0.5917 -0.4125
6.4971 0.6549 -0.4314
6.4972 0.7182 -0.4504
6.4974 0.7817 -0.4695
6.4975 0.8453 -0.4886
6.4976 0.9091 -0.5078
6.4977 0.9731 -0.5271
6.4978 1.0373 -0.5465
6.4980 1.1018 -0.5659
6.4981 1.1665 -0.5855
6.4982 1.2314 -0.6051
6.4983 1.2966 -0.6249
6.4985 1.3621 -0.6448
6.4986 1.4279 -0.6648
6.4987 1.4940 -0.6849
6.4988 1.5604 -0.7051
6.4990 1.6271 -0.7255
6.4991 1.6943 -0.7460
6.4992 1.7618 -0.7666
6.4993 1.8297 -0.7874
6.4995 1.8980 -0.8083
6.4996 1.9667 -0.8294
6.4997 2.0359 -0.8507
6.4999 2.1056 -0.8721
6.5000 2.1757 -0.8937
6.5001 2.2463 -0.9155
6.5002 2.3175 -0.9375
6.5004 2.3892 -0.9596
6.5005 2.4615 -0.9820
6.5007 2.5343 -1.0045
6.5008 2.6078 -1.0273
6.5009 2.6819 -1.0503
6.5011 2.7567 -1.0736
6.5012 2.8321 -1.0970
6.5014 2.9083 -1.1207
6.5015 2.9851 -1.1447
6.5017 3.0627 -1.1689
6.5018 3.1411 -1.1934
6.5029 3.2208 -1.2184
6.5031 3.3009 -1.2435
6.5033 3.3819 -1.2689
6.5035 3.4638 -1.2946
6.5038 3.5466 -1.3206
6.5040 3.6304 -1.3470
6.5042 3.7151 -1.3736
6.5044 3.8010 -1.4007
6.5047 3.8878 -1.4281
6.5049 3.9758 -1.4559
6.5051 4.0650 -1.4841
6.5054 4.1553 -1.5127
6.5056 4.2469 -1.5417
6.5059 4.3398 -1.5712
6.5061 4.4340 -1.6011
6.5064 4.5295 -1.6314
6.5066 4.6265 -1.6623
6.5069 4.7250 -1.6936
6.5072 4.8250 -1.7255
6.5074 4.9266 -1.7579
6.5077 5.0298 -1.7909
6.5080 5.1348 -1.8244
6.5083 5.2415 -1.8585
6.5086 5.3500 -1.8933
6.5088 5.4605 -1.9287
6.5091 5.5730 -1.9648
6.5095 5.6875 -2.0016
6.5098 5.8042 -2.0390
6.5101 5.9231 -2.0773
6.5104 6.0443 -2.1163
6.5107 6.1680 -2.1561
6.5137 6.2967 -2.1977
6.5138 6.4253 -2.2392
6.5139 6.5565 -2.2816
6.5140 6.6907 -2.3249
6.5141 6.8277 -2.3692
6.5142 6.9679 -2.4146
6.5143 7.1112 -2.4610
6.5144 7.2579 -2.5086
6.5145 7.4081 -2.5573
6.5146 7.5620 -2.6073
6.5147 7.7196 -2.6585
6.5148 7.8813 -2.7111
6.5149 8.0472 -2.7651
6.5150 8.2174 -2.8205
6.5152 8.3923 -2.8775
6.2216 -2.4743 0.8121
6.2228 -2.4048 0.7913
6.2240 -2.3360 0.7706
6.2252 -2.2676 0.7502
6.2264 -2.1997 0.7298
6.2276 -2.1323 0.7097
6.2288 -2.0653 0.6896
6.2299 -1.9988 0.6697
6.2311 -1.9327 0.6500
6.2323 -1.8670 0.6304
6.2334 -1.8018 0.6108
6.2345 -1.7368 0.5915
6.2134 -1.6663 0.5702
6.1873 -1.5953 0.5487
6.2268 -1.5414 0.5330
6.2390 -1.4805 0.5150
6.2401 -1.4172 0.4962
6.2412 -1.3542 0.4774
6.2423 -1.2915 0.4587
6.2434 -1.2290 0.4401
6.2585 -1.1693 0.4225
6.4960 -1.1490 0.4193
6.4962 -1.0845 0.4001
6.4964 -1.0202 0.3810
6.4966 -0.9562 0.3620
4.9050 -0.6737 0.2590
4.9059 -0.6258 0.2448
4.9339 -0.5811 0.2319
4.9348 -0.5331 0.2176
4.9356 -0.4852 0.2034
4.9365 -0.4373 0.1892
6.2339 -0.4919 0.2211
6.2350 -0.4316 0.2033
6.4983 -0.3871 0.1933
6.4985 -0.3244 0.1747
6.4987 -0.2618 0.1562
6.4989 -0.1992 0.1377
6.4991 -0.1367 0.1192
6.4993 -0.0742 0.1008
6.4995 -0.0117 0.0823
6.4997 0.0508 0.0639
6.4999 0.1133 0.0454
6.4961 0.1756 0.0270
6.4962 0.2382 0.0086
6.4963 0.3007 -0.0099
6.4964 0.3633 -0.0283
6.4965 0.4260 -0.0468
6.4967 0.4888 -0.0653
6.4968 0.5517 -0.0838
6.4969 0.6147 -0.1023
6.4970 0.6778 -0.1208
6.4971 0.7411 -0.1394
6.4973 0.8045 -0.1580
6.4974 0.8681 -0.1767
6.4975 0.9319 -0.1954
6.4976 0.9958 -0.2141
6.4977 1.0599 -0.2329
6.4979 1.1243 -0.2518
6.4980 1.1889 -0.2707
6.4981 1.2538 -0.2897
6.4982 1.3189 -0.3088
6.4983 1.3843 -0.3279
6.4985 1.4500 -0.3471
6.4986 1.5159 -0.3664
6.4987 1.5823 -0.3857
6.4988 1.6489 -0.4052
6.4990 1.7159 -0.4248
6.4991 1.7833 -0.4444
6.4992 1.8510 -0.4642
6.4993 1.9192 -0.4841
6.4995 1.9878 -0.5040
6.4996 2.0568 -0.5241
6.4997 2.1263 -0.5444
6.4999 2.1963 -0.5647
6.5000 2.2668 -0.5852
6.5001 2.3377 -0.6059
6.5003 2.4092 -0.6267
6.5004 2.4813 -0.6476
6.5005 2.5540 -0.6687
6.5007 2.6272 -0.6900
6.5008 2.7011 -0.7114
6.5009 2.7756 -0.7330
6.5011 2.8508 -0.7548
6.5012 2.9266 -0.7768
6.5014 3.0032 -0.7990
6.5015 3.0805 -0.8214
6.5017 3.1586 -0.8440
6.5027 3.2380 -0.8670
6.5029 3.3178 -0.8900
6.5031 3.3984 -0.9133
6.5033 3.4799 -0.9369
6.5036 3.5623 -0.9607
6.5038 3.6457 -0.9848
6.5040 3.7301 -1.0092
6.5042 3.8155 -1.0338
6.5044 3.9019 -1.0587
6.5047 3.9894 -1.0840
6.5049 4.0781 -1.1096
6.5051 4.1679 -1.1354
6.5054 4.2590 -1.1617
6.5056 4.3513 -1.1882
6.5059 4.4449 -1.2152
6.5061 4.5398 -1.2425
6.5064 4.6361 -1.2702
6.5066 4.7339 -1.2984
6.5069 4.8332 -1.3269
6.5072 4.9341 -1.3559
6.5074 5.0365 -1.3853
6.5077 5.1407 -1.4152
6.5080 5.2466 -1.4456
6.5083 5.3543 -1.4765
6.5086 5.4638 -1.5080
6.5089 5.5753 -1.5399
6.5092 5.6888 -1.5725
6.5095 5.8044 -1.6056
6.5098 5.9222 -1.6393
6.5101 6.0422 -1.6737
6.5104 6.1646 -1.7088
6.5129 6.2916 -1.7451
6.5130 6.4188 -1.7815
6.5131 6.5486 -1.8186
6.5132 6.6812 -1.8566
6.5132 6.8167 -1.8953
6.5133 6.9551 -1.9348
6.5134 7.0967 -1.9753
6.5135 7.2415 -2.0167
6.5136 7.3897 -2.0590
6.5137 7.5414 -2.1023
6.5138 7.6969 -2.1467
6.5139 7.8563 -2.1921
6.5140 8.0197 -2.2388
6.5141 8.1873 -2.2866
6.5142 8.3595 -2.3356
6.5143 8.5362 -2.3860
6.2232 -2.3859 1.1139
6.2244 -2.3168 1.0918
6.2256 -2.2482 1.0701
6.2268 -2.1801 1.0485
6.2280 -2.1126 1.0270
6.2291 -2.0454 1.0058
6.2303 -1.9788 0.9848
6.2315 -1.9125 0.9639
6.2326 -1.8467 0.9433
6.2338 -1.7812 0.9227
6.1855 -1.7026 0.8952
6.2138 -1.6456 0.8790
6.2187 -1.5824 0.8595
6.2383 -1.5231 0.8422
6.2394 -1.4594 0.8224
6.2405 -1.3960 0.8028
6.2416 -1.3329 0.7832
6.2427 -1.2700 0.7638
6.2438 -1.2074 0.7446
6.2449 -1.1451 0.7254
6.2460 -1.0830 0.7063
6.2471 -1.0211 0.6874
6.2481 -0.9593 0.6685
6.2492 -0.8978 0.6498
6.2503 -0.8365 0.6311
6.2514 -0.7753 0.6125
6.2524 -0.7143 0.5940
5.3766 -0.5617 0.4949
5.3775 -0.5095 0.4791
5.4360 -0.4622 0.4684
6.4978 -0.4895 0.5409
6.4980 -0.4266 0.5220
6.4982 -0.3639 0.5031
6.4984 -0.3012 0.4844
6.4986 -0.2385 0.4657
6.4987 -0.1759 0.4470
6.4989 -0.1134 0.4284
6.4991 -0.0509 0.4098
6.4993 0.0116 0.3913
6.4995 0.0740 0.3728
6.4997 0.1365 0.3544
6.4960 0.1989 0.3358
6.4961 0.2614 0.3175
6.4962 0.3239 0.2991
6.4963 0.3865 0.2808
6.4964 0.4492 0.2625
6.4966 0.5119 0.2442
6.4967 0.5748 0.2260
6.4968 0.6377 0.2077
6.4969 0.7008 0.1895
6.4970 0.7640 0.1712
6.4971 0.8274 0.1530
6.4973 0.8909 0.1347
6.4974 0.9546 0.1164
6.4975 1.0185 0.0981
6.4976 1.0826 0.0798
6.4977 1.1469 0.0615
6.4979 1.2114 0.0432
6.4980 1.2761 0.0248
6.4981 1.3412 0.0064
6.4982 1.4065 -0.0121
6.4984 1.4720 -0.0305
6.4985 1.5379 -0.0491
6.4986 1.6041 -0.0677
6.4987 1.6707 -0.0863
6.4989 1.7375 -0.1050
6.4990 1.8048 -0.1237
6.4991 1.8724 -0.1425
6.4992 1.9404 -0.1614
6.4994 2.0089 -0.1804
6.4995 2.0777 -0.1994
6.4996 2.1470 -0.2185
6.4997 2.2168 -0.2377
6.4999 2.2871 -0.2570
6.5000 2.3579 -0.2764
6.5001 2.4292 -0.2959
6.5003 2.5011 -0.3155
6.5004 2.5735 -0.3353
6.5005 2.6465 -0.3551
6.5007 2.7202 -0.3751
6.5008 2.7944 -0.3951
6.5010 2.8693 -0.4154
6.5011 2.9449 -0.4357
6.5012 3.0212 -0.4562
6.5014 3.0983 -0.4769
6.5015 3.1761 -0.4977
6.5025 3.2551 -0.5188
6.5027 3.3345 -0.5400
6.5029 3.4148 -0.5613
6.5031 3.4959 -0.5828
6.5033 3.5780 -0.6046
6.5036 3.6610 -0.6265
6.5038 3.7449 -0.6486
6.5040 3.8299 -0.6710
6.5042 3.9159 -0.6936
6.5045 4.0029 -0.7164
6.5047 4.0911 -0.7395
6.5049 4.1804 -0.7628
6.5052 4.2709 -0.7864
6.5054 4.3627 -0.8103
6.5056 4.4557 -0.8344
6.5059 4.5500 -0.8588
6.5061 4.6457 -0.8836
6.5064 4.7429 -0.9087
6.5067 4.8415 -0.9340
6.5069 4.9416 -0.9598
6.5072 5.0433 -0.9859
6.5074 5.1467 -1.0123
6.5077 5.2517 -1.0392
6.5080 5.3585 -1.0664
6.5083 5.4671 -1.0941
6.5086 5.5777 -1.1222
6.5089 5.6902 -1.1507
6.5092 5.8047 -1.1797
6.5095 5.9214 -1.2092
6.5098 6.0403 -1.2392
6.5101 6.1615 -1.2697
6.5121 6.2867 -1.3011
6.5122 6.4126 -1.3327
6.5123 6.5410 -1.3649
6.5124 6.6721 -1.3977
6.5124 6.8060 -1.4312
6.5125 6.9428 -1.4653
6.5126 7.0826 -1.5001
6.5127 7.2256 -1.5356
6.5128 7.3719 -1.5719
6.5129 7.5216 -1.6090
6.5130 7.6749 -1.6469
6.5130 7.8320 -1.6857
6.5131 7.9930 -1.7254
6.5132 8.1582 -1.7660
6.5133 8.3276 -1.8077
6.5134 8.5016 -1.8503
6.5135 8.6803 -1.8941
6.2247 -2.2970 1.4174
6.2259 -2.2282 1.3942
6.2271 -2.1600 1.3712
6.2283 -2.0922 1.3485
6.2295 -2.0249 1.3260
6.2307 -1.9581 1.3038
6.2318 -1.8917 1.2817
6.2330 -1.8257 1.2599
6.2341 -1.7601 1.2383
6.1983 -1.6849 1.2096
6.2141 -1.6243 1.1914
6.3109 -1.5840 1.1884
6.2386 -1.5015 1.1537
6.2398 -1.4377 1.1330
6.2409 -1.3742 1.1125
6.2420 -1.3110 1.0922
6.2431 -1.2480 1.0720
6.2442 -1.1853 1.0520
6.2453 -1.1229 1.0321
6.2464 -1.0607 1.0123
6.2474 -0.9987 0.9927
6.2485 -0.9370 0.9733
6.2496 -0.8754 0.9540
6.2507 -0.8140 0.9348
6.2518 -0.7527 0.9157
6.2528 -0.6917 0.8967
5.3769 -0.5423 0.7548
5.3779 -0.4900 0.7386
6.1210 -0.4982 0.8223
6.4976 -0.4658 0.8535
6.4978 -0.4029 0.8343
6.4980 -0.3401 0.8151
6.4982 -0.2774 0.7960
6.4984 -0.2148 0.7771
6.4986 -0.1522 0.7582
6.4988 -0.0897 0.7394
6.4990 -0.0272 0.7207
6.4992 0.0353 0.7020
6.4994 0.0978 0.6835
6.4958 0.1601 0.6646
6.4959 0.2226 0.6462
6.4960 0.2850 0.6278
6.4961 0.3476 0.6095
6.4962 0.4101 0.5913
6.4963 0.4728 0.5731
6.4965 0.5355 0.5549
6.4966 0.5983 0.5368
6.4967 0.6612 0.5188
6.4968 0.7242 0.5008
6.4969 0.7874 0.4828
6.4970 0.8507 0.4648
6.4972 0.9142 0.4469
6.4973 0.9778 0.4290
6.4974 1.0416 0.4111
6.4975 1.1056 0.3933
6.4976 1.1698 0.3754
6.4978 1.2342 0.3576
6.4979 1.2989 0.3397
6.4980 1.3638 0.3219
6.4981 1.4290 0.3041
6.4982 1.4945 0.2863
6.4984 1.5603 0.2684
6.4985 1.6264 0.2506
6.4986 1.6928 0.2327
6.4987 1.7595 0.2148
6.4989 1.8266 0.1969
6.4990 1.8941 0.1790
6.4991 1.9620 0.1610
6.4992 2.0303 0.1430
6.4994 2.0990 0.1250
6.4995 2.1681 0.1069
6.4996 2.2377 0.0888
6.4998 2.3078 0.0706
6.4999 2.3784 0.0523
6.5000 2.4495 0.0341
6.5002 2.5212 0.0157
6.5003 2.5934 -0.0027
6.5004 2.6662 -0.0212
6.5006 2.7396 -0.0398
6.5007 2.8136 -0.0584
6.5008 2.8883 -0.0772
6.5010 2.9636 -0.0960
6.5011 3.0396 -0.1149
6.5013 3.1164 -0.1339
6.5014 3.1939 -0.1531
6.5023 3.2725 -0.1723
6.5025 3.3516 -0.1917
6.5027 3.4316 -0.2112
6.5029 3.5123 -0.2308
6.5031 3.5940 -0.2505
6.5034 3.6766 -0.2704
6.5036 3.7602 -0.2905
6.5038 3.8447 -0.3107
6.5040 3.9302 -0.3310
6.5042 4.0168 -0.3515
6.5045 4.1045 -0.3722
6.5047 4.1933 -0.3931
6.5049 4.2833 -0.4142
6.5052 4.3745 -0.4355
6.5054 4.4670 -0.4569
6.5057 4.5607 -0.4786
6.5059 4.6558 -0.5006
6.5061 4.7523 -0.5227
6.5064 4.8502 -0.5451
6.5067 4.9496 -0.5677
6.5069 5.0506 -0.5907
6.5072 5.1531 -0.6138
6.5075 5.2573 -0.6373
6.5077 5.3633 -0.6611
6.5080 5.4710 -0.6852
6.5083 5.5806 -0.7096
6.5086 5.6922 -0.7343
6.5089 5.8057 -0.7594
6.5092 5.9213 -0.7848
6.5095 6.0390 -0.8107
6.5098 6.1590 -0.8369
6.5114 6.2826 -0.8637
6.5115 6.4072 -0.8907
6.5115 6.5342 -0.9182
6.5116 6.6638 -0.9462
6.5117 6.7962 -0.9746
6.5117 6.9314 -1.0035
6.5118 7.0695 -1.0330
6.5119 7.2107 -1.0630
6.5120 7.3552 -1.0936
6.5120 7.5029 -1.1248
6.5121 7.6542 -1.1566
6.5122 7.8091 -1.1891
6.5123 7.9678 -1.2223
6.5124 8.1305 -1.2562
6.5124 8.2974 -1.2908
6.5125 8.4686 -1.3262
6.5126 8.6444 -1.3625
6.5127 8.8250 -1.3996
6.2263 -2.2071 1.7241
6.2275 -2.1387 1.6997
6.2287 -2.0708 1.6755
6.2299 -2.0033 1.6517
6.2310 -1.9363 1.6281
6.2322 -1.8698 1.6048
6.2334 -1.8037 1.5817
6.2345 -1.7380 1.5589
6.2134 -1.6667 1.5309
6.1874 -1.5950 1.5020
6.2379 -1.5431 1.4919
6.2390 -1.4789 1.4700
6.2402 -1.4150 1.4484
6.2413 -1.3514 1.4269
6.2424 -1.2881 1.4057
6.2435 -1.2251 1.3846
6.2446 -1.1623 1.3637
6.2457 -1.0998 1.3431
6.2468 -1.0375 1.3226
6.2479 -0.9755 1.3023
6.2489 -0.9136 1.2821
6.2500 -0.8520 1.2621
6.2511 -0.7905 1.2423
6.2522 -0.7293 1.2227
5.3492 -0.5715 1.0292
5.3773 -0.5220 1.0178
5.3510 -0.4673 0.9962
6.2068 -0.4817 1.1364
6.4975 -0.4412 1.1698
6.4977 -0.3783 1.1501
6.4979 -0.3155 1.1305
6.4981 -0.2528 1.1111
6.4983 -0.1901 1.0918
6.4984 -0.1275 1.0726
6.4986 -0.0650 1.0536
6.4988 -0.0025 1.0346
6.4990 0.0600 1.0158
6.4992 0.1224 0.9971
6.4956 0.1847 0.9779
6.4958 0.2471 0.9594
6.4959 0.3096 0.9410
6.4960 0.3721 0.9227
6.4961 0.4346 0.9044
6.4962 0.4972 0.8863
6.4963 0.5599 0.8682
6.4965 0.6226 0.8502
6.4966 0.6855 0.8323
6.4967 0.7485 0.8145
6.4968 0.8116 0.7967
6.4969 0.8748 0.7790
6.4971 0.9382 0.7613
6.4972 1.0018 0.7437
6.4973 1.0655 0.7262
6.4974 1.1294 0.7087
6.4975 1.1935 0.6913
6.4977 1.2579 0.6739
6.4978 1.3225 0.6566
6.4979 1.3873 0.6392
6.4980 1.4524 0.6220
6.4981 1.5178 0.6047
6.4983 1.5834 0.5875
6.4984 1.6494 0.5703
6.4985 1.7157 0.5532
6.4986 1.7823 0.5360
6.4987 1.8493 0.5189
6.4989 1.9166 0.5017
6.4990 1.9843 0.4846
6.4991 2.0525 0.4675
6.4993 2.1210 0.4504
6.4994 2.1900 0.4333
6.4995 2.2594 0.4162
6.4996 2.3293 0.3991
6.4998 2.3997 0.3819
6.4999 2.4707 0.3648
6.5000 2.5421 0.3476
6.5002 2.6141 0.3304
6.5003 2.6867 0.3132
6.5004 2.7598 0.2959
6.5006 2.8336 0.2786
6.5007 2.9080 0.2613
6.5008 2.9831 0.2439
6.5010 3.0588 0.2265
6.5011 3.1353 0.2091
6.5019 3.2128 0.1916
6.5021 3.2908 0.1740
6.5023 3.3695 0.1563
6.5025 3.4491 0.1386
6.5027 3.5296 0.1208
6.5029 3.6109 0.1030
6.5031 3.6931 0.0850
6.5034 3.7762 0.0670
6.5036 3.8603 0.0489
6.5038 3.9454 0.0307
6.5040 4.0316 0.0123
6.5042 4.1188 -0.0061
6.5045 4.2071 -0.0247
6.5047 4.2966 -0.0433
6.5049 4.3872 -0.0621
6.5052 4.4791 -0.0811
6.5054 4.5723 -0.1001
6.5057 4.6668 -0.1194
6.5059 4.7626 -0.1387
6.5062 4.8598 -0.1583
6.5064 4.9585 -0.1780
6.5067 5.0588 -0.1978
6.5069 5.1606 -0.2179
6.5072 5.2640 -0.2382
6.5075 5.3691 -0.2586
6.5077 5.4760 -0.2793
6.5080 5.5847 -0.3002
6.5083 5.6953 -0.3213
6.5086 5.8078 -0.3426
6.5089 5.9223 -0.3642
6.5092 6.0390 -0.3861
6.5095 6.1578 -0.4082
6.5107 6.2798 -0.4307
6.5107 6.4031 -0.4534
6.5108 6.5288 -0.4764
6.5108 6.6570 -0.4997
6.5109 6.7879 -0.5234
6.5110 6.9215 -0.5474
6.5110 7.0580 -0.5718
6.5111 7.1975 -0.5966
6.5112 7.3401 -0.6218
6.5112 7.4860 -0.6474
6.5113 7.6353 -0.6734
6.5114 7.7880 -0.6999
6.5114 7.9445 -0.7269
6.5115 8.1049 -0.7544
6.5116 8.2693 -0.7825
6.5116 8.4379 -0.8111
6.5117 8.6110 -0.8402
6.5118 8.7886 -0.8700
6.5119 8.9712 -0.9005
6.2279 -2.1160 2.0353
6.2291 -2.0479 2.0097
6.2303 -1.9803 1.9843
6.2314 -1.9132 1.9593
6.2326 -1.8465 1.9346
6.2338 -1.7802 1.9102
6.1855 -1.7008 1.8712
6.2138 -1.6431 1.8557
6.2323 -1.5827 1.8374
6.2383 -1.5192 1.8156
6.2395 -1.4549 1.7926
6.2406 -1.3909 1.7698
6.2417 -1.3272 1.7474
6.2428 -1.2638 1.7251
6.2439 -1.2007 1.7031
6.2450 -1.1379 1.6813
6.2461 -1.0753 1.6598
6.2472 -1.0130 1.6385
6.2483 -0.9509 1.6174
6.2494 -0.8890 1.5965
6.2505 -0.8273 1.5758
6.2515 -0.7658 1.5553
6.2526 -0.7044 1.5350
5.3768 -0.5531 1.3024
5.3777 -0.5006 1.2853
6.1137 -0.5095 1.4417
6.4971 -0.4783 1.5115
6.4973 -0.4152 1.4911
6.4975 -0.3523 1.4709
6.4977 -0.2895 1.4509
6.4979 -0.2268 1.4310
6.4981 -0.1641 1.4114
6.4983 -0.1016 1.3918
6.4985 -0.0391 1.3724
6.4987 0.0234 1.3532
6.4989 0.0859 1.3341
6.4954 0.1482 1.3145
6.4955 0.2105 1.2957
6.4957 0.2730 1.2770
6.4958 0.3354 1.2584
6.4959 0.3978 1.2400
6.4960 0.4603 1.2217
6.4961 0.5229 1.2036
6.4962 0.5855 1.1855
6.4964 0.6482 1.1676
6.4965 0.7111 1.1497
6.4966 0.7740 1.1320
6.4967 0.8370 1.1144
6.4968 0.9002 1.0969
6.4969 0.9635 1.0794
6.4971 1.0270 1.0621
6.4972 1.0906 1.0448
6.4973 1.1545 1.0277
6.4974 1.2185 1.0106
6.4975 1.2828 0.9936
6.4977 1.3473 0.9767
6.4978 1.4120 0.9598
6.4979 1.4770 0.9430
6.4980 1.5422 0.9263
6.4981 1.6078 0.9097
6.4983 1.6736 0.8931
6.4984 1.7398 0.8765
6.4985 1.8063 0.8601
6.4986 1.8731 0.8436
6.4988 1.9403 0.8273
6.4989 2.0079 0.8109
6.4990 2.0758 0.7947
6.4991 2.1442 0.7784
6.4993 2.2130 0.7622
6.4994 2.2823 0.7460
6.4995 2.3520 0.7299
6.4997 2.4222 0.7138
6.4998 2.4929 0.6977
6.4999 2.5642 0.6817
6.5000 2.6360 0.6656
6.5002 2.7083 0.6496
6.5003 2.7812 0.6336
6.5004 2.8547 0.6176
6.5006 2.9289 0.6016
6.5007 3.0037 0.5856
6.5009 3.0792 0.5697
6.5010 3.1554 0.5537
6.5017 3.2326 0.5377
6.5019 3.3102 0.5217
6.5021 3.3887 0.5057
6.5023 3.4679 0.4897
6.5025 3.5480 0.4737
6.5027 3.6290 0.4576
6.5029 3.7108 0.4415
6.5032 3.7935 0.4254
6.5034 3.8772 0.4093
6.5036 3.9619 0.3931
6.5038 4.0476 0.3768
6.5040 4.1344 0.3606
6.5043 4.2222 0.3443
6.5045 4.3112 0.3279
6.5047 4.4013 0.3114
6.5049 4.4926 0.2950
6.5052 4.5852 0.2784
6.5054 4.6791 0.2618
6.5057 4.7743 0.2450
6.5059 4.8709 0.2283
6.5062 4.9689 0.2114
6.5064 5.0685 0.1944
6.5067 5.1695 0.1774
6.5069 5.2722 0.1602
6.5072 5.3765 0.1429
6.5075 5.4825 0.1255
6.5078 5.5903 0.1080
6.5080 5.7000 0.0904
6.5083 5.8115 0.0726
6.5086 5.9250 0.0547
6.5089 6.0406 0.0366
6.5092 6.1584 0.0184
6.5099 6.2788 0.0000
6.5100 6.4008 -0.0186
6.5100 6.5252 -0.0373
6.5101 6.6521 -0.0562
6.5101 6.7815 -0.0753
6.5102 6.9137 -0.0947
6.5102 7.0486 -0.1142
6.5103 7.1864 -0.1340
6.5104 7.3273 -0.1541
6.5104 7.4713 -0.1743
6.5105 7.6187 -0.1949
6.5105 7.7694 -0.2157
6.5106 7.9238 -0.2368
6.5106 8.0819 -0.2583
6.5107 8.2439 -0.2800
6.5108 8.4100 -0.3021
6.5108 8.5804 -0.3246
6.5109 8.7553 -0.3474
6.5110 8.9349 -0.3706
6.5110 9.1194 -0.3942
5.8174 -1.8892 2.1969
5.8655 -1.8407 2.1893
5.9240 -1.7948 2.1855
5.9898 -1.7502 2.1842
5.8487 -1.6464 2.1081
6.0715 -1.6446 2.1633
6.2142 -1.6176 2.1886
6.4934 -1.6221 2.2607
6.2388 -1.4935 2.1472
6.2399 -1.4290 2.1230
6.2410 -1.3649 2.0991
6.2422 -1.3012 2.0755
6.2433 -1.2377 2.0521
6.2444 -1.1745 2.0291
6.2455 -1.1116 2.0063
6.2466 -1.0490 1.9838
6.2477 -0.9866 1.9616
6.2488 -0.9245 1.9396
6.2498 -0.8625 1.9179
6.2509 -0.8008 1.8964
6.2520 -0.7392 1.8751
5.3490 -0.5799 1.5860
5.3772 -0.5302 1.5762
5.3508 -0.4753 1.5506
6.2067 -0.4908 1.7781
6.4970 -0.4506 1.8400
6.4972 -0.3875 1.8190
6.4974 -0.3246 1.7983
6.4976 -0.2618 1.7777
6.4978 -0.1991 1.7574
6.4979 -0.1364 1.7372
6.4981 -0.0739 1.7173
6.4983 -0.0114 1.6975
6.4985 0.0511 1.6779
6.4987 0.1135 1.6585
6.4953 0.1758 1.6384
6.4954 0.2381 1.6193
6.4956 0.3005 1.6004
6.4957 0.3629 1.5817
6.4958 0.4253 1.5631
6.4959 0.4878 1.5447
6.4960 0.5503 1.5265
6.4961 0.6129 1.5084
6.4963 0.6755 1.4904
6.4964 0.7383 1.4726
6.4965 0.8011 1.4549
6.4966 0.8641 1.4374
6.4967 0.9272 1.4200
6.4968 0.9904 1.4027
6.4970 1.0539 1.3855
6.4971 1.1174 1.3685
6.4972 1.1812 1.3516
6.4973 1.2451 1.3348
6.4974 1.3093 1.3181
6.4976 1.3737 1.3016
6.4977 1.4383 1.2851
6.4978 1.5032 1.2688
6.4979 1.5683 1.2525
6.4980 1.6337 1.2364
6.4982 1.6995 1.2203
6.4983 1.7655 1.2044
6.4984 1.8319 1.1885
6.4985 1.8986 1.1728
6.4987 1.9656 1.1571
6.4988 2.0330 1.1415
6.4989 2.1009 1.1260
6.4990 2.1691 1.1105
6.4992 2.2377 1.0952
6.4993 2.3068 1.0799
6.4994 2.3764 1.0647
6.4995 2.4464 1.0496
6.4997 2.5169 1.0345
6.4998 2.5879 1.0195
6.4999 2.6595 1.0045
6.5001 2.7316 0.9897
6.5002 2.8043 0.9748
6.5003 2.8776 0.9601
6.5005 2.9515 0.9453
6.5006 3.0260 0.9307
6.5007 3.1012 0.9161
6.5009 3.1771 0.9015
6.5015 3.2540 0.8870
6.5017 3.3314 0.8726
6.5019 3.4095 0.8581
6.5021 3.4884 0.8437
6.5023 3.5682 0.8294
6.5025 3.6488 0.8150
6.5027 3.7302 0.8007
6.5030 3.8126 0.7865
6.5032 3.8959 0.7722
6.5034 3.9802 0.7580
6.5036 4.0654 0.7438
6.5038 4.1517 0.7296
6.5040 4.2391 0.7154
6.5043 4.3276 0.7012
6.5045 4.4172 0.6871
6.5047 4.5080 0.6729
6.5050 4.6000 0.6588
6.5052 4.6933 0.6446
6.5054 4.7879 0.6305
6.5057 4.8839 0.6163
6.5059 4.9813 0.6022
6.5062 5.0801 0.5880
6.5064 5.1804 0.5738
6.5067 5.2824 0.5596
6.5069 5.3859 0.5454
6.5072 5.4911 0.5312
6.5075 5.5980 0.5169
6.5078 5.7068 0.5026
6.5080 5.8174 0.4882
6.5083 5.9299 0.4739
6.5086 6.0445 0.4595
6.5089 6.1612 0.4450
6.5092 6.2800 0.4305
6.5092 6.4009 0.4159
6.5093 6.5240 0.4013
6.5093 6.6496 0.3866
6.5094 6.7777 0.3718
6.5094 6.9084 0.3569
6.5095 7.0418 0.3420
6.5095 7.1780 0.3270
6.5096 7.3172 0.3119
6.5096 7.4595 0.2967
6.5097 7.6050 0.2814
6.5097 7.7538 0.2660
6.5098 7.9061 0.2505
6.5098 8.0621 0.2349
6.5099 8.2218 0.2191
6.5099 8.3855 0.2032
6.5100 8.5534 0.1872
6.5100 8.7256 0.1710
6.5101 8.9023 0.1546
6.5101 9.0839 0.1381
6.5114 9.2720 0.1214
6.2512 -1.9341 2.6860
6.3189 -1.8863 2.6860
6.3870 -1.8377 2.6860
6.4556 -1.7883 2.6860
6.2136 -1.6551 2.5579
6.1876 -1.5828 2.5204
6.4932 -1.5927 2.6171
5.6909 -1.3365 2.2697
5.6993 -1.2794 2.2493
5.7153 -1.2240 2.2322
5.7407 -1.1705 2.2189
5.7720 -1.1179 2.2080
5.8115 -1.0665 2.2002
5.8540 -1.0151 2.1935
5.8997 -0.9637 2.1880
5.9516 -0.9125 2.1847
6.0128 -0.8619 2.1847
6.0902 -0.8125 2.1904
6.4956 -0.8022 2.3125
6.2525 -0.7105 2.2035
5.3767 -0.5581 1.8757
5.3776 -0.5054 1.8572
6.1107 -0.5146 2.0891
6.4966 -0.4838 2.1989
6.4968 -0.4206 2.1769
6.4970 -0.3575 2.1553
6.4972 -0.2946 2.1338
6.4974 -0.2318 2.1127
6.4976 -0.1691 2.0918
6.4978 -0.1065 2.0711
6.4980 -0.0440 2.0506
6.4982 0.0185 2.0304
6.4984 0.0810 2.0103
6.4986 0.1434 1.9906
6.4952 0.2056 1.9699
6.4953 0.2679 1.9505
6.4954 0.3302 1.9313
6.4956 0.3926 1.9123
6.4957 0.4549 1.8936
6.4958 0.5173 1.8750
6.4959 0.5798 1.8566
6.4960 0.6423 1.8383
6.4962 0.7049 1.8203
6.4963 0.7676 1.8024
6.4964 0.8304 1.7848
6.4965 0.8933 1.7672
6.4966 0.9563 1.7499
6.4967 1.0195 1.7327
6.4969 1.0828 1.7157
6.4970 1.1463 1.6988
6.4971 1.2100 1.6821
6.4972 1.2738 1.6656
6.4973 1.3379 1.6492
6.4974 1.4022 1.6329
6.4976 1.4667 1.6168
6.4977 1.5315 1.6008
6.4978 1.5965 1.5850
6.4979 1.6618 1.5693
6.4980 1.7274 1.5538
6.4982 1.7933 1.5383
6.4983 1.8596 1.5230
6.4984 1.9261 1.5079
6.4985 1.9930 1.4928
6.4987 2.0603 1.4779
6.4988 2.1279 1.4631
6.4989 2.1960 1.4484
6.4990 2.2645 1.4338
6.4992 2.3334 1.4194
6.4993 2.4028 1.4051
6.4994 2.4726 1.3908
6.4995 2.5429 1.3767
6.4997 2.6138 1.3627
6.4998 2.6851 1.3488
6.4999 2.7570 1.3350
6.5001 2.8295 1.3213
6.5002 2.9026 1.3077
6.5003 2.9762 1.2942
6.5005 3.0505 1.2808
6.5006 3.1255 1.2675
6.5007 3.2011 1.2543
6.5013 3.2776 1.2412
6.5015 3.3547 1.2282
6.5017 3.4325 1.2153
6.5019 3.5112 1.2024
6.5021 3.5906 1.1897
6.5023 3.6708 1.1770
6.5025 3.7519 1.1644
6.5027 3.8339 1.1519
6.5030 3.9168 1.1395
6.5032 4.0007 1.1271
6.5034 4.0855 1.1149
6.5036 4.1714 1.1027
6.5038 4.2583 1.0906
6.5040 4.3463 1.0785
6.5043 4.4354 1.0666
6.5045 4.5257 1.0547
6.5047 4.6172 1.0429
6.5050 4.7099 1.0311
6.5052 4.8040 1.0195
6.5054 4.8993 1.0079
6.5057 4.9961 0.9963
6.5059 5.0942 0.9849
6.5062 5.1939 0.9735
6.5064 5.2951 0.9621
6.5067 5.3978 0.9509
6.5070 5.5023 0.9397
6.5072 5.6084 0.9285
6.5075 5.7163 0.9174
6.5078 5.8260 0.9064
6.5081 5.9376 0.8955
6.5083 6.0512 0.8846
6.5084 6.1666 0.8737
6.5085 6.2841 0.8629
6.5085 6.4038 0.8522
6.5085 6.5258 0.8415
6.5086 6.6501 0.8308
6.5086 6.7769 0.8203
6.5086 6.9062 0.8098
6.5087 7.0382 0.7993
6.5087 7.1729 0.7889
6.5088 7.3105 0.7785
6.5088 7.4511 0.7682
6.5088 7.5948 0.7580
6.5089 7.7418 0.7478
6.5089 7.8921 0.7377
6.5090 8.0460 0.7276
6.5090 8.2035 0.7176
6.5090 8.3650 0.7076
6.5091 8.5304 0.6977
6.5091 8.7001 0.6879
6.5092 8.8741 0.6781
6.5092 9.0528 0.6683
6.5112 9.2390 0.6588
6.5116 9.4282 0.6492
5.5589 -1.6321 2.6860
5.6150 -1.5879 2.6860
5.6713 -1.5430 2.6860
5.7278 -1.4973 2.6860
5.7846 -1.4509 2.6860
5.8417 -1.4038 2.6860
5.8990 -1.3559 2.6860
5.9565 -1.3073 2.6860
6.0143 -1.2578 2.6860
6.0724 -1.2076 2.6860
6.1307 -1.1566 2.6860
6.1893 -1.1047 2.6860
6.2481 -1.0520 2.6860
6.3072 -0.9985 2.6860
6.3666 -0.9440 2.6860
6.4263 -0.8888 2.6860
6.4862 -0.8326 2.6860
6.4955 -0.7694 2.6651
5.3490 -0.5808 2.1746
5.3771 -0.5310 2.1661
5.3508 -0.4759 2.1360
6.2067 -0.4914 2.4552
6.4965 -0.4510 2.5468
6.4967 -0.3878 2.5240
6.4969 -0.3248 2.5016
6.4971 -0.2619 2.4794
6.4973 -0.1991 2.4576
6.4974 -0.1364 2.4360
6.4976 -0.0738 2.4147
6.4978 -0.0113 2.3936
6.4980 0.0512 2.3728
6.4982 0.1136 2.3523
6.4950 0.1757 2.3308
6.4951 0.2381 2.3108
6.4952 0.3003 2.2910
6.4953 0.3626 2.2715
6.4955 0.4249 2.2522
6.4956 0.4872 2.2331
6.4957 0.5496 2.2142
6.4958 0.6120 2.1956
6.4959 0.6744 2.1772
6.4960 0.7370 2.1590
6.4962 0.7996 2.1411
6.4963 0.8623 2.1233
6.4964 0.9251 2.1058
6.4965 0.9881 2.0884
6.4966 1.0512 2.0713
6.4968 1.1144 2.0543
6.4969 1.1778 2.0376
6.4970 1.2414 2.0210
6.4971 1.3052 2.0046
6.4972 1.3691 1.9884
6.4973 1.4333 1.9724
6.4975 1.4977 1.9566
6.4976 1.5624 1.9410
6.4977 1.6273 1.9255
6.4978 1.6925 1.9102
6.4979 1.7580 1.8951
6.4981 1.8238 1.8801
6.4982 1.8898 1.8653
6.4983 1.9563 1.8507
6.4984 2.0230 1.8362
6.4986 2.0902 1.8219
6.4987 2.1577 1.8078
6.4988 2.2256 1.7938
6.4989 2.2939 1.7800
6.4991 2.3626 1.7663
6.4992 2.4318 1.7528
6.4993 2.5015 1.7394
6.4994 2.5716 1.7262
6.4996 2.6422 1.7131
6.4997 2.7134 1.7002
6.4998 2.7851 1.6874
6.5000 2.8573 1.6748
6.5001 2.9301 1.6623
6.5002 3.0036 1.6500
6.5004 3.0776 1.6378
6.5005 3.1523 1.6257
6.5010 3.2278 1.6139
6.5011 3.3039 1.6021
6.5013 3.3807 1.5905
6.5015 3.4583 1.5790
6.5017 3.5365 1.5677
6.5019 3.6156 1.5565
6.5021 3.6956 1.5454
6.5023 3.7763 1.5345
6.5026 3.8580 1.5237
6.5028 3.9405 1.5130
6.5030 4.0240 1.5025
6.5032 4.1084 1.4921
6.5034 4.1938 1.4819
6.5036 4.2803 1.4718
6.5038 4.3679 1.4618
6.5041 4.4565 1.4520
6.5043 4.5463 1.4423
6.5045 4.6373 1.4327
6.5047 4.7295 1.4233
6.5050 4.8230 1.4140
6.5052 4.9177 1.4049
6.5055 5.0139 1.3959
6.5057 5.1114 1.3871
6.5059 5.2104 1.3784
6.5062 5.3109 1.3698
6.5065 5.4129 1.3614
6.5067 5.5166 1.3532
6.5070 5.6219 1.3451
6.5072 5.7290 1.3371
6.5075 5.8379 1.3293
6.5078 5.9486 1.3217
6.5081 6.0612 1.3142
6.5077 6.1752 1.3068
6.5077 6.2917 1.2996
6.5077 6.4103 1.2925
6.5078 6.5311 1.2857
6.5078 6.6542 1.2790
6.5078 6.7797 1.2725
6.5079 6.9077 1.2662
6.5079 7.0383 1.2600
6.5079 7.1716 1.2541
6.5080 7.3077 1.2483
6.5080 7.4466 1.2427
6.5080 7.5887 1.2374
6.5081 7.7339 1.2322
6.5081 7.8823 1.2273
6.5081 8.0343 1.2226
6.5081 8.1897 1.2181
6.5082 8.3490 1.2138
6.5082 8.5121 1.2098
6.5082 8.6794 1.2060
6.5083 8.8508 1.2025
6.5083 9.0268 1.1993
6.5083 9.2075 1.1964
6.5114 9.3973 1.1942
6.5118 9.5887 1.1919
4.9882 -1.3831 2.6860
5.0354 -1.3421 2.6860
5.0828 -1.3006 2.6860
5.1302 -1.2584 2.6860
5.1778 -1.2156 2.6860
5.2255 -1.1721 2.6860
5.2733 -1.1280 2.6860
5.3212 -1.0833 2.6860
5.3692 -1.0379 2.6860
5.4173 -0.9918 2.6860
5.4655 -0.9451 2.6860
5.5138 -0.8976 2.6860
5.5623 -0.8495 2.6860
5.6108 -0.8007 2.6860
5.6594 -0.7511 2.6860
5.7081 -0.7008 2.6860
5.7570 -0.6498 2.6860
5.3767 -0.5539 2.4875
5.3777 -0.5011 2.4671
5.9041 -0.4922 2.6860
5.9533 -0.4381 2.6860
6.0026 -0.3832 2.6860
6.0520 -0.3276 2.6860
6.1015 -0.2711 2.6860
6.1511 -0.2137 2.6860
6.2008 -0.1555 2.6860
6.2506 -0.0965 2.6860
6.3005 -0.0366 2.6860
6.3504 0.0241 2.6860
6.4005 0.0858 2.6860
6.4506 0.1483 2.6860
6.4949 0.2116 2.6836
6.4950 0.2738 2.6630
6.4951 0.3360 2.6428
6.4952 0.3983 2.6228
6.4954 0.4605 2.6031
6.4955 0.5228 2.5837
6.4956 0.5851 2.5645
6.4957 0.6474 2.5456
6.4958 0.7098 2.5269
6.4959 0.7722 2.5085
6.4961 0.8348 2.4904
6.4962 0.8974 2.4725
6.4963 0.9602 2.4549
6.4964 1.0230 2.4374
6.4965 1.0861 2.4203
6.4966 1.1492 2.4033
6.4968 1.2125 2.3866
6.4969 1.2760 2.3701
6.4970 1.3397 2.3539
6.4971 1.4035 2.3378
6.4972 1.4676 2.3220
6.4974 1.5319 2.3064
6.4975 1.5964 2.2910
6.4976 1.6613 2.2759
6.4977 1.7263 2.2609
6.4978 1.7917 2.2462
6.4980 1.8573 2.2316
6.4981 1.9233 2.2173
6.4982 1.9896 2.2032
6.4983 2.0562 2.1892
6.4984 2.1232 2.1755
6.4986 2.1905 2.1620
6.4987 2.2583 2.1486
6.4988 2.3264 2.1355
6.4989 2.3950 2.1225
6.4991 2.4640 2.1098
6.4992 2.5335 2.0972
6.4993 2.6034 2.0849
6.4994 2.6739 2.0727
6.4996 2.7448 2.0607
6.4997 2.8163 2.0489
6.4998 2.8883 2.0373
6.5000 2.9609 2.0259
6.5001 3.0342 2.0147
6.5002 3.1080 2.0036
6.5004 3.1824 1.9928
6.5008 3.2577 1.9822
6.5010 3.3335 1.9717
6.5012 3.4100 1.9615
6.5014 3.4872 1.9514
6.5015 3.5652 1.9415
6.5017 3.6440 1.9318
6.5019 3.7236 1.9223
6.5022 3.8040 1.9129
6.5024 3.8853 1.9038
6.5026 3.9675 1.8949
6.5028 4.0506 1.8861
6.5030 4.1347 1.8776
6.5032 4.2197 1.8692
6.5034 4.3058 1.8611
6.5036 4.3929 1.8531
6.5038 4.4811 1.8454
6.5041 4.5704 1.8378
6.5043 4.6609 1.8305
6.5045 4.7526 1.8233
6.5048 4.8455 1.8164
6.5050 4.9397 1.8097
6.5052 5.0353 1.8032
6.5055 5.1322 1.7969
6.5057 5.2306 1.7908
6.5060 5.3304 1.7850
6.5062 5.4318 1.7794
6.5065 5.5347 1.7740
6.5067 5.6393 1.7689
6.5070 5.7456 1.7640
6.5072 5.8536 1.7593
6.5075 5.9635 1.7549
6.5078 6.0752 1.7508
6.5070 6.5406 1.7364
6.5069 6.1878 1.7466
6.5070 6.6626 1.7335
6.5070 6.3033 1.7429
6.5070 6.7869 1.7309
6.5070 6.4209 1.7395
6.5071 6.9136 1.7287
6.5071 7.0429 1.7267
6.5072 7.5873 1.7222
6.5071 7.1748 1.7251
6.5072 7.7308 1.7220
6.5071 7.3094 1.7238
6.5072 7.8775 1.7221
6.5072 7.4469 1.7228
6.5073 8.0276 1.7225
6.5073 8.1811 1.7234
6.5073 8.3383 1.7247
6.5073 8.4992 1.7264
6.5074 8.6642 1.7285
6.5074 8.8332 1.7311
6.5074 9.0066 1.7342
6.5074 9.1845 1.7377
6.5112 9.3726 1.7428
6.5116 9.5610 1.7475
6.5121 9.7546 1.7528
4.7258 -1.2303 2.8160
4.7300 -1.1809 2.7935
4.7343 -1.1318 2.7714
4.7384 -1.0829 2.7496
4.7425 -1.0343 2.7282
4.7466 -0.9858 2.7070
4.7583 -0.9391 2.6907
4.7906 -0.8962 2.6860
4.8311 -0.8544 2.6860
4.8716 -0.8120 2.6860
4.9121 -0.7691 2.6860
4.9526 -0.7256 2.6860
4.9931 -0.6815 2.6860
5.0336 -0.6368 2.6860
5.0742 -0.5915 2.6860
5.1147 -0.5455 2.6860
5.1552 -0.4990 2.6860
5.1956 -0.4518 2.6860
5.2361 -0.4041 2.6860
5.2766 -0.3556 2.6860
5.3170 -0.3065 2.6860
5.3575 -0.2568 2.6860
5.3979 -0.2065 2.6860
5.4382 -0.1554 2.6860
5.4786 -0.1037 2.6860
5.5189 -0.0513 2.6860
5.5592 0.0018 2.6860
5.5994 0.0557 2.6860
5.6396 0.1102 2.6860
5.6797 0.1654 2.6860
5.7198 0.2213 2.6860
5.7598 0.2780 2.6860
5.7998 0.3355 2.6860
5.8397 0.3937 2.6860
5.8795 0.4527 2.6860
5.9193 0.5124 2.6860
5.9589 0.5728 2.6860
5.9985 0.6342 2.6860
6.0380 0.6962 2.6860
6.0774 0.7591 2.6860
6.1167 0.8229 2.6860
6.1558 0.8874 2.6860
6.1949 0.9528 2.6860
6.2339 1.0190 2.6860
6.2727 1.0860 2.6860
6.3113 1.1540 2.6860
6.3499 1.2228 2.6860
6.3883 1.2925 2.6860
6.4265 1.3631 2.6860
6.4646 1.4346 2.6860
6.4971 1.5056 2.6838
6.4972 1.5698 2.6684
6.4974 1.6343 2.6532
6.4975 1.6989 2.6383
6.4976 1.7639 2.6236
6.4977 1.8291 2.6092
6.4978 1.8946 2.5950
6.4980 1.9605 2.5811
6.4981 2.0266 2.5674
6.4982 2.0931 2.5540
6.4983 2.1599 2.5407
6.4985 2.2271 2.5278
6.4986 2.2947 2.5150
6.4987 2.3627 2.5025
6.4988 2.4311 2.4903
6.4990 2.5000 2.4783
6.4991 2.5693 2.4665
6.4992 2.6391 2.4549
6.4993 2.7093 2.4436
6.4995 2.7801 2.4325
6.4996 2.8514 2.4216
6.4997 2.9232 2.4110
6.4998 2.9956 2.4006
6.5000 3.0686 2.3905
6.5001 3.1421 2.3805
6.5004 3.2164 2.3709
6.5006 3.2913 2.3615
6.5008 3.3669 2.3523
6.5010 3.4432 2.3433
6.5012 3.5201 2.3346
6.5014 3.5978 2.3261
6.5016 3.6763 2.3179
6.5018 3.7556 2.3099
6.5020 3.8357 2.3021
6.5022 3.9167 2.2946
6.5024 3.9985 2.2873
6.5026 4.0813 2.2803
6.5028 4.1650 2.2736
6.5030 4.2496 2.2670
6.5032 4.3353 2.2608
6.5034 4.4220 2.2548
6.5036 4.5098 2.2491
6.5039 4.5986 2.2436
6.5041 4.6886 2.2384
6.5043 4.7798 2.2335
6.5045 4.8723 2.2289
6.5048 4.9660 2.2245
6.5050 5.0610 2.2205
6.5052 5.1573 2.2167
6.5055 5.2551 2.2132
6.5057 5.3543 2.2101
6.5060 5.4550 2.2072
6.5062 5.5573 2.2046
6.5065 5.6612 2.2024
6.5067 5.7667 2.2005
6.5070 5.8740 2.1989
6.5073 5.9830 2.1977
6.5062 6.2052 2.1958
6.5075 6.0939 2.1968
6.5062 6.3197 2.1955
6.5062 6.6759 2.1971
6.5062 6.4363 2.1956
6.5063 6.7990 2.1984
6.5062 6.5550 2.1962
6.5063 6.9246 2.2001
6.5063 7.1832 2.2049
6.5063 7.0526 2.2023
6.5063 7.3165 2.2079
6.5064 7.7333 2.2200
6.5063 7.4525 2.2115
6.5064 7.8784 2.2250
6.5064 7.5914 2.2155
6.5064 8.0266 2.2306
6.5064 8.3336 2.2433
6.5064 8.1783 2.2367
6.5064 8.4924 2.2506
6.5065 8.9929 2.2762
6.5064 8.6552 2.2585
6.5065 9.1683 2.2861
6.5065 8.8220 2.2670
6.5110 9.3548 2.2983
6.5114 9.5403 2.3098
6.5119 9.7309 2.3221
6.5123 9.9268 2.3352
4.3282 -1.0502 2.8384
4.3650 -1.0129 2.8384
4.4018 -0.9751 2.8384
4.4386 -0.9369 2.8384
4.4753 -0.8981 2.8384
4.5120 -0.8588 2.8384
4.5487 -0.8191 2.8384
4.5853 -0.7788 2.8384
4.6218 -0.7381 2.8384
4.6583 -0.6968 2.8384
4.6947 -0.6550 2.8384
4.7240 -0.6118 2.8342
4.7277 -0.5651 2.8148
4.7313 -0.5185 2.7957
4.7349 -0.4721 2.7770
4.7385 -0.4257 2.7585
4.7420 -0.3794 2.7403
4.7454 -0.3333 2.7224
4.7488 -0.2871 2.7047
4.7593 -0.2415 2.6915
4.7834 -0.1962 2.6860
4.8171 -0.1510 2.6860
4.8506 -0.1052 2.6860
4.8841 -0.0588 2.6860
4.9174 -0.0119 2.6860
4.9506 0.0356 2.6860
4.9837 0.0837 2.6860
5.0167 0.1324 2.6860
5.0496 0.1816 2.6860
5.0824 0.2314 2.6860
5.1150 0.2818 2.6860
5.1475 0.3328 2.6860
5.1798 0.3844 2.6860
5.2120 0.4366 2.6860
5.2440 0.4894 2.6860
5.2759 0.5429 2.6860
5.3077 0.5969 2.6860
5.3392 0.6516 2.6860
5.3706 0.7069 2.6860
5.4018 0.7629 2.6860
5.4328 0.8195 2.6860
5.4636 0.8767 2.6860
5.4943 0.9347 2.6860
5.5247 0.9932 2.6860
5.5549 1.0525 2.6860
5.5849 1.1124 2.6860
5.6147 1.1730 2.6860
5.6442 1.2343 2.6860
5.6735 1.2962 2.6860
5.7025 1.3589 2.6860
5.7313 1.4223 2.6860
5.7598 1.4863 2.6860
5.7881 1.5511 2.6860
5.8160 1.6166 2.6860
5.8437 1.6828 2.6860
5.8710 1.7497 2.6860
5.8981 1.8174 2.6860
5.9248 1.8858 2.6860
5.9513 1.9549 2.6860
5.9773 2.0248 2.6860
6.0030 2.0954 2.6860
6.0284 2.1668 2.6860
6.0534 2.2389 2.6860
6.0780 2.3118 2.6860
6.1022 2.3855 2.6860
6.1261 2.4599 2.6860
6.1495 2.5351 2.6860
6.1725 2.6111 2.6860
6.1950 2.6879 2.6860
6.2171 2.7654 2.6860
6.2387 2.8437 2.6860
6.2599 2.9229 2.6860
6.2806 3.0028 2.6860
6.3008 3.0835 2.6860
6.3204 3.1650 2.6860
6.3581 3.3304 2.6860
6.3395 3.2473 2.6860
6.3762 3.4142 2.6860
6.4268 3.6708 2.6860
6.3936 3.4989 2.6860
6.4424 3.7579 2.6860
6.4105 3.5844 2.6860
6.4574 3.8458 2.6860
6.4855 4.0240 2.6860
6.4718 3.9345 2.6860
6.4985 4.1143 2.6860
6.5030 4.3696 2.6735
6.5039 4.7213 2.6593
6.5026 4.2000 2.6826
6.5032 4.4559 2.6695
6.5041 4.8121 2.6566
6.5028 4.2843 2.6779
6.5034 4.5433 2.6658
6.5043 4.9040 2.6542
6.5048 5.0917 2.6505
6.5036 4.6317 2.6624
6.5045 4.9972 2.6522
6.5050 5.1875 2.6492
6.5057 5.4835 2.6476
6.5052 5.2847 2.6483
6.5067 5.8997 2.6510
6.5060 5.5851 2.6478
6.5055 5.3834 2.6478
6.5070 6.0079 2.6529
6.5062 5.6883 2.6485
6.5054 6.3416 2.6603
6.5073 6.1181 2.6552
6.5065 5.7931 2.6495
6.5054 6.4573 2.6640
6.5054 6.2280 2.6572
6.5054 6.8170 2.6778
6.5054 6.5750 2.6681
6.4627 7.2815 2.6860
6.5054 6.9415 2.6835
6.5054 6.6949 2.6727
6.4438 7.3935 2.6860
6.4966 7.0587 2.6860
6.3788 7.7322 2.6860
6.4235 7.5060 2.6860
6.4803 7.1699 2.6860
6.3544 7.8458 2.6860
6.4018 7.6189 2.6860
6.2724 8.1883 2.6860
6.3285 7.9597 2.6860
6.2421 8.3030 2.6860
6.3012 8.0739 2.6860
6.2103 8.4178 2.6860
6.1770 8.5328 2.6860
6.1421 8.6479 2.6860
6.1056 8.7632 2.6860
6.0676 8.8784 2.6860
6.0279 8.9936 2.6860
5.9867 9.1088 2.6860
5.9438 9.2239 2.6860
3.9495 -0.8851 2.8384
3.9816 -0.8504 2.8384
4.0137 -0.8153 2.8384
4.0456 -0.7798 2.8384
4.0775 -0.7438 2.8384
4.1093 -0.7074 2.8384
4.1410 -0.6706 2.8384
4.1726 -0.6333 2.8384
4.2041 -0.5956 2.8384
4.2355 -0.5575 2.8384
4.2668 -0.5189 2.8384
4.2979 -0.4799 2.8384
4.3290 -0.4404 2.8384
4.3600 -0.4005 2.8384
4.3908 -0.3601 2.8384
4.4216 -0.3192 2.8384
4.4522 -0.2779 2.8384
4.4826 -0.2361 2.8384
4.5130 -0.1938 2.8384
4.5432 -0.1510 2.8384
4.5733 -0.1078 2.8384
4.6032 -0.0641 2.8384
4.6330 -0.0199 2.8384
4.6626 0.0248 2.8384
4.6921 0.0700 2.8384
4.7214 0.1157 2.8384
4.7277 0.1611 2.8248
4.7307 0.2065 2.8094
4.7336 0.2518 2.7943
4.7364 0.2972 2.7795
4.7393 0.3426 2.7649
4.7420 0.3880 2.7505
4.7448 0.4336 2.7364
4.7474 0.4791 2.7226
4.7501 0.5247 2.7089
4.7556 0.5709 2.6972
4.7650 0.6170 2.6880
4.7871 0.6662 2.6860
4.8124 0.7158 2.6860
4.8375 0.7660 2.6860
4.8624 0.8167 2.6860
4.8870 0.8679 2.6860
4.9114 0.9196 2.6860
4.9355 0.9719 2.6860
4.9594 1.0246 2.6860
4.9830 1.0780 2.6860
5.0064 1.1318 2.6860
5.0295 1.1862 2.6860
5.0523 1.2411 2.6860
5.0748 1.2966 2.6860
5.0970 1.3526 2.6860
5.1189 1.4092 2.6860
5.1405 1.4663 2.6860
5.1618 1.5240 2.6860
5.1827 1.5821 2.6860
5.2034 1.6409 2.6860
5.2236 1.7002 2.6860
5.2436 1.7601 2.6860
5.2631 1.8206 2.6860
5.2823 1.8816 2.6860
5.3011 1.9431 2.6860
5.3196 2.0052 2.6860
5.3376 2.0679 2.6860
5.3553 2.1312 2.6860
5.3725 2.1950 2.6860
5.3893 2.2594 2.6860
5.4056 2.3244 2.6860
5.4216 2.3899 2.6860
5.4370 2.4560 2.6860
5.4520 2.5227 2.6860
5.4666 2.5899 2.6860
5.4806 2.6577 2.6860
5.4942 2.7260 2.6860
5.5072 2.7950 2.6860
5.5197 2.8644 2.6860
5.5317 2.9345 2.6860
5.5432 3.0051 2.6860
5.5541 3.0763 2.6860
5.5645 3.1480 2.6860
5.5743 3.2203 2.6860
5.5835 3.2931 2.6860
5.5920 3.3665 2.6860
5.6141 3.5898 2.6860
5.6000 3.4404 2.6860
5.6202 3.6654 2.6860
5.6074 3.5149 2.6860
5.6256 3.7414 2.6860
5.6344 3.8951 2.6860
5.6304 3.8180 2.6860
5.6378 3.9727 2.6860
5.6435 4.2086 2.6860
5.6404 4.0508 2.6860
5.6424 4.1295 2.6860
5.6440 4.2881 2.6860
5.6406 4.5297 2.6860
5.6436 4.3682 2.6860
5.6379 4.6112 2.6860
5.6425 4.4487 2.6860
5.6343 4.6931 2.6860
5.6247 4.8581 2.6860
5.6299 4.7754 2.6860
5.6186 4.9413 2.6860
5.5950 5.1930 2.6860
5.6116 5.0248 2.6860
5.5853 5.2777 2.6860
5.6038 5.1088 2.6860
5.5747 5.3627 2.6860
5.5505 5.5337 2.6860
5.5631 5.4481 2.6860
5.5370 5.6197 2.6860
5.4904 5.8792 2.6860
5.5225 5.7059 2.6860
5.4729 5.9662 2.6860
5.5070 5.7924 2.6860
5.4543 6.0534 2.6860
5.4138 6.2284 2.6860
5.4346 6.1408 2.6860
5.3920 6.3162 2.6860
5.3198 6.5801 2.6860
5.3690 6.4040 2.6860
5.2935 6.6682 2.6860
5.2660 6.7564 2.6860
5.3450 6.4920 2.6860
5.2374 6.8447 2.6860
5.2076 6.9329 2.6860
5.0765 7.2852 2.6860
5.1767 7.0211 2.6860
5.0407 7.3730 2.6860
5.1445 7.1092 2.6860
5.0037 7.4607 2.6860
5.1111 7.1973 2.6860
4.9654 7.5481 2.6860
4.9334 7.6468 2.6901
4.8851 7.7222 2.6860
