ply
format ascii 1.0
element vertex 1924
property float32 x
property float32 y
property float32 z
end_header
6.4984 0.7349 -1.4289
6.4992 0.9933 -1.5147
6.4994 1.0584 -1.5367
6.4986 0.7992 -1.4501
6.4996 1.1239 -1.5588
6.4988 0.8637 -1.4714
6.4998 1.1896 -1.5812
6.4990 0.9283 -1.4930
6.5000 1.2556 -1.6039
6.5008 1.5229 -1.6968
6.5002 1.3219 -1.6267
6.5010 1.5906 -1.7206
6.5004 1.3886 -1.6498
6.4969 1.6576 -1.7436
6.5006 1.4555 -1.6732
6.4970 1.7260 -1.7680
6.4971 1.7949 -1.7926
6.4977 2.0751 -1.8942
6.4973 1.8643 -1.8176
6.4978 2.1464 -1.9204
6.4979 2.2183 -1.9469
6.4974 1.9341 -1.8428
6.4981 2.2908 -1.9738
6.4982 2.3638 -2.0010
6.4975 2.0043 -1.8683
6.4984 2.4374 -2.0286
6.4988 2.6622 -2.1136
6.4985 2.5117 -2.0566
6.4986 2.5866 -2.0849
6.4989 2.7385 -2.1428
6.4994 2.9720 -2.2328
6.4991 2.8156 -2.1724
6.4995 3.0515 -2.2638
6.4992 2.8934 -2.2024
6.4997 3.1318 -2.2951
6.4998 3.2129 -2.3270
6.5000 3.2950 -2.3594
6.5006 3.6331 -2.4943
6.5002 3.3780 -2.3923
6.5008 3.7203 -2.5294
6.5003 3.4621 -2.4257
6.5010 3.8086 -2.5652
6.5012 3.8981 -2.6016
6.5005 3.5471 -2.4597
6.5013 3.9888 -2.6386
6.5015 4.0808 -2.6763
6.5021 4.3646 -2.7936
6.5017 4.1740 -2.7147
6.5022 4.4621 -2.8342
6.5019 4.2686 -2.7538
6.5042 4.7649 -2.9615
6.5024 4.5611 -2.8756
6.5045 4.8688 -3.0055
6.5026 4.6617 -2.9178
6.5048 4.9746 -3.0504
6.5051 5.0821 -3.0963
6.5054 5.1916 -3.1431
6.5066 5.6500 -3.3410
6.5057 5.3030 -3.1909
6.5069 5.7702 -3.3933
6.5060 5.4165 -3.2398
6.5073 5.8927 -3.4468
6.5076 6.0178 -3.5017
6.5063 5.5321 -3.2898
6.5080 6.1455 -3.5578
6.5095 6.6848 -3.7969
6.5083 6.2760 -3.6154
6.5087 6.4093 -3.6744
6.5098 6.8274 -3.8606
6.5091 6.5455 -3.7348
6.5102 6.9734 -3.9260
6.5111 7.2761 -4.0623
6.5107 7.1229 -3.9932
6.5115 7.4331 -4.1333
6.5120 7.5943 -4.2063
6.5174 7.9351 -4.3620
6.5172 7.7654 -4.2847
6.5175 8.1093 -4.4416
6.5181 8.6625 -4.6957
6.5182 8.8579 -4.7860
6.5177 8.2885 -4.5237
6.5184 9.0593 -4.8792
6.5179 8.4728 -4.6084
6.5186 9.2671 -4.9756
6.5197 10.4140 -5.5118
6.5188 9.4815 -5.0754
6.5147 10.6595 -5.6268
6.5190 9.7030 -5.1787
6.5193 9.9319 -5.2857
6.5131 10.9197 -5.7494
6.5195 10.1688 -5.3967
6.5138 11.1936 -5.8789
6.5145 11.4782 -6.0137
6.5152 11.7743 -6.1543
6.9020 12.7984 -6.6742
17.3540 33.0312 -17.1869
6.4984 0.8238 -1.1277
6.4986 0.8882 -1.1484
6.4988 0.9529 -1.1691
6.4990 1.0178 -1.1901
6.4992 1.0829 -1.2112
6.4994 1.1482 -1.2325
6.4996 1.2139 -1.2539
6.4998 1.2798 -1.2756
6.5000 1.3460 -1.2974
6.5002 1.4126 -1.3195
6.5004 1.4795 -1.3417
6.5006 1.5468 -1.3642
6.5009 1.6144 -1.3868
6.4967 1.6812 -1.4088
6.4969 1.7496 -1.4319
6.4970 1.8183 -1.4552
6.4971 1.8875 -1.4788
6.4973 1.9572 -1.5026
6.4974 2.0274 -1.5267
6.4975 2.0980 -1.5511
6.4977 2.1691 -1.5757
6.4978 2.2408 -1.6006
6.4979 2.3131 -1.6258
6.4981 2.3859 -1.6513
6.4982 2.4594 -1.6771
6.4984 2.5334 -1.7033
6.4985 2.6081 -1.7297
6.4987 2.6835 -1.7565
6.4988 2.7596 -1.7837
6.4989 2.8364 -1.8112
6.4991 2.9140 -1.8391
6.4992 2.9923 -1.8673
6.4994 3.0715 -1.8960
6.4995 3.1515 -1.9250
6.4997 3.2323 -1.9545
6.4999 3.3140 -1.9844
6.5000 3.3967 -2.0148
6.5002 3.4804 -2.0456
6.5003 3.5650 -2.0769
6.5005 3.6507 -2.1087
6.5007 3.7375 -2.1409
6.5008 3.8253 -2.1738
6.5010 3.9143 -2.2071
6.5012 4.0045 -2.2410
6.5013 4.0960 -2.2755
6.5015 4.1887 -2.3106
6.5017 4.2828 -2.3462
6.5019 4.3782 -2.3826
6.5021 4.4751 -2.4196
6.5023 4.5734 -2.4572
6.5025 4.6733 -2.4956
6.5039 4.7757 -2.5352
6.5042 4.8789 -2.5751
6.5045 4.9839 -2.6158
6.5048 5.0906 -2.6573
6.5051 5.1992 -2.6996
6.5054 5.3097 -2.7428
6.5057 5.4223 -2.7870
6.5060 5.5369 -2.8320
6.5063 5.6537 -2.8781
6.5066 5.7727 -2.9252
6.5070 5.8941 -2.9733
6.5073 6.0180 -3.0225
6.5076 6.1444 -3.0729
6.5080 6.2734 -3.1245
6.5083 6.4053 -3.1773
6.5087 6.5400 -3.2314
6.5091 6.6777 -3.2868
6.5095 6.8186 -3.3437
6.5111 7.4165 -3.5865
6.5099 6.9628 -3.4020
6.5115 7.5754 -3.6513
6.5103 7.1103 -3.4619
6.5162 7.7435 -3.7205
6.5107 7.2616 -3.5233
6.5164 7.9106 -3.7890
6.5172 8.8182 -4.1637
6.5165 8.0822 -3.8595
6.5173 9.0159 -4.2458
6.5167 8.2585 -3.9321
6.5175 9.2198 -4.3306
6.5168 8.4397 -4.0070
6.5177 9.4301 -4.4183
6.5179 9.6471 -4.5089
6.5170 8.6262 -4.0841
6.5181 9.8713 -4.6028
6.5187 10.5912 -4.9052
6.5183 10.1031 -4.7000
6.5185 10.3429 -4.8007
6.5128 10.8382 -5.0089
6.5148 11.6713 -5.3614
6.5134 11.1055 -5.1218
6.5155 11.9713 -5.4888
6.5141 11.3830 -5.2392
6.5163 12.2837 -5.6216
6.5170 12.6092 -5.7602
6.5179 12.9490 -5.9051
17.2470 38.2716 -17.3404
6.5187 13.3039 -6.0567
6.5196 13.6751 -6.2155
17.5601 37.8744 -17.1869
6.4985 0.9117 -0.8302
6.4987 0.9763 -0.8502
6.4989 1.0410 -0.8704
6.4991 1.1061 -0.8908
6.4993 1.1714 -0.9112
6.4995 1.2370 -0.9319
6.4997 1.3028 -0.9526
6.4999 1.3690 -0.9735
6.5001 1.4354 -0.9946
6.5003 1.5022 -1.0158
6.5005 1.5694 -1.0373
6.5007 1.6369 -1.0588
6.4966 1.7036 -1.0799
6.4968 1.7718 -1.1018
6.4969 1.8405 -1.1239
6.4970 1.9095 -1.1462
6.4972 1.9790 -1.1688
6.4973 2.0490 -1.1915
6.4974 2.1195 -1.2144
6.4976 2.1905 -1.2376
6.4977 2.2620 -1.2610
6.4978 2.3341 -1.2847
6.4980 2.4067 -1.3086
6.4981 2.4800 -1.3327
6.4982 2.5538 -1.3571
6.4984 2.6283 -1.3818
6.4985 2.7035 -1.4068
6.4987 2.7793 -1.4321
6.4988 2.8559 -1.4577
6.4990 2.9331 -1.4835
6.4991 3.0112 -1.5097
6.4993 3.0900 -1.5363
6.4994 3.1697 -1.5631
6.4996 3.2502 -1.5904
6.4997 3.3317 -1.6180
6.4999 3.4140 -1.6459
6.5000 3.4972 -1.6743
6.5002 3.5815 -1.7030
6.5003 3.6668 -1.7322
6.5005 3.7531 -1.7618
6.5007 3.8405 -1.7918
6.5008 3.9290 -1.8223
6.5010 4.0188 -1.8533
6.5012 4.1097 -1.8847
6.5014 4.2019 -1.9167
6.5015 4.2954 -1.9492
6.5017 4.3902 -1.9822
6.5019 4.4865 -2.0158
6.5021 4.5842 -2.0499
6.5023 4.6834 -2.0847
6.5037 4.7850 -2.1205
6.5039 4.8875 -2.1565
6.5042 4.9917 -2.1933
6.5045 5.0975 -2.2307
6.5048 5.2053 -2.2688
6.5051 5.3149 -2.3077
6.5054 5.4265 -2.3473
6.5057 5.5401 -2.3878
6.5060 5.6558 -2.4291
6.5063 5.7738 -2.4713
6.5066 5.8940 -2.5143
6.5070 6.0166 -2.5583
6.5073 6.1417 -2.6033
6.5076 6.2694 -2.6492
6.5080 6.3998 -2.6963
6.5084 6.5330 -2.7444
6.5087 6.6692 -2.7937
6.5091 6.8084 -2.8442
6.5095 6.9508 -2.8959
6.5099 7.0965 -2.9489
6.5103 7.2457 -3.0033
6.5107 7.3986 -3.0591
6.5111 7.5553 -3.1164
6.5153 7.7205 -3.1770
6.5154 7.8850 -3.2374
6.5156 8.0540 -3.2994
6.5157 8.2275 -3.3632
6.5159 8.4058 -3.4289
6.5160 8.5891 -3.4965
6.5161 8.7778 -3.5662
6.5163 8.9720 -3.6380
6.5165 9.1720 -3.7122
6.5166 9.3783 -3.7887
6.5168 9.5911 -3.8677
6.5170 9.8107 -3.9494
6.5171 10.0376 -4.0339
6.5173 10.2722 -4.1214
6.5175 10.5149 -4.2120
6.5124 10.7574 -4.3025
6.5130 11.0183 -4.4002
6.5137 11.2890 -4.5016
6.5144 11.5701 -4.6071
6.5151 11.8622 -4.7169
6.5158 12.1660 -4.8312
6.5166 12.4824 -4.9503
6.5173 12.8122 -5.0747
6.5182 13.1564 -5.2045
6.5190 13.5160 -5.3404
6.5294 13.9122 -5.4906
6.5300 14.3060 -5.6396
6.5307 14.7190 -5.7961
6.5314 15.1527 -5.9606
6.5322 15.6087 -6.1337
6.9260 17.0568 -6.6961
6.4985 0.9988 -0.5348
6.4987 1.0636 -0.5544
6.4989 1.1286 -0.5740
6.4991 1.1938 -0.5938
6.4993 1.2593 -0.6136
6.4995 1.3250 -0.6335
6.4997 1.3911 -0.6536
6.4999 1.4575 -0.6738
6.5001 1.5241 -0.6941
6.5003 1.5912 -0.7145
6.4964 1.6574 -0.7346
6.4965 1.7252 -0.7553
6.4966 1.7932 -0.7762
6.4968 1.8618 -0.7971
6.4969 1.9307 -0.8183
6.4970 2.0000 -0.8396
6.4972 2.0699 -0.8610
6.4973 2.1402 -0.8827
6.4974 2.2110 -0.9045
6.4976 2.2823 -0.9265
6.4977 2.3542 -0.9487
6.4978 2.4266 -0.9711
6.4980 2.4997 -0.9937
6.4981 2.5733 -1.0165
6.4983 2.6475 -1.0396
6.4984 2.7225 -1.0628
6.4985 2.7981 -1.0863
6.4987 2.8743 -1.1101
6.4988 2.9514 -1.1341
6.4990 3.0291 -1.1584
6.4991 3.1077 -1.1829
6.4993 3.1870 -1.2077
6.4994 3.2672 -1.2328
6.4996 3.3483 -1.2582
6.4997 3.4302 -1.2839
6.4999 3.5131 -1.3100
6.5000 3.5970 -1.3363
6.5002 3.6819 -1.3630
6.5004 3.7677 -1.3901
6.5005 3.8547 -1.4175
6.5007 3.9428 -1.4453
6.5009 4.0320 -1.4735
6.5010 4.1224 -1.5021
6.5012 4.2141 -1.5312
6.5014 4.3070 -1.5606
6.5016 4.4012 -1.5905
6.5017 4.4969 -1.6209
6.5019 4.5939 -1.6518
6.5021 4.6924 -1.6831
6.5034 4.7933 -1.7153
6.5037 4.8950 -1.7477
6.5039 4.9984 -1.7807
6.5042 5.1035 -1.8143
6.5045 5.2104 -1.8485
6.5048 5.3191 -1.8833
6.5051 5.4297 -1.9187
6.5054 5.5423 -1.9548
6.5057 5.6570 -1.9917
6.5060 5.7739 -2.0292
6.5063 5.8930 -2.0675
6.5066 6.0144 -2.1066
6.5070 6.1382 -2.1464
6.5073 6.2646 -2.1872
6.5077 6.3935 -2.2288
6.5080 6.5253 -2.2713
6.5084 6.6598 -2.3148
6.5087 6.7974 -2.3593
6.5091 6.9381 -2.4048
6.5095 7.0820 -2.4515
6.5099 7.2293 -2.4992
6.5103 7.3801 -2.5482
6.5107 7.5346 -2.5983
6.5111 7.6930 -2.6498
6.5145 7.8591 -2.7039
6.5146 8.0254 -2.7580
6.5148 8.1962 -2.8136
6.5149 8.3717 -2.8708
6.5150 8.5519 -2.9296
6.5152 8.7374 -2.9901
6.5153 8.9281 -3.0524
6.5154 9.1245 -3.1166
6.5156 9.3269 -3.1827
6.5157 9.5355 -3.2510
6.5159 9.7508 -3.3215
6.5160 9.9730 -3.3943
6.5162 10.2026 -3.4695
6.5164 10.4399 -3.5474
6.5120 10.6781 -3.6255
6.5127 10.9330 -3.7092
6.5133 11.1972 -3.7960
6.5140 11.4712 -3.8861
6.5146 11.7558 -3.9798
6.5153 12.0516 -4.0771
6.5161 12.3593 -4.1785
6.5168 12.6797 -4.2841
6.5176 13.0137 -4.3942
6.5185 13.3624 -4.5092
6.5278 13.7443 -4.6354
6.5284 14.1251 -4.7612
6.5290 14.5240 -4.8930
6.5297 14.9422 -5.0312
6.5304 15.3814 -5.1764
6.5311 15.8433 -5.3292
6.5319 16.3297 -5.4902
6.5285 16.8319 -5.6563
6.5293 17.3737 -5.8358
6.5302 17.9472 -6.0258
6.5312 18.5553 -6.2274
6.4985 1.0857 -0.2405
6.4987 1.1506 -0.2595
6.4989 1.2158 -0.2785
6.4991 1.2812 -0.2977
6.4993 1.3468 -0.3169
6.4995 1.4128 -0.3362
6.4997 1.4791 -0.3556
6.4999 1.5457 -0.3750
6.5001 1.6126 -0.3946
6.4963 1.6787 -0.4139
6.4964 1.7463 -0.4337
6.4965 1.8142 -0.4535
6.4967 1.8826 -0.4734
6.4968 1.9514 -0.4935
6.4969 2.0206 -0.5136
6.4970 2.0903 -0.5339
6.4972 2.1604 -0.5543
6.4973 2.2310 -0.5749
6.4974 2.3022 -0.5956
6.4976 2.3739 -0.6164
6.4977 2.4461 -0.6374
6.4978 2.5189 -0.6586
6.4980 2.5923 -0.6799
6.4981 2.6663 -0.7014
6.4983 2.7410 -0.7230
6.4984 2.8163 -0.7449
6.4985 2.8923 -0.7669
6.4987 2.9691 -0.7891
6.4988 3.0465 -0.8116
6.4990 3.1248 -0.8342
6.4991 3.2038 -0.8571
6.4993 3.2837 -0.8802
6.4994 3.3644 -0.9036
6.4996 3.4460 -0.9272
6.4997 3.5285 -0.9510
6.4999 3.6120 -0.9751
6.5001 3.6964 -0.9995
6.5002 3.7819 -1.0242
6.5004 3.8684 -1.0491
6.5005 3.9560 -1.0744
6.5007 4.0447 -1.1000
6.5009 4.1346 -1.1259
6.5010 4.2257 -1.1521
6.5012 4.3181 -1.1787
6.5014 4.4117 -1.2057
6.5016 4.5068 -1.2331
6.5017 4.6032 -1.2608
6.5019 4.7010 -1.2889
6.5031 4.8011 -1.3177
6.5034 4.9021 -1.3467
6.5037 5.0047 -1.3762
6.5040 5.1090 -1.4062
6.5042 5.2150 -1.4366
6.5045 5.3228 -1.4675
6.5048 5.4325 -1.4990
6.5051 5.5441 -1.5310
6.5054 5.6578 -1.5636
6.5057 5.7736 -1.5968
6.5060 5.8915 -1.6306
6.5063 6.0118 -1.6650
6.5067 6.1343 -1.7001
6.5070 6.2594 -1.7359
6.5073 6.3870 -1.7724
6.5077 6.5173 -1.8097
6.5080 6.6503 -1.8478
6.5084 6.7862 -1.8866
6.5087 6.9252 -1.9263
6.5091 7.0673 -1.9670
6.5095 7.2127 -2.0085
6.5099 7.3616 -2.0510
6.5103 7.5140 -2.0945
6.5107 7.6702 -2.1391
6.5136 7.8333 -2.1856
6.5137 7.9972 -2.2324
6.5139 8.1654 -2.2803
6.5140 8.3380 -2.3295
6.5141 8.5153 -2.3801
6.5142 8.6976 -2.4320
6.5143 8.8851 -2.4854
6.5144 9.0780 -2.5404
6.5146 9.2766 -2.5969
6.5147 9.4812 -2.6552
6.5148 9.6923 -2.7152
6.5150 9.9100 -2.7772
6.5151 10.1347 -2.8411
6.5153 10.3669 -2.9071
6.5154 10.6071 -2.9754
6.5123 10.8501 -3.0445
6.5129 11.1080 -3.1178
6.5136 11.3754 -3.1938
6.5142 11.6528 -3.2726
6.5156 12.2404 -3.4394
6.5149 11.9409 -3.3544
6.5164 12.5519 -3.5278
6.5188 13.5676 -3.8161
6.5269 13.9518 -3.9251
6.5171 12.8763 -3.6199
6.5274 14.3374 -4.0344
6.5179 13.2146 -3.7159
6.5281 14.7412 -4.1489
6.5281 17.0800 -4.8118
6.5287 15.1647 -4.2690
6.5289 17.6288 -4.9672
6.5294 15.6094 -4.3950
6.5298 18.2097 -5.1318
6.5301 16.0771 -4.5276
6.5308 18.8258 -5.3063
6.5308 16.5696 -4.6672
6.5318 19.4805 -5.4916
6.5292 20.1662 -5.6858
6.5306 20.9106 -5.8966
6.5320 21.7070 -6.1220
4.6526 0.8396 0.0388
4.6502 0.8857 0.0256
4.6577 0.9339 0.0124
6.4992 1.3686 -0.0013
6.4994 1.4345 -0.0199
6.4996 1.5007 -0.0385
6.4998 1.5671 -0.0572
6.5000 1.6339 -0.0759
6.4962 1.7000 -0.0946
6.4963 1.7674 -0.1135
6.4964 1.8352 -0.1324
6.4965 1.9034 -0.1513
6.4967 1.9721 -0.1703
6.4968 2.0411 -0.1894
6.4969 2.1106 -0.2086
6.4971 2.1806 -0.2279
6.4972 2.2510 -0.2473
6.4973 2.3220 -0.2667
6.4975 2.3935 -0.2863
6.4976 2.4655 -0.3060
6.4977 2.5381 -0.3258
6.4979 2.6113 -0.3457
6.4980 2.6850 -0.3657
6.4981 2.7595 -0.3858
6.4983 2.8345 -0.4061
6.4984 2.9103 -0.4265
6.4986 2.9867 -0.4471
6.4987 3.0639 -0.4678
6.4988 3.1419 -0.4887
6.4990 3.2206 -0.5098
6.4991 3.3001 -0.5310
6.4993 3.3805 -0.5524
6.4994 3.4617 -0.5740
6.4996 3.5438 -0.5957
6.4998 3.6269 -0.6177
6.4999 3.7109 -0.6399
6.5001 3.7960 -0.6623
6.5002 3.8820 -0.6849
6.5004 3.9691 -0.7078
6.5006 4.0574 -0.7309
6.5007 4.1468 -0.7542
6.5009 4.2374 -0.7779
6.5011 4.3291 -0.8018
6.5012 4.4222 -0.8259
6.5014 4.5166 -0.8504
6.5016 4.6124 -0.8752
6.5026 4.7102 -0.9004
6.5029 4.8089 -0.9258
6.5032 4.9092 -0.9516
6.5034 5.0110 -0.9778
6.5037 5.1145 -1.0043
6.5040 5.2197 -1.0312
6.5042 5.3266 -1.0585
6.5045 5.4354 -1.0862
6.5048 5.5461 -1.1143
6.5051 5.6587 -1.1429
6.5054 5.7734 -1.1720
6.5057 5.8903 -1.2015
6.5060 6.0093 -1.2316
6.5063 6.1307 -1.2621
6.5067 6.2544 -1.2933
6.5070 6.3807 -1.3250
6.5073 6.5095 -1.3573
6.5077 6.6411 -1.3902
6.5080 6.7755 -1.4237
6.5084 6.9128 -1.4580
6.5088 7.0532 -1.4929
6.5091 7.1967 -1.5286
6.5095 7.3436 -1.5650
6.5099 7.4940 -1.6023
6.5103 7.6480 -1.6403
6.5128 7.8084 -1.6799
6.5129 7.9698 -1.7197
6.5130 8.1355 -1.7604
6.5131 8.3054 -1.8022
6.5132 8.4799 -1.8450
6.5133 8.6591 -1.8890
6.5134 8.8434 -1.9340
6.5135 9.0329 -1.9803
6.5136 9.2279 -2.0279
6.5137 9.4288 -2.0768
6.5138 9.6357 -2.1272
6.5140 9.8491 -2.1790
6.5141 10.0692 -2.2324
6.5142 10.2966 -2.2875
6.5143 10.5314 -2.3443
6.5120 10.7702 -2.4020
6.5126 11.0222 -2.4628
6.5132 11.2833 -2.5257
6.5138 11.5539 -2.5908
6.5145 11.8346 -2.6583
6.5152 12.1263 -2.7283
6.5159 12.4294 -2.8009
6.5167 12.7447 -2.8765
6.5174 13.0732 -2.9550
6.5182 13.4157 -3.0368
6.5254 13.7863 -3.1252
6.5259 14.1595 -3.2141
6.5265 14.5497 -3.3071
6.5271 14.9585 -3.4043
6.5277 15.3873 -3.5062
6.5283 15.8375 -3.6131
6.5290 16.3110 -3.7254
6.5268 16.8023 -3.8419
6.5276 17.3283 -3.9664
6.5285 17.8841 -4.0979
6.5294 18.4725 -4.2369
6.5303 19.0965 -4.3842
6.5281 19.7499 -4.5385
6.5294 20.4565 -4.7051
6.5308 21.2108 -4.8827
6.5323 22.0178 -5.0727
6.5360 22.8907 -5.2779
6.5387 23.8260 -5.4977
6.5417 24.8355 -5.7348
6.5250 25.8494 -5.9731
6.5262 27.0238 -6.2486
4.8047 0.9317 0.2592
4.9081 1.0010 0.2512
4.9089 1.0506 0.2377
6.4992 1.4566 0.2967
6.4994 1.5226 0.2788
6.4996 1.5890 0.2608
6.4959 1.6546 0.2427
6.4960 1.7216 0.2247
6.4962 1.7889 0.2067
6.4963 1.8566 0.1887
6.4964 1.9246 0.1706
6.4966 1.9931 0.1525
6.4967 2.0620 0.1344
6.4968 2.1313 0.1162
6.4969 2.2011 0.0980
6.4971 2.2714 0.0797
6.4972 2.3422 0.0614
6.4973 2.4134 0.0431
6.4975 2.4853 0.0246
6.4976 2.5576 0.0061
6.4977 2.6306 -0.0124
6.4979 2.7041 -0.0311
6.4980 2.7783 -0.0498
6.4981 2.8531 -0.0686
6.4983 2.9286 -0.0875
6.4984 3.0047 -0.1065
6.4986 3.0816 -0.1256
6.4987 3.1593 -0.1448
6.4989 3.2377 -0.1641
6.4990 3.3169 -0.1835
6.4992 3.3969 -0.2031
6.4993 3.4778 -0.2227
6.4995 3.5595 -0.2426
6.4996 3.6422 -0.2625
6.4998 3.7258 -0.2826
6.4999 3.8104 -0.3028
6.5001 3.8960 -0.3232
6.5002 3.9827 -0.3438
6.5004 4.0704 -0.3646
6.5006 4.1593 -0.3855
6.5007 4.2494 -0.4066
6.5009 4.3406 -0.4279
6.5011 4.4331 -0.4495
6.5012 4.5269 -0.4712
6.5014 4.6221 -0.4932
6.5024 4.7192 -0.5154
6.5026 4.8172 -0.5379
6.5029 4.9167 -0.5606
6.5032 5.0178 -0.5836
6.5034 5.1205 -0.6068
6.5037 5.2249 -0.6303
6.5040 5.3309 -0.6541
6.5043 5.4388 -0.6783
6.5045 5.5486 -0.7027
6.5048 5.6602 -0.7275
6.5051 5.7739 -0.7527
6.5054 5.8897 -0.7782
6.5057 6.0076 -0.8041
6.5060 6.1277 -0.8304
6.5064 6.2502 -0.8571
6.5067 6.3752 -0.8842
6.5070 6.5027 -0.9118
6.5073 6.6327 -0.9398
6.5077 6.7656 -0.9683
6.5080 6.9013 -0.9974
6.5084 7.0400 -1.0270
6.5088 7.1818 -1.0571
6.5091 7.3268 -1.0878
6.5095 7.4752 -1.1192
6.5099 7.6272 -1.1511
6.5119 7.7848 -1.1840
6.5120 7.9439 -1.2173
6.5121 8.1071 -1.2513
6.5122 8.2744 -1.2861
6.5123 8.4462 -1.3216
6.5124 8.6225 -1.3580
6.5124 8.8037 -1.3953
6.5125 8.9899 -1.4335
6.5126 9.1815 -1.4726
6.5127 9.3787 -1.5128
6.5128 9.5817 -1.5541
6.5129 9.7910 -1.5964
6.5131 10.0067 -1.6400
6.5132 10.2294 -1.6848
6.5133 10.4593 -1.7310
6.5116 10.6939 -1.7781
6.5122 10.9403 -1.8272
6.5128 11.1953 -1.8779
6.5134 11.4595 -1.9304
6.5141 11.7333 -1.9845
6.5148 12.0175 -2.0406
6.5155 12.3126 -2.0987
6.5162 12.6194 -2.1590
6.5169 12.9387 -2.2215
6.5177 13.2712 -2.2864
6.5185 13.6179 -2.3540
6.5245 13.9905 -2.4262
6.5250 14.3682 -2.4995
6.5255 14.7632 -2.5760
6.5261 15.1770 -2.6559
6.5267 15.6110 -2.7395
6.5273 16.0668 -2.8271
6.5279 16.5461 -2.9191
6.5264 17.0454 -3.0147
6.5272 17.5780 -3.1165
6.5280 18.1408 -3.2239
6.5289 18.7367 -3.3373
6.5298 19.3687 -3.4573
6.5284 20.0327 -3.5834
6.5297 20.7485 -3.7189
6.5311 21.5126 -3.8633
6.5326 22.3302 -4.0176
6.5364 23.2149 -4.1841
6.5391 24.1626 -4.3623
6.5421 25.1855 -4.5544
6.5272 26.2198 -4.7488
6.5285 27.4105 -4.9719
6.5299 28.7085 -5.2146
6.5377 30.1578 -5.4852
6.5426 31.7366 -5.7798
6.5517 33.5007 -6.1084
6.4987 1.3485 0.6497
6.4989 1.4139 0.6323
6.4991 1.4795 0.6150
6.4992 1.5454 0.5976
6.4994 1.6117 0.5803
6.4958 1.6772 0.5627
6.4959 1.7440 0.5454
6.4961 1.8112 0.5282
6.4962 1.8787 0.5110
6.4963 1.9466 0.4937
6.4964 2.0149 0.4765
6.4966 2.0837 0.4593
6.4967 2.1528 0.4421
6.4968 2.2225 0.4249
6.4970 2.2925 0.4077
6.4971 2.3631 0.3904
6.4972 2.4342 0.3732
6.4973 2.5058 0.3559
6.4975 2.5779 0.3386
6.4976 2.6507 0.3213
6.4977 2.7240 0.3040
6.4979 2.7979 0.2866
6.4980 2.8724 0.2692
6.4982 2.9477 0.2517
6.4983 3.0235 0.2343
6.4984 3.1001 0.2167
6.4986 3.1775 0.1991
6.4987 3.2556 0.1814
6.4989 3.3344 0.1637
6.4990 3.4141 0.1459
6.4992 3.4946 0.1281
6.4993 3.5760 0.1101
6.4995 3.6583 0.0921
6.4996 3.7415 0.0740
6.4998 3.8257 0.0558
6.4999 3.9109 0.0375
6.5001 3.9971 0.0191
6.5003 4.0844 0.0006
6.5004 4.1727 -0.0180
6.5006 4.2623 -0.0367
6.5007 4.3530 -0.0556
6.5009 4.4449 -0.0746
6.5011 4.5381 -0.0937
6.5013 4.6327 -0.1130
6.5021 4.7291 -0.1324
6.5024 4.8264 -0.1520
6.5027 4.9253 -0.1718
6.5029 5.0256 -0.1917
6.5032 5.1276 -0.2119
6.5034 5.2311 -0.2322
6.5037 5.3363 -0.2527
6.5040 5.4433 -0.2734
6.5043 5.5522 -0.2944
6.5045 5.6629 -0.3155
6.5048 5.7755 -0.3369
6.5051 5.8902 -0.3586
6.5054 6.0070 -0.3805
6.5057 6.1260 -0.4027
6.5060 6.2473 -0.4252
6.5064 6.3710 -0.4480
6.5067 6.4971 -0.4711
6.5070 6.6258 -0.4945
6.5074 6.7572 -0.5183
6.5077 6.8913 -0.5424
6.5080 7.0284 -0.5669
6.5084 7.1685 -0.5917
6.5088 7.3117 -0.6170
6.5091 7.4582 -0.6427
6.5095 7.6082 -0.6689
6.5111 7.7631 -0.6957
6.5112 7.9200 -0.7227
6.5112 8.0808 -0.7503
6.5113 8.2456 -0.7785
6.5114 8.4147 -0.8072
6.5115 8.5883 -0.8364
6.5115 8.7665 -0.8663
6.5116 8.9496 -0.8969
6.5117 9.1379 -0.9281
6.5118 9.3315 -0.9601
6.5119 9.5309 -0.9928
6.5120 9.7361 -1.0263
6.5121 9.9477 -1.0606
6.5122 10.1659 -1.0959
6.5122 10.3910 -1.1320
6.5123 10.6235 -1.1692
6.5119 10.8628 -1.2073
6.5125 11.1121 -1.2467
6.5131 11.3701 -1.2873
6.5137 11.6374 -1.3291
6.5144 11.9145 -1.3723
6.5150 12.2021 -1.4168
6.5157 12.5008 -1.4629
6.5165 12.8114 -1.5106
6.5172 13.1345 -1.5600
6.5180 13.4711 -1.6112
6.5231 13.8309 -1.6654
6.5235 14.1967 -1.7206
6.5240 14.5789 -1.7781
6.5245 14.9787 -1.8379
6.5251 15.3976 -1.9003
6.5256 15.8369 -1.9655
6.5262 16.2982 -2.0337
6.5253 16.7795 -2.1046
6.5260 17.2907 -2.1796
6.5268 17.8301 -2.2584
6.5276 18.4000 -2.3414
6.5285 19.0034 -2.4289
6.5294 19.6434 -2.5215
6.5287 20.3183 -2.6188
6.5300 21.0434 -2.7229
6.5314 21.8175 -2.8337
6.5329 22.6458 -2.9519
6.5367 23.5424 -3.0794
6.5395 24.5026 -3.2156
6.5425 25.5390 -3.3622
6.5293 26.5942 -3.5117
6.5307 27.8014 -3.6816
6.5360 29.1344 -3.8687
6.5407 30.5894 -4.0724
6.5477 32.2003 -4.2974
6.5534 33.9716 -4.5443
6.5482 35.8791 -4.8099
6.5546 38.0757 -5.1149
6.5623 40.5543 -5.4584
6.5550 43.2624 -5.8334
6.4987 1.4381 0.9532
6.4989 1.5036 0.9364
6.4991 1.5694 0.9196
6.4993 1.6355 0.9029
6.4957 1.7009 0.8857
6.4958 1.7676 0.8691
6.4959 1.8346 0.8525
6.4961 1.9020 0.8361
6.4962 1.9698 0.8196
6.4963 2.0380 0.8032
6.4964 2.1065 0.7868
6.4966 2.1755 0.7705
6.4967 2.2450 0.7542
6.4968 2.3149 0.7380
6.4970 2.3852 0.7218
6.4971 2.4561 0.7056
6.4972 2.5275 0.6894
6.4974 2.5995 0.6733
6.4975 2.6719 0.6571
6.4976 2.7450 0.6410
6.4978 2.8187 0.6249
6.4979 2.8930 0.6088
6.4980 2.9680 0.5928
6.4982 3.0436 0.5767
6.4983 3.1199 0.5606
6.4985 3.1969 0.5445
6.4986 3.2747 0.5284
6.4987 3.3532 0.5123
6.4989 3.4326 0.4962
6.4990 3.5127 0.4801
6.4992 3.5938 0.4639
6.4993 3.6757 0.4478
6.4995 3.7585 0.4316
6.4996 3.8423 0.4153
6.4998 3.9270 0.3991
6.4999 4.0128 0.3828
6.5001 4.0996 0.3664
6.5003 4.1875 0.3500
6.5004 4.2765 0.3336
6.5006 4.3667 0.3170
6.5008 4.4581 0.3005
6.5009 4.5507 0.2838
6.5011 4.6447 0.2671
6.5019 4.7404 0.2504
6.5022 4.8371 0.2335
6.5024 4.9352 0.2166
6.5027 5.0349 0.1995
6.5029 5.1361 0.1824
6.5032 5.2388 0.1652
6.5035 5.3433 0.1478
6.5037 5.4494 0.1304
6.5040 5.5573 0.1128
6.5043 5.6671 0.0951
6.5046 5.7788 0.0772
6.5048 5.8925 0.0592
6.5051 6.0082 0.0411
6.5054 6.1261 0.0228
6.5057 6.2462 0.0044
6.5061 6.3686 -0.0143
6.5064 6.4935 -0.0331
6.5067 6.6208 -0.0521
6.5070 6.7507 -0.0713
6.5074 6.8834 -0.0907
6.5077 7.0189 -0.1103
6.5081 7.1573 -0.1302
6.5084 7.2988 -0.1503
6.5088 7.4435 -0.1706
6.5092 7.5915 -0.1913
6.5103 7.7438 -0.2122
6.5103 7.8986 -0.2334
6.5104 8.0571 -0.2549
6.5104 8.2195 -0.2768
6.5105 8.3861 -0.2990
6.5106 8.5570 -0.3215
6.5106 8.7324 -0.3444
6.5107 8.9125 -0.3678
6.5108 9.0976 -0.3915
6.5109 9.2879 -0.4157
6.5109 9.4837 -0.4403
6.5110 9.6852 -0.4655
6.5111 9.8927 -0.4911
6.5112 10.1066 -0.5173
6.5112 10.3272 -0.5441
6.5113 10.5549 -0.5715
6.5116 10.7903 -0.5995
6.5121 11.0342 -0.6283
6.5127 11.2864 -0.6578
6.5133 11.5474 -0.6881
6.5140 11.8179 -0.7192
6.5146 12.0984 -0.7512
6.5153 12.3894 -0.7841
6.5160 12.6918 -0.8179
6.5168 13.0061 -0.8529
6.5175 13.3332 -0.8890
6.5183 13.6739 -0.9263
6.5221 14.0355 -0.9652
6.5226 14.4057 -1.0051
6.5230 14.7926 -1.0465
6.5235 15.1973 -1.0895
6.5241 15.6212 -1.1341
6.5246 16.0659 -1.1807
6.5252 16.5329 -1.2291
6.5249 17.0219 -1.2796
6.5256 17.5396 -1.3326
6.5264 18.0857 -1.3881
6.5272 18.6629 -1.4464
6.5280 19.2739 -1.5077
6.5277 19.9182 -1.5720
6.5289 20.6079 -1.6403
6.5303 21.3425 -1.7126
6.5317 22.1267 -1.7894
6.5345 22.9705 -1.8714
6.5371 23.8746 -1.9588
6.5399 24.8475 -2.0524
6.5302 25.8471 -2.1486
6.5316 26.9741 -2.2560
6.5330 28.1981 -2.3720
6.5389 29.5519 -2.4996
6.5437 31.0275 -2.6380
6.5494 32.6537 -2.7899
6.5551 34.4495 -2.9570
6.5511 36.3891 -3.1371
6.5572 38.6150 -3.3426
6.5558 41.0703 -3.5688
6.5761 43.9966 -3.8368
6.5675 47.1321 -4.1239
6.4987 1.5293 1.2625
6.4989 1.5951 1.2462
6.4955 1.6600 1.2293
6.4956 1.7263 1.2132
6.4957 1.7928 1.1972
6.4958 1.8597 1.1813
6.4960 1.9270 1.1654
6.4961 1.9946 1.1497
6.4962 2.0626 1.1341
6.4963 2.1310 1.1185
6.4965 2.1998 1.1030
6.4966 2.2691 1.0876
6.4967 2.3388 1.0722
6.4968 2.4090 1.0570
6.4970 2.4797 1.0418
6.4971 2.5509 1.0266
6.4972 2.6226 1.0116
6.4974 2.6949 0.9966
6.4975 2.7677 0.9816
6.4976 2.8412 0.9668
6.4978 2.9152 0.9519
6.4979 2.9899 0.9372
6.4980 3.0653 0.9224
6.4982 3.1413 0.9077
6.4983 3.2180 0.8931
6.4985 3.2955 0.8785
6.4986 3.3737 0.8640
6.4988 3.4527 0.8495
6.4989 3.5326 0.8350
6.4990 3.6132 0.8206
6.4992 3.6948 0.8062
6.4993 3.7772 0.7918
6.4995 3.8606 0.7774
6.4996 3.9449 0.7631
6.4998 4.0303 0.7488
6.5000 4.1166 0.7345
6.5001 4.2040 0.7202
6.5003 4.2926 0.7060
6.5004 4.3822 0.6917
6.5006 4.4731 0.6775
6.5008 4.5652 0.6633
6.5009 4.6585 0.6490
6.5017 4.7536 0.6348
6.5019 4.8497 0.6206
6.5022 4.9471 0.6064
6.5024 5.0461 0.5921
6.5027 5.1465 0.5778
6.5029 5.2486 0.5636
6.5032 5.3522 0.5493
6.5035 5.4575 0.5350
6.5037 5.5646 0.5206
6.5040 5.6735 0.5062
6.5043 5.7842 0.4918
6.5046 5.8969 0.4774
6.5049 6.0116 0.4629
6.5052 6.1284 0.4484
6.5055 6.2474 0.4338
6.5058 6.3686 0.4191
6.5061 6.4922 0.4044
6.5064 6.6182 0.3897
6.5067 6.7468 0.3749
6.5070 6.8780 0.3600
6.5074 7.0120 0.3450
6.5077 7.1488 0.3299
6.5081 7.2886 0.3148
6.5084 7.4315 0.2995
6.5088 7.5777 0.2842
6.5094 7.7276 0.2687
6.5095 7.8803 0.2531
6.5095 8.0366 0.2374
6.5096 8.1967 0.2216
6.5096 8.3609 0.2056
6.5097 8.5292 0.1894
6.5098 8.7019 0.1732
6.5098 8.8792 0.1567
6.5099 9.0612 0.1401
6.5099 9.2483 0.1233
6.5100 9.4407 0.1063
6.5100 9.6386 0.0891
6.5101 9.8424 0.0717
6.5102 10.0522 0.0540
6.5102 10.2685 0.0361
6.5103 10.4916 0.0179
6.5113 10.7234 -0.0006
6.5118 10.9620 -0.0193
6.5124 11.2087 -0.0384
6.5130 11.4639 -0.0578
6.5136 11.7281 -0.0776
6.5142 12.0018 -0.0977
6.5149 12.2857 -0.1183
6.5156 12.5803 -0.1393
6.5163 12.8863 -0.1608
6.5170 13.2045 -0.1827
6.5178 13.5356 -0.2053
6.5208 13.8850 -0.2284
6.5212 14.2439 -0.2521
6.5216 14.6186 -0.2764
6.5221 15.0102 -0.3014
6.5225 15.4198 -0.3272
6.5230 15.8490 -0.3538
6.5235 16.2991 -0.3813
6.5238 16.7713 -0.4097
6.5245 17.2689 -0.4392
6.5252 17.7931 -0.4698
6.5259 18.3461 -0.5016
6.5267 18.9307 -0.5347
6.5276 19.5495 -0.5693
6.5279 20.2044 -0.6054
6.5292 20.9031 -0.6433
6.5306 21.6473 -0.6832
6.5320 22.4418 -0.7252
6.5349 23.2970 -0.7698
6.5375 24.2131 -0.8169
6.5403 25.1989 -0.8670
6.5324 26.2188 -0.9189
6.5338 27.3615 -0.9758
6.5354 28.6026 -1.0368
6.5419 29.9777 -1.1034
6.5468 31.4743 -1.1752
6.5511 33.1159 -1.2533
6.5490 34.8945 -1.3373
6.5540 36.9092 -1.4313
6.5600 39.1648 -1.5355
6.5585 41.6540 -1.6498
6.5738 44.5870 -1.7828
6.5718 47.8113 -1.9285
6.4988 1.6228 1.5790
6.4954 1.6876 1.5624
6.4955 1.7537 1.5468
6.4956 1.8202 1.5313
6.4957 1.8869 1.5160
6.4958 1.9540 1.5008
6.4960 2.0215 1.4857
6.4961 2.0894 1.4707
6.4962 2.1576 1.4559
6.4963 2.2263 1.4412
6.4965 2.2954 1.4266
6.4966 2.3649 1.4121
6.4967 2.4349 1.3977
6.4969 2.5054 1.3835
6.4970 2.5764 1.3693
6.4971 2.6479 1.3553
6.4973 2.7199 1.3413
6.4974 2.7925 1.3275
6.4975 2.8658 1.3138
6.4977 2.9396 1.3001
6.4978 3.0140 1.2866
6.4979 3.0891 1.2732
6.4981 3.1648 1.2598
6.4982 3.2413 1.2466
6.4983 3.3185 1.2334
6.4985 3.3964 1.2204
6.4986 3.4751 1.2074
6.4988 3.5546 1.1945
6.4989 3.6349 1.1817
6.4991 3.7161 1.1690
6.4992 3.7982 1.1564
6.4994 3.8811 1.1439
6.4995 3.9651 1.1314
6.4997 4.0500 1.1190
6.4998 4.1359 1.1067
6.5000 4.2229 1.0945
6.5001 4.3109 1.0824
6.5003 4.4001 1.0703
6.5005 4.4904 1.0583
6.5006 4.5820 1.0464
6.5008 4.6748 1.0345
6.5014 4.7692 1.0228
6.5017 4.8647 1.0111
6.5019 4.9615 0.9995
6.5022 5.0598 0.9880
6.5024 5.1596 0.9765
6.5027 5.2608 0.9651
6.5029 5.3637 0.9537
6.5032 5.4683 0.9424
6.5035 5.5745 0.9312
6.5037 5.6825 0.9200
6.5040 5.7923 0.9089
6.5043 5.9041 0.8979
6.5046 6.0178 0.8869
6.5049 6.1336 0.8760
6.5052 6.2514 0.8652
6.5055 6.3715 0.8544
6.5058 6.4939 0.8436
6.5061 6.6187 0.8330
6.5064 6.7460 0.8224
6.5067 6.8758 0.8118
6.5071 7.0083 0.8013
6.5074 7.1436 0.7909
6.5077 7.2818 0.7805
6.5081 7.4230 0.7701
6.5084 7.5674 0.7599
6.5086 7.7149 0.7496
6.5087 7.8656 0.7394
6.5087 8.0198 0.7293
6.5087 8.1778 0.7192
6.5088 8.3396 0.7091
6.5088 8.5055 0.6991
6.5089 8.6756 0.6892
6.5089 8.8502 0.6793
6.5090 9.0294 0.6695
6.5090 9.2134 0.6597
6.5091 9.4026 0.6500
6.5091 9.5971 0.6404
6.5091 9.7972 0.6308
6.5092 10.0032 0.6212
6.5092 10.2154 0.6117
6.5093 10.4342 0.6023
6.5093 10.6598 0.5929
6.5115 10.8963 0.5838
6.5121 11.1377 0.5746
6.5127 11.3874 0.5655
6.5133 11.6457 0.5564
6.5139 11.9131 0.5473
6.5145 12.1901 0.5384
6.5152 12.4774 0.5295
6.5159 12.7756 0.5207
6.5166 13.0854 0.5119
6.5173 13.4075 0.5032
6.5194 13.7455 0.4947
6.5198 14.0939 0.4861
6.5202 14.4572 0.4777
6.5206 14.8365 0.4693
6.5211 15.2328 0.4609
6.5215 15.6476 0.4527
6.5220 16.0820 0.4446
6.5225 16.5378 0.4366
6.5234 17.0177 0.4287
6.5241 17.5216 0.4209
6.5248 18.0525 0.4133
6.5255 18.6126 0.4057
6.5263 19.2047 0.3983
6.5270 19.8313 0.3911
6.5282 20.4973 0.3840
6.5295 21.2052 0.3771
6.5308 21.9593 0.3705
6.5328 22.7663 0.3640
6.5353 23.6312 0.3578
6.5379 24.5595 0.3519
6.5407 25.5586 0.3463
6.5346 26.5995 0.3405
6.5361 27.7583 0.3354
6.5403 29.0281 0.3309
6.5449 30.4139 0.3269
6.5475 31.9198 0.3232
6.5528 33.5891 0.3203
6.5518 35.3983 0.3177
6.5570 37.4420 0.3162
6.5627 39.7281 0.3157
6.5613 42.2520 0.3159
6.5715 45.1909 0.3180
6.5761 48.5075 0.3215
6.4952 1.7178 1.9034
6.4954 1.7838 1.8882
6.4955 1.8501 1.8732
6.4956 1.9167 1.8584
6.4957 1.9837 1.8438
6.4959 2.0510 1.8293
6.4960 2.1187 1.8150
6.4961 2.1868 1.8008
6.4962 2.2553 1.7868
6.4964 2.3242 1.7730
6.4965 2.3936 1.7593
6.4966 2.4634 1.7458
6.4967 2.5337 1.7324
6.4969 2.6045 1.7192
6.4970 2.6758 1.7061
6.4971 2.7476 1.6932
6.4973 2.8200 1.6804
6.4974 2.8930 1.6678
6.4975 2.9666 1.6553
6.4977 3.0407 1.6429
6.4978 3.1156 1.6308
6.4979 3.1911 1.6187
6.4981 3.2673 1.6068
6.4982 3.3441 1.5950
6.4984 3.4218 1.5834
6.4985 3.5002 1.5719
6.4986 3.5793 1.5606
6.4988 3.6593 1.5493
6.4989 3.7402 1.5383
6.4991 3.8219 1.5274
6.4992 3.9045 1.5166
6.4994 3.9880 1.5059
6.4995 4.0725 1.4954
6.4997 4.1580 1.4850
6.4998 4.2445 1.4748
6.5000 4.3322 1.4647
6.5001 4.4209 1.4547
6.5003 4.5107 1.4449
6.5005 4.6017 1.4353
6.5006 4.6940 1.4257
6.5012 4.7878 1.4164
6.5015 4.8827 1.4072
6.5017 4.9789 1.3981
6.5019 5.0765 1.3892
6.5022 5.1756 1.3804
6.5024 5.2762 1.3717
6.5027 5.3784 1.3632
6.5030 5.4821 1.3549
6.5032 5.5876 1.3467
6.5035 5.6948 1.3387
6.5038 5.8037 1.3308
6.5040 5.9146 1.3230
6.5043 6.0273 1.3155
6.5046 6.1421 1.3081
6.5049 6.2589 1.3008
6.5052 6.3780 1.2938
6.5055 6.4992 1.2869
6.5058 6.6228 1.2802
6.5061 6.7488 1.2736
6.5064 6.8773 1.2673
6.5067 7.0084 1.2611
6.5071 7.1423 1.2551
6.5074 7.2790 1.2493
6.5077 7.4186 1.2438
6.5081 7.5613 1.2384
6.5078 7.7064 1.2331
6.5078 7.8552 1.2281
6.5079 8.0075 1.2233
6.5079 8.1633 1.2188
6.5079 8.3230 1.2144
6.5080 8.4865 1.2104
6.5080 8.6542 1.2065
6.5080 8.8262 1.2030
6.5081 9.0026 1.1997
6.5081 9.1838 1.1967
6.5081 9.3699 1.1940
6.5082 9.5611 1.1915
6.5082 9.7578 1.1894
6.5082 9.9602 1.1876
6.5083 10.1685 1.1862
6.5083 10.3832 1.1851
6.5083 10.6045 1.1844
6.5112 10.8375 1.1846
6.5118 11.0741 1.1848
6.5123 11.3185 1.1854
6.5129 11.5711 1.1864
6.5135 11.8326 1.1880
6.5142 12.1032 1.1900
6.5148 12.3837 1.1925
6.5155 12.6746 1.1956
6.5162 12.9765 1.1993
6.5169 13.2902 1.2037
6.5177 13.6164 1.2086
6.5185 13.9559 1.2143
6.5188 14.3086 1.2207
6.5192 14.6764 1.2278
6.5196 15.0604 1.2358
6.5200 15.4617 1.2446
6.5204 15.8817 1.2545
6.5209 16.3216 1.2653
6.5223 16.7858 1.2775
6.5230 17.2710 1.2907
6.5236 17.7815 1.3052
6.5243 18.3192 1.3211
6.5250 18.8867 1.3385
6.5258 19.4865 1.3576
6.5273 20.1236 1.3786
6.5285 20.7985 1.4015
6.5298 21.5159 1.4266
6.5311 22.2801 1.4541
6.5332 23.0982 1.4843
6.5357 23.9749 1.5175
6.5383 24.9158 1.5540
6.5353 25.9054 1.5927
6.5369 26.9913 1.6364
6.5385 28.1666 1.6847
6.5433 29.4569 1.7389
6.5481 30.8628 1.7990
6.5492 32.3830 1.8647
6.5546 34.0760 1.9392
6.5547 35.9167 2.0211
6.5581 37.9790 2.1142
6.5656 40.3077 2.2210
6.5641 42.8674 2.3390
6.5691 45.8115 2.4767
6.5806 49.2242 2.6381
6.4953 1.8170 2.2394
6.4954 1.8832 2.2249
6.4955 1.9497 2.2106
6.4956 2.0165 2.1964
6.4957 2.0837 2.1825
6.4959 2.1512 2.1688
6.4960 2.2191 2.1552
6.4961 2.2875 2.1419
6.4962 2.3562 2.1288
6.4964 2.4254 2.1159
6.4965 2.4950 2.1031
6.4966 2.5651 2.0906
6.4968 2.6358 2.0782
6.4969 2.7069 2.0661
6.4970 2.7785 2.0541
6.4971 2.8507 2.0423
6.4973 2.9234 2.0307
6.4974 2.9968 2.0194
6.4975 3.0707 2.0082
6.4977 3.1453 1.9972
6.4978 3.2205 1.9863
6.4980 3.2964 1.9757
6.4981 3.3731 1.9653
6.4982 3.4504 1.9550
6.4984 3.5285 1.9450
6.4985 3.6074 1.9351
6.4987 3.6870 1.9254
6.4988 3.7675 1.9160
6.4989 3.8489 1.9067
6.4991 3.9311 1.8976
6.4992 4.0143 1.8887
6.4994 4.0984 1.8800
6.4995 4.1835 1.8715
6.4997 4.2696 1.8632
6.4998 4.3568 1.8551
6.5000 4.4450 1.8472
6.5002 4.5344 1.8395
6.5003 4.6249 1.8320
6.5008 4.7169 1.8248
6.5010 4.8099 1.8178
6.5012 4.9042 1.8109
6.5015 4.9999 1.8043
6.5017 5.0969 1.7979
6.5019 5.1954 1.7918
6.5022 5.2953 1.7858
6.5024 5.3968 1.7801
6.5027 5.4998 1.7746
6.5030 5.6045 1.7694
6.5032 5.7109 1.7644
6.5035 5.8190 1.7596
6.5038 5.9290 1.7551
6.5040 6.0409 1.7509
6.5043 6.1547 1.7469
6.5046 6.2705 1.7432
6.5049 6.3885 1.7398
6.5052 6.5087 1.7366
6.5055 6.6311 1.7338
6.5058 6.7559 1.7312
6.5061 6.8832 1.7289
6.5064 7.0130 1.7270
6.5067 7.1455 1.7253
6.5071 7.2807 1.7240
6.5074 7.4188 1.7231
6.5078 7.5599 1.7225
6.5070 7.7027 1.7219
6.5070 7.8498 1.7219
6.5070 8.0002 1.7224
6.5070 8.1540 1.7232
6.5070 8.3116 1.7244
6.5071 8.4729 1.7260
6.5071 8.6383 1.7281
6.5071 8.8078 1.7307
6.5071 8.9816 1.7337
6.5072 9.1601 1.7372
6.5072 9.3432 1.7412
6.5072 9.5314 1.7458
6.5072 9.7249 1.7509
6.5072 9.9238 1.7565
6.5073 10.1285 1.7628
6.5073 10.3393 1.7698
6.5073 10.5565 1.7773
6.5110 10.7864 1.7866
6.5115 11.0183 1.7958
6.5120 11.2578 1.8057
6.5126 11.5052 1.8165
6.5132 11.7610 1.8281
6.5138 12.0257 1.8406
6.5144 12.2998 1.8540
6.5151 12.5838 1.8685
6.5158 12.8783 1.8840
6.5165 13.1841 1.9006
6.5172 13.5018 1.9185
6.5172 13.8304 1.9373
6.5175 14.1732 1.9576
6.5178 14.5304 1.9794
6.5182 14.9028 2.0026
6.5186 15.2917 2.0275
6.5189 15.6982 2.0541
6.5193 16.1235 2.0826
6.5198 16.5691 2.1130
6.5219 17.0411 2.1462
6.5225 17.5327 2.1812
6.5232 18.0499 2.2187
6.5238 18.5947 2.2590
6.5246 19.1697 2.3021
6.5264 19.7809 2.3490
6.5276 20.4256 2.3990
6.5288 21.1097 2.4529
6.5301 21.8369 2.5110
6.5315 22.6116 2.5738
6.5336 23.4412 2.6419
6.4646 24.0639 2.6861
6.2815 24.2894 2.6861
6.0938 24.5098 2.6861
5.9015 24.7248 2.6861
5.7048 24.9341 2.6861
5.5036 25.1375 2.6861
5.2981 25.3347 2.6861
4.8021 26.6938 2.7699
5.0884 25.5254 2.6861
4.6868 27.5339 2.8385
4.8746 25.7093 2.6861
4.4487 27.7050 2.8385
3.9613 28.0222 2.8385
3.7124 28.1678 2.8385
4.2068 27.8679 2.8385
3.4602 28.3044 2.8385
3.2050 28.4318 2.8385
2.9470 28.5497 2.8385
2.6863 28.6580 2.8385
2.4232 28.7565 2.8385
2.1579 28.8451 2.8385
1.8907 28.9235 2.8385
1.6217 28.9916 2.8385
6.4953 1.9200 2.5884
6.4954 1.9864 2.5745
6.4955 2.0531 2.5608
6.4956 2.1201 2.5474
6.4958 2.1875 2.5342
6.4959 2.2552 2.5213
6.4960 2.3234 2.5085
6.4961 2.3920 2.4961
6.4963 2.4610 2.4838
6.4964 2.5305 2.4719
6.4965 2.6004 2.4601
6.4966 2.6708 2.4486
6.4968 2.7417 2.4373
6.4969 2.8132 2.4263
6.4970 2.8851 2.4154
6.4972 2.9577 2.4049
6.4973 3.0308 2.3945
6.4974 3.1045 2.3844
6.4976 3.1789 2.3746
6.4977 3.2539 2.3649
6.4978 3.3295 2.3556
6.4980 3.4059 2.3464
6.4981 3.4829 2.3375
6.4982 3.5608 2.3288
6.4984 3.6393 2.3204
6.4985 3.7187 2.3122
6.4987 3.7989 2.3043
6.4988 3.8799 2.2966
6.4990 3.9618 2.2892
6.4991 4.0446 2.2820
6.4993 4.1284 2.2751
6.4994 4.2131 2.2684
6.4996 4.2988 2.2620
6.4997 4.3855 2.2559
6.4999 4.4733 2.2500
6.5000 4.5623 2.2444
6.5002 4.6523 2.2390
6.5005 4.7437 2.2340
6.5008 4.8363 2.2293
6.5010 4.9300 2.2248
6.5012 5.0251 2.2206
6.5015 5.1216 2.2167
6.5017 5.2194 2.2131
6.5020 5.3188 2.2098
6.5022 5.4196 2.2068
6.5025 5.5219 2.2042
6.5027 5.6259 2.2018
6.5030 5.7315 2.1998
6.5032 5.8389 2.1981
6.5035 5.9481 2.1968
6.5038 6.0590 2.1958
6.5040 6.1720 2.1952
6.5043 6.2869 2.1949
6.5046 6.4039 2.1950
6.5049 6.5230 2.1956
6.5052 6.6444 2.1965
6.5055 6.7681 2.1978
6.5058 6.8941 2.1995
6.5061 7.0227 2.2017
6.5064 7.1539 2.2043
6.5068 7.2877 2.2074
6.5071 7.4244 2.2109
6.5074 7.5640 2.2150
6.5061 7.7047 2.2190
6.5061 7.8500 2.2239
6.5061 7.9986 2.2294
6.5062 8.1506 2.2354
6.5062 8.3062 2.2421
6.5062 8.4654 2.2493
6.5062 8.6286 2.2571
6.5062 8.7958 2.2656
6.5062 8.9672 2.2747
6.5062 9.1430 2.2846
6.5062 9.3235 2.2951
6.5062 9.5088 2.3064
6.5063 9.6992 2.3185
6.5063 9.8949 2.3315
6.5063 10.0961 2.3453
6.5063 10.3033 2.3599
6.5063 10.5166 2.3755
6.5107 10.7437 2.3938
6.5112 10.9713 2.4116
6.5118 11.2061 2.4305
6.5123 11.4486 2.4506
6.5129 11.6991 2.4719
6.5135 11.9582 2.4944
6.5141 12.2263 2.5183
6.5148 12.5038 2.5436
6.5154 12.7915 2.5704
6.5161 13.0899 2.5988
6.5168 13.3997 2.6289
6.5159 13.7179 2.6601
6.4979 14.0123 2.6861
6.4136 14.1715 2.6861
6.3265 14.3296 2.6861
6.2367 14.4867 2.6861
6.1442 14.6424 2.6861
6.0490 14.7968 2.6861
5.9510 14.9498 2.6861
5.8503 15.1011 2.6861
5.7469 15.2508 2.6861
5.6408 15.3987 2.6861
5.5319 15.5446 2.6861
5.4204 15.6885 2.6861
5.3062 15.8303 2.6861
4.8229 16.3734 2.6861
5.1893 15.9697 2.6861
4.7830 16.8099 2.7361
5.0698 16.1069 2.6861
4.7713 17.3777 2.8071
4.9476 16.2415 2.6861
4.6850 17.7028 2.8385
4.5426 17.8300 2.8385
3.9484 18.3033 2.8385
4.3977 17.9537 2.8385
3.7940 18.4122 2.8385
4.2503 18.0739 2.8385
3.6373 18.5172 2.8385
4.1006 18.1905 2.8385
3.4785 18.6181 2.8385
3.3176 18.7148 2.8385
2.6550 19.0576 2.8385
3.1547 18.8072 2.8385
2.4850 19.1319 2.8385
2.9899 18.8952 2.8385
2.3134 19.2014 2.8385
2.8233 18.9787 2.8385
2.1404 19.2660 2.8385
1.9661 19.3257 2.8385
1.7905 19.3805 2.8385
1.6137 19.4302 2.8385
1.4360 19.4748 2.8385
1.2573 19.5142 2.8385
1.0778 19.5485 2.8385
5.9090 1.8446 2.6861
5.9358 1.9137 2.6861
5.9622 1.9836 2.6861
5.9883 2.0543 2.6861
6.0141 2.1257 2.6861
6.0394 2.1978 2.6861
6.0644 2.2708 2.6861
6.0890 2.3445 2.6861
6.1132 2.4189 2.6861
6.1370 2.4942 2.6861
6.1604 2.5702 2.6861
6.1833 2.6471 2.6861
6.2058 2.7247 2.6861
6.2278 2.8031 2.6861
6.2494 2.8824 2.6861
6.2704 2.9623 2.6861
6.2910 3.0432 2.6861
6.3110 3.1248 2.6861
6.3305 3.2072 2.6861
6.3495 3.2905 2.6861
6.3679 3.3745 2.6861
6.3858 3.4594 2.6861
6.4030 3.5451 2.6861
6.4197 3.6316 2.6861
6.4357 3.7189 2.6861
6.4511 3.8070 2.6861
6.4659 3.8959 2.6861
6.4800 3.9857 2.6861
6.4934 4.0762 2.6861
6.4991 4.1630 2.6833
6.4993 4.2474 2.6784
6.4994 4.3327 2.6738
6.4996 4.4191 2.6696
6.4997 4.5065 2.6657
6.4999 4.5950 2.6621
6.5000 4.6846 2.6589
6.5003 4.7755 2.6561
6.5006 4.8676 2.6535
6.5008 4.9608 2.6514
6.5010 5.0554 2.6496
6.5012 5.1513 2.6481
6.5015 5.2486 2.6471
6.5017 5.3474 2.6464
6.5020 5.4475 2.6461
6.5022 5.5493 2.6462
6.5025 5.6526 2.6467
6.5027 5.7575 2.6477
6.5030 5.8641 2.6490
6.5032 5.9725 2.6508
6.5035 6.0827 2.6530
6.5038 6.1948 2.6557
6.5041 6.3089 2.6589
6.5043 6.4249 2.6625
6.5046 6.5431 2.6666
6.5049 6.6635 2.6713
6.5052 6.7861 2.6764
6.5055 6.9110 2.6821
6.5005 7.0328 2.6861
6.4844 7.1445 2.6861
6.4670 7.2568 2.6861
6.4482 7.3694 2.6861
6.4281 7.4826 2.6861
6.4066 7.5961 2.6861
6.3837 7.7100 2.6861
6.3594 7.8243 2.6861
6.3337 7.9389 2.6861
6.3064 8.0537 2.6861
6.2777 8.1689 2.6861
6.2475 8.2842 2.6861
6.2157 8.3998 2.6861
6.1824 8.5155 2.6861
6.1475 8.6314 2.6861
6.1111 8.7473 2.6861
6.0730 8.8633 2.6861
6.0333 8.9792 2.6861
5.9920 9.0952 2.6861
5.9490 9.2111 2.6861
5.9043 9.3268 2.6861
5.8580 9.4424 2.6861
5.8099 9.5578 2.6861
5.7601 9.6729 2.6861
5.7086 9.7877 2.6861
5.6554 9.9021 2.6861
5.6004 10.0162 2.6861
5.5436 10.1298 2.6861
5.4850 10.2429 2.6861
5.4247 10.3554 2.6861
5.3625 10.4672 2.6861
5.2986 10.5785 2.6861
5.2329 10.6890 2.6861
5.1653 10.7986 2.6861
5.0960 10.9075 2.6861
5.0248 11.0154 2.6861
4.9518 11.1224 2.6861
4.8771 11.2283 2.6861
4.8005 11.3332 2.6861
4.7734 11.5611 2.7153
4.7662 11.8483 2.7580
4.7586 12.1477 2.8031
4.7302 12.4065 2.8385
4.6398 12.5106 2.8385
4.2601 12.9107 2.8385
4.5476 12.6131 2.8385
4.1606 13.0063 2.8385
4.4536 12.7140 2.8385
4.0594 13.1000 2.8385
4.3577 12.8132 2.8385
3.9565 13.1918 2.8385
3.8519 13.2816 2.8385
3.4169 13.6192 2.8385
2.9573 13.9193 2.8385
3.7456 13.3693 2.8385
3.3042 13.6979 2.8385
2.8389 13.9880 2.8385
3.6376 13.4548 2.8385
3.1900 13.7741 2.8385
2.7191 14.0541 2.8385
3.5281 13.5381 2.8385
3.0744 13.8480 2.8385
2.5980 14.1175 2.8385
2.4757 14.1782 2.8385
1.9751 14.3924 2.8385
1.4591 14.5590 2.8385
2.3522 14.2360 2.8385
1.8475 14.4386 2.8385
1.3282 14.5929 2.8385
2.2276 14.2911 2.8385
1.7188 14.4818 2.8385
1.1965 14.6237 2.8385
2.1019 14.3432 2.8385
1.5894 14.5219 2.8385
1.0643 14.6513 2.8385
0.9315 14.6756 2.8385
0.7983 14.6968 2.8385
5.2318 1.7241 2.6861
5.2517 1.7846 2.6861
5.2713 1.8456 2.6861
5.2904 1.9072 2.6861
5.3092 1.9694 2.6861
5.3276 2.0322 2.6861
5.3456 2.0955 2.6861
5.3631 2.1595 2.6861
5.3803 2.2240 2.6861
5.3970 2.2891 2.6861
5.4133 2.3547 2.6861
5.4291 2.4209 2.6861
5.4444 2.4877 2.6861
5.4593 2.5551 2.6861
5.4737 2.6230 2.6861
5.4876 2.6915 2.6861
5.5010 2.7606 2.6861
5.5139 2.8302 2.6861
5.5262 2.9005 2.6861
5.5380 2.9712 2.6861
5.5492 3.0426 2.6861
5.5599 3.1145 2.6861
5.5700 3.1870 2.6861
5.5796 3.2601 2.6861
5.5885 3.3337 2.6861
5.5968 3.4078 2.6861
5.6045 3.4825 2.6861
5.6115 3.5578 2.6861
5.6179 3.6336 2.6861
5.6237 3.7099 2.6861
5.6287 3.7868 2.6861
5.6331 3.8641 2.6861
5.6368 3.9420 2.6861
5.6397 4.0205 2.6861
5.6419 4.0994 2.6861
5.6434 4.1788 2.6861
5.6441 4.2587 2.6861
5.6441 4.3391 2.6861
5.6432 4.4200 2.6861
5.6416 4.5013 2.6861
5.6391 4.5832 2.6861
5.6358 4.6655 2.6861
5.6317 4.7481 2.6861
5.6267 4.8313 2.6861
5.6209 4.9148 2.6861
5.6141 4.9988 2.6861
5.6065 5.0831 2.6861
5.5980 5.1679 2.6861
5.5885 5.2530 2.6861
5.5781 5.3384 2.6861
5.5667 5.4242 2.6861
5.5543 5.5103 2.6861
5.5410 5.5968 2.6861
5.5266 5.6835 2.6861
5.5113 5.7705 2.6861
5.4949 5.8577 2.6861
5.4775 5.9453 2.6861
5.4590 6.0330 2.6861
5.4394 6.1209 2.6861
5.4188 6.2090 2.6861
5.3970 6.2973 2.6861
5.3742 6.3857 2.6861
5.3502 6.4743 2.6861
5.3251 6.5629 2.6861
5.2988 6.6516 2.6861
5.2714 6.7404 2.6861
5.2428 6.8291 2.6861
5.2131 6.9179 2.6861
5.1821 7.0067 2.6861
5.1499 7.0954 2.6861
5.1165 7.1840 2.6861
5.0819 7.2726 2.6861
5.0460 7.3610 2.6861
5.0089 7.4492 2.6861
4.9706 7.5372 2.6861
4.9310 7.6250 2.6861
4.8901 7.7126 2.6861
4.8479 7.7999 2.6861
4.8044 7.8868 2.6861
4.7740 7.9978 2.6942
4.7646 8.1468 2.7152
4.7604 8.3096 2.7403
4.7560 8.4772 2.7666
4.7513 8.6498 2.7941
4.7464 8.8275 2.8229
4.7171 8.9649 2.8385
4.6602 9.0527 2.8385
4.6019 9.1399 2.8385
4.5422 9.2264 2.8385
4.4811 9.3121 2.8385
4.4186 9.3971 2.8385
4.3547 9.4812 2.8385
4.2895 9.5644 2.8385
4.2229 9.6467 2.8385
4.1549 9.7281 2.8385
4.0856 9.8084 2.8385
4.0149 9.8878 2.8385
3.9429 9.9660 2.8385
3.8695 10.0431 2.8385
3.7949 10.1190 2.8385
3.7189 10.1938 2.8385
3.6417 10.2673 2.8385
3.5631 10.3395 2.8385
3.4834 10.4104 2.8385
3.4023 10.4798 2.8385
3.3201 10.5479 2.8385
3.2366 10.6145 2.8385
3.1520 10.6797 2.8385
3.0662 10.7433 2.8385
2.9792 10.8053 2.8385
2.8912 10.8657 2.8385
2.8020 10.9244 2.8385
2.7118 10.9814 2.8385
2.6205 11.0368 2.8385
2.5282 11.0904 2.8385
2.4350 11.1421 2.8385
2.3408 11.1921 2.8385
2.2457 11.2401 2.8385
2.1496 11.2863 2.8385
2.0528 11.3305 2.8385
1.9551 11.3728 2.8385
1.8566 11.4131 2.8385
1.7574 11.4513 2.8385
1.6575 11.4876 2.8385
1.5568 11.5217 2.8385
1.4556 11.5538 2.8385
1.3538 11.5837 2.8385
1.2514 11.6115 2.8385
1.1484 11.6372 2.8385
1.0450 11.6606 2.8385
0.9412 11.6819 2.8385
0.8370 11.7010 2.8385
0.7324 11.7178 2.8385
0.6275 11.7324 2.8385
