ply
format ascii 1.0
element vertex 1341
property float32 x
property float32 y
property float32 z
end_header
-5.7610 13.8426 -7.0884
-5.9226 13.8053 -7.0815
-6.0848 13.7681 -7.0750
-6.1089 13.4263 -6.9121
-6.2949 13.4457 -6.9353
-6.6050 13.7186 -7.0900
-6.5172 13.1691 -6.8198
-6.7961 13.3666 -6.9365
-6.8716 13.1608 -6.8444
-7.1135 13.2725 -6.9177
-7.3002 13.2746 -6.9346
-7.3458 13.0229 -6.8190
-7.3388 12.6889 -6.6602
-7.4946 12.6425 -6.6523
-7.4463 12.2586 -6.4667
-7.4102 11.9090 -6.2988
-7.9580 12.4887 -6.6231
-8.0128 12.2823 -6.5317
-7.2633 4.8081 -3.0926
-26.7249 13.6843 -9.7547
-26.8097 13.3889 -9.6519
-26.8940 13.0949 -9.5501
-26.9777 12.8022 -9.4493
-26.8248 12.4016 -9.2679
-26.9103 12.1154 -9.1712
-26.7121 11.7062 -8.9801
-27.0799 11.5461 -8.9803
-26.7178 11.0778 -8.7402
-27.0913 10.9174 -8.7423
-27.0839 10.2925 -8.5049
-27.0004 10.5693 -8.5950
-22.9159 8.4488 -7.0987
-23.0394 7.7238 -6.8507
-22.7752 8.1410 -6.9595
-23.2493 7.5390 -6.8193
-23.0473 7.9813 -6.9473
-23.5382 7.3763 -6.8102
-23.2795 7.0435 -6.6437
-23.4673 6.8482 -6.6061
-23.6573 6.6513 -6.5686
-24.1869 6.0358 -6.4432
-23.8146 6.4431 -6.5218
-25.3497 6.0622 -6.6599
-23.8832 6.2101 -6.4510
-24.4767 5.6001 -6.3417
-24.5632 5.3670 -6.2759
-24.7164 5.1473 -6.2272
-24.7927 4.9105 -6.1593
-24.8690 4.6734 -6.0917
-5.6429 13.7746 -6.2122
-6.0032 13.8014 -6.2419
-5.8222 13.7880 -6.2269
-6.1746 13.7891 -6.2456
-6.4785 13.3047 -6.0548
-6.3358 13.7521 -6.2383
-6.2994 13.2965 -6.0412
-6.6595 13.3128 -6.0686
-7.1371 13.1943 -6.0468
-6.9293 13.4901 -6.1601
-7.1937 12.9669 -5.9538
-7.0462 13.3649 -6.1137
-7.2246 12.7020 -5.8435
-7.8749 13.1851 -6.0903
-7.2549 12.4455 -5.7369
-7.4476 12.1743 -5.6353
-8.0488 12.2640 -5.7149
-7.4116 11.8317 -5.4886
-7.9948 12.4673 -5.7964
-7.3155 4.7528 -2.6150
-7.2700 4.8285 -2.6386
-22.9857 9.6064 -6.2537
-23.1195 9.1282 -6.1004
-23.0528 9.3669 -6.1767
-23.1306 8.8689 -6.0101
-23.2436 8.1305 -5.7655
-23.0080 8.5618 -5.8868
-23.0893 7.8218 -5.6386
-22.8879 8.2606 -5.7661
-23.8105 7.8054 -5.7244
-24.0459 7.3616 -5.6016
-23.9672 7.5962 -5.6722
-25.0617 7.4040 -5.7462
-25.1282 7.1560 -5.6702
-25.3405 6.9484 -5.6270
-25.0124 6.5954 -5.4652
-25.4168 6.4364 -5.4640
-25.0495 6.0831 -5.2977
-24.8336 5.7740 -5.1663
-25.5545 5.6789 -5.2288
-27.1186 5.7491 -5.4569
-27.6659 5.5835 -5.4741
-5.3493 13.2601 -5.2045
-5.5564 13.3631 -5.2501
-5.7684 13.4685 -5.2968
-6.0476 13.7171 -5.4003
-6.1551 13.5700 -5.3481
-5.9247 12.7032 -5.0121
-6.4930 13.5463 -5.3509
-6.6417 13.4893 -5.3347
-6.7878 13.4265 -5.3164
-6.8903 13.2797 -5.2649
-7.0899 13.3193 -5.2875
-7.1976 13.1852 -5.2412
-7.4536 13.3192 -5.3018
-7.4227 12.9429 -5.1593
-7.3934 12.5838 -5.0235
-7.3228 12.1696 -4.8654
-7.6497 12.4166 -4.9718
-7.1763 11.3797 -4.5638
-8.1586 12.6422 -5.0784
-8.2189 12.4480 -5.0088
-7.2971 4.7558 -2.1650
-28.4242 14.0074 -6.8851
-28.6129 13.7495 -6.8123
-28.4238 12.9720 -6.5364
-28.5178 13.3576 -6.6732
-28.3669 12.6085 -6.4103
-28.4647 11.6550 -6.0999
-28.7317 12.4321 -6.3795
-30.4529 12.1199 -6.4102
-29.1674 12.2801 -6.3627
-30.6990 11.8689 -6.3465
-31.0099 11.2930 -6.1813
-25.4690 8.9927 -4.9841
-31.3218 11.7567 -6.3588
-25.5421 8.7373 -4.9063
-25.6876 8.2279 -4.7518
-25.6149 8.4824 -4.8289
-25.8782 8.0103 -4.6965
-27.8238 8.3149 -4.9531
-27.9552 8.0570 -4.8804
-28.0271 7.7818 -4.7976
-28.3011 7.5608 -4.7489
-28.3772 7.2851 -4.6668
-28.4533 7.0094 -4.5849
-29.0329 6.8526 -4.5827
-30.0887 6.7929 -4.6511
-32.3843 6.9804 -4.9011
-7.2981 31.0226 -10.3759
-7.2909 29.5879 -9.8987
-7.7280 29.9967 -10.0384
-5.4302 13.2578 -4.4590
-5.6359 13.3598 -4.4955
-5.8466 13.4642 -4.5330
-6.0185 13.4729 -4.5383
-6.1815 13.4586 -4.5359
-6.3457 13.4442 -4.5336
-6.5109 13.4297 -4.5313
-6.5876 13.2347 -4.4682
-6.7322 13.1793 -4.4522
-6.9987 13.3560 -4.5148
-7.1264 13.2624 -4.4860
-7.0787 12.8515 -4.3500
-7.3826 13.0799 -4.4303
-7.2719 12.5771 -4.2631
-7.9167 13.3705 -4.5353
-7.2277 11.9234 -4.0475
-7.1640 11.5469 -3.9227
-8.0611 12.6978 -4.3171
-8.1151 12.4956 -4.2519
-8.6088 12.9609 -4.4139
-7.2826 4.7602 -1.7277
-29.0501 15.1152 -5.6706
-30.9974 14.9801 -5.6911
-30.1360 14.1994 -5.4191
-30.5236 14.0166 -5.3747
-27.9443 9.9546 -4.0274
-40.7838 11.8891 -5.0658
-28.8185 8.0973 -3.4865
-40.5932 10.9805 -4.7809
-40.4996 10.5334 -4.6410
-40.4071 10.0908 -4.5026
-40.3156 9.6526 -4.3658
-30.2171 6.9251 -3.1779
-5.9994 30.1102 -8.5005
-6.4518 30.7076 -8.6684
-6.6915 30.2777 -8.5462
-7.1301 30.7395 -8.6757
-7.3246 30.1490 -8.5082
-7.5882 29.8752 -8.4300
-7.9539 30.0039 -8.4653
-5.5111 13.6559 -3.8459
-5.6886 13.6866 -3.8538
-5.6340 13.1695 -3.7075
-5.8254 13.2375 -3.7259
-6.0205 13.3067 -3.7445
-5.7669 12.4041 -3.4898
-6.6306 13.8858 -3.9058
-6.7400 13.7489 -3.8664
-6.8145 13.5464 -3.8085
-6.8997 13.3715 -3.7585
-7.0406 13.3071 -3.7394
-7.2073 13.2901 -3.7337
-7.3403 13.2101 -3.7102
-7.3908 12.9855 -3.6461
-7.4501 12.7832 -3.5883
-7.2142 12.0920 -3.3932
-7.1515 11.7128 -3.2858
-8.2542 13.2131 -3.7056
-8.3137 13.0106 -3.6476
-8.4144 12.8764 -3.6088
-8.5285 12.7646 -3.5762
-8.6420 12.6533 -3.5438
-8.7551 12.5426 -3.5115
-7.2712 4.7659 -1.3000
-39.8804 15.2127 -3.9700
-39.7909 14.7363 -3.8325
-39.7025 14.2656 -3.6967
-39.6151 13.8004 -3.5624
-39.5287 13.3407 -3.4297
-39.4432 12.8861 -3.2983
-39.3586 12.4366 -3.1684
-39.2749 11.9919 -3.0398
-39.1920 11.5518 -2.9126
-38.7513 11.0144 -2.7610
-38.7584 10.6112 -2.6433
-39.0974 10.2976 -2.5479
-39.1045 9.8952 -2.4303
-39.1115 9.4948 -2.3133
-5.7437 30.9058 -7.1672
-5.9919 30.4925 -7.0678
-6.2680 30.2502 -7.0079
-6.5891 30.2323 -6.9998
-6.9470 30.3707 -7.0277
-7.2198 30.1359 -6.9690
-7.5464 30.1301 -6.9631
-7.5924 29.0451 -6.7078
-8.2933 30.4461 -7.0263
-6.9303 21.1115 -4.8523
-7.1681 21.1044 -4.8461
-5.3477 13.4460 -3.0718
-5.5246 13.4881 -3.0779
-5.7039 13.5306 -3.0839
-5.8857 13.5735 -3.0899
-6.0874 13.6558 -3.1047
-6.2527 13.6509 -3.0996
-6.5580 13.9410 -3.1612
-5.9542 12.3300 -2.7920
-6.4441 13.0051 -2.9407
-6.5669 12.9213 -2.9174
-6.8464 13.1390 -2.9620
-7.0908 13.2775 -2.9885
-7.3096 13.3593 -3.0020
-7.4911 13.3673 -2.9988
-7.1030 12.3791 -2.7723
-7.0591 12.0190 -2.6868
-7.9405 13.2118 -2.9480
-8.0577 13.1048 -2.9186
-8.1716 12.9939 -2.8882
-8.2848 12.8833 -2.8579
-8.3974 12.7732 -2.8276
-8.5095 12.6637 -2.7973
-8.3263 12.1251 -2.6724
-7.2657 4.7755 -0.8797
-38.9922 16.3088 -2.2476
-38.9999 15.8691 -2.1279
-39.0075 15.4329 -2.0089
-39.0151 15.0001 -1.8906
-39.0226 14.5704 -1.7729
-39.0301 14.1439 -1.6558
-38.8098 13.6403 -1.5303
-38.5523 13.1318 -1.4053
-38.3102 12.6369 -1.2829
-38.1128 12.1642 -1.1638
-39.0667 12.0536 -1.0782
-39.0739 11.6433 -0.9640
-39.0810 11.2353 -0.8503
-39.0881 10.8295 -0.7369
-39.0952 10.4258 -0.6239
-38.1814 9.7881 -0.4992
-6.2800 47.8441 -8.7758
-6.6797 47.1693 -8.6451
-7.1726 47.1918 -8.6417
-7.6579 47.1557 -8.6271
-5.2468 30.3572 -5.5483
-5.5961 30.5279 -5.5736
-5.9822 30.8643 -5.6287
-6.2845 30.7500 -5.6012
-6.6109 30.7537 -5.5948
-6.8182 30.2230 -5.4910
-7.1378 30.2092 -5.4809
-7.4423 30.1302 -5.4585
-7.6894 29.8287 -5.3956
-8.0265 29.8811 -5.3964
-7.0627 21.0915 -3.7665
-5.3784 14.1383 -2.5019
-5.5458 14.1472 -2.4972
-5.7146 14.1560 -2.4923
-5.5822 13.4364 -2.3593
-5.7594 13.4781 -2.3601
-5.9391 13.5203 -2.3607
-6.3368 14.0404 -2.4442
-6.6170 14.2764 -2.4776
-6.8051 14.3036 -2.4744
-6.4609 13.2357 -2.2822
-6.6231 13.2292 -2.2733
-6.4955 12.6555 -2.1670
-6.9514 13.2157 -2.2547
-6.8927 12.7912 -2.1741
-7.2481 13.1338 -2.2237
-7.3626 13.0310 -2.1974
-7.4764 12.9285 -2.1711
-7.5897 12.8267 -2.1447
-7.8598 12.9852 -2.1616
-7.9766 12.8857 -2.1352
-7.5172 11.8769 -1.9588
-8.1234 12.5556 -2.0606
-8.1739 12.3615 -2.0184
-8.2233 12.1708 -1.9769
-7.2604 4.7856 -0.4634
-37.6631 20.3500 -1.3384
-37.3398 19.7103 -1.2139
-37.6993 19.4356 -1.1122
-38.3057 19.2812 -1.0157
-38.9236 19.1224 -0.9165
-39.5535 18.9592 -0.8145
-40.1958 18.7913 -0.7097
-40.8510 18.6185 -0.6020
-41.5196 18.4408 -0.4912
-42.2019 18.2579 -0.3772
-39.0456 16.4467 -0.2366
-38.9979 15.9852 -0.1246
-38.8963 15.5068 -0.0132
-39.0130 15.1188 0.0977
-39.0205 14.6905 0.2083
-39.0168 14.2611 0.3184
-21.5871 7.6552 0.2369
-21.5879 7.4221 0.2975
-21.5888 7.1905 0.3580
-21.5896 6.9605 0.4183
-21.5905 6.7319 0.4784
-21.5913 6.5047 0.5384
-21.5921 6.2789 0.5984
-21.5930 6.0543 0.6582
-21.5938 5.8310 0.7180
-4.6894 39.3049 -5.3257
-5.0979 39.3684 -5.3268
-6.6052 47.2813 -6.3876
-5.9146 39.4479 -5.3205
-7.6074 47.4869 -6.3934
-8.0980 47.4971 -6.3826
-5.4964 30.3964 -4.0763
-5.6282 29.4383 -3.9393
-6.2962 31.2331 -4.1699
-6.4176 30.2677 -4.0313
-6.7278 30.2356 -4.0167
-7.0514 30.2586 -4.0090
-7.3676 30.2431 -3.9956
-7.6069 29.9210 -3.9413
-8.0627 30.4360 -3.9967
-8.2825 30.0491 -3.9330
-8.5364 29.8044 -3.8877
-5.5841 14.0341 -1.7532
-5.7500 14.0425 -1.7449
-5.9174 14.0510 -1.7363
-6.0861 14.0591 -1.7273
-5.9180 13.3064 -1.6251
-6.0847 13.3232 -1.6171
-6.2533 13.3399 -1.6088
-6.4236 13.3568 -1.6001
-6.5960 13.3737 -1.5911
-6.7041 13.2597 -1.5663
-6.9512 13.4164 -1.5730
-6.9392 13.0746 -1.5211
-6.9916 12.8639 -1.4847
-7.2871 13.0969 -1.4990
-7.4024 12.9996 -1.4751
-7.5171 12.9027 -1.4511
-7.6314 12.8061 -1.4269
-7.9503 13.0465 -1.4397
-7.2761 11.6789 -1.2759
-8.0718 12.4039 -1.3266
-8.1218 12.2155 -1.2918
-8.0209 12.5957 -1.3618
-36.1810 34.2987 -2.2823
-36.4530 33.8889 -2.1750
-38.2941 31.0272 -1.4110
-38.8584 30.8651 -1.3104
-39.4285 30.6993 -1.2076
-7.2547 4.7965 -0.0493
-37.6939 23.3818 0.0679
-37.8520 22.9774 0.1753
-37.8691 22.0001 0.3878
-37.8606 22.4859 0.2818
-21.5722 12.2559 0.2810
-21.5732 11.9832 0.3407
-21.5752 11.4464 0.4595
-21.5742 11.7134 0.4002
-21.5762 11.1822 0.5185
-21.5791 10.4054 0.6943
-21.5772 10.9208 0.5773
-21.4935 10.1107 0.7495
-21.4944 9.8600 0.8074
-21.5781 10.6618 0.6359
-21.5790 9.6490 0.8684
-21.5799 9.4017 0.9262
-21.5835 8.4330 1.1562
-21.5808 9.1566 0.9838
-21.5844 8.1954 1.2135
-21.5817 8.9135 1.0414
-21.5852 7.9597 1.2707
-21.5826 8.6723 1.0988
-21.5861 7.7256 1.3279
-21.5870 7.4931 1.3851
-21.5878 7.2621 1.4422
-21.5887 7.0327 1.4993
-21.5895 6.8047 1.5565
-21.5903 6.5780 1.6136
-21.5912 6.3527 1.6707
-21.5920 6.1286 1.7279
-5.4636 46.4188 -4.0872
-6.0602 47.4394 -4.1654
-6.5260 47.3539 -4.1453
-7.0100 47.3938 -4.1352
-7.4863 47.3725 -4.1188
-5.2561 31.2523 -2.7070
-5.4464 30.5347 -2.6342
-5.7728 30.6109 -2.6294
-5.8930 29.6370 -2.5342
-6.2227 29.7549 -2.5320
-6.5442 29.8186 -2.5244
-6.9671 30.3127 -2.5524
-7.2772 30.2885 -2.5359
-7.5610 30.1559 -2.5096
-7.8224 29.9426 -2.4762
-8.0692 29.6863 -2.4388
-8.2241 29.1182 -2.3755
-7.0955 21.0897 -1.6528
-5.6190 13.9233 -1.0259
-5.7777 13.9205 -1.0135
-5.9313 13.9034 -0.9996
-6.0857 13.8860 -0.9854
-6.2410 13.8683 -0.9708
-6.3979 13.8521 -0.9559
-6.5572 13.8388 -0.9409
-6.6928 13.7743 -0.9220
-6.5250 13.1008 -0.8627
-6.6936 13.1158 -0.8490
-6.8642 13.1309 -0.8348
-7.3011 13.6397 -0.8510
-7.3017 13.3260 -0.8152
-7.3837 13.1682 -0.7890
-7.4644 13.0123 -0.7629
-7.5439 12.8582 -0.7368
-7.6100 12.6853 -0.7096
-7.6712 12.5089 -0.6821
-7.7314 12.3352 -0.6548
-21.5402 18.8988 0.2938
-21.5416 18.5360 0.3525
-21.5429 18.1793 0.4107
-21.5442 17.8284 0.4686
-21.5455 17.4832 0.5261
-21.5468 17.1433 0.5832
-21.5481 16.8088 0.6400
-21.5493 16.4793 0.6965
-21.5505 16.1546 0.7527
-21.5517 15.8347 0.8086
-21.4757 15.4638 0.8611
-21.4705 15.1494 0.9160
-21.5615 14.9060 0.9751
-21.5627 14.6033 1.0300
-7.2554 4.8130 0.3650
-7.3054 4.7459 0.3860
-21.5660 13.7184 1.1938
-21.5671 13.4307 1.2481
-21.5681 13.1465 1.3022
-21.5692 12.8657 1.3562
-21.5702 12.5880 1.4100
-21.5712 12.3135 1.4638
-21.5722 12.0420 1.5175
-21.5733 11.7735 1.5711
-21.5742 11.5077 1.6246
-21.5752 11.2447 1.6781
-21.5762 10.9843 1.7315
-21.5772 10.7264 1.7849
-21.5781 10.4710 1.8383
-21.4925 10.1769 1.8840
-21.4934 9.9272 1.9372
-21.5229 9.6925 1.9930
-21.5789 9.4709 2.0515
-21.5798 9.2266 2.1049
-21.5807 8.9843 2.1584
-21.5816 8.7438 2.2119
-21.5825 8.5053 2.2655
-21.5834 8.2685 2.3191
-21.5842 8.0334 2.3729
-21.5851 7.7999 2.4267
-21.5860 7.5680 2.4806
-21.5868 7.3377 2.5347
-21.5877 7.1088 2.5888
-21.9379 6.9928 2.6859
-21.4956 6.6264 2.6859
-21.0699 6.2755 2.6859
-5.5230 47.5672 -1.9505
-5.8885 46.7280 -1.9022
-6.3388 46.6277 -1.8831
-6.9391 47.5608 -1.9043
-7.3324 47.0388 -1.8659
-7.7843 46.9242 -1.8428
-5.4594 31.0311 -1.2055
-5.7751 31.0476 -1.1923
-6.0922 31.0639 -1.1782
-6.2415 30.2602 -1.1326
-6.4221 29.6704 -1.0949
-6.8737 30.3241 -1.1022
-7.2052 30.4089 -1.0877
-7.5021 30.3413 -1.0669
-7.6953 29.8705 -1.0314
-7.8818 29.4060 -0.9959
-6.1407 13.4946 -0.2427
-6.2907 13.4762 -0.2257
-6.4414 13.4575 -0.2083
-6.5330 13.3163 -0.1886
-6.6626 13.2543 -0.1699
-6.8998 13.4014 -0.1531
-7.0632 13.3989 -0.1340
-7.1138 13.1841 -0.1124
-7.1032 12.8654 -0.0902
-7.1677 12.6909 -0.0692
-7.0364 12.1822 -0.0470
-7.5966 12.8636 -0.0284
-21.5044 32.0276 0.2780
-21.4145 31.2395 0.3335
-21.4587 30.6667 0.3903
-21.5026 30.1086 0.4466
-21.5049 29.5075 0.5016
-21.5071 28.9222 0.5560
-21.5093 28.3519 0.6099
-21.5114 27.7960 0.6632
-21.5135 27.2538 0.7161
-21.5155 26.7248 0.7685
-21.5174 26.2082 0.8205
-21.4359 25.6041 0.8687
-21.5250 25.2153 0.9235
-21.5268 24.7333 0.9744
-21.5286 24.2619 1.0249
-21.5304 23.8007 1.0752
-21.5321 23.3492 1.1251
-21.5338 22.9071 1.1748
-21.5354 22.4740 1.2242
-21.5370 22.0495 1.2733
-21.5386 21.6333 1.3223
-21.5401 21.2252 1.3711
-21.4486 20.7348 1.4135
-21.4509 20.3442 1.4617
-21.5351 20.0369 1.5155
-21.5365 19.6580 1.5636
-21.5379 19.2856 1.6115
-21.5393 18.9197 1.6593
-21.5406 18.5600 1.7070
-21.5420 18.2061 1.7546
-21.5433 17.8580 1.8021
-21.5446 17.5154 1.8496
-21.5458 17.1780 1.8969
-21.5471 16.8459 1.9443
-21.5483 16.5187 1.9915
-21.5495 16.1963 2.0388
-21.5507 15.8784 2.0860
-21.4747 15.5093 2.1256
-21.4695 15.1969 2.1720
-21.5323 14.9360 2.2255
-21.5617 14.6546 2.2757
-7.2637 4.8365 0.7825
-7.2866 4.7524 0.8009
-21.5650 13.7747 2.4177
-21.5661 13.4885 2.4651
-21.5671 13.2058 2.5126
-21.5682 12.9264 2.5602
-21.5692 12.6501 2.6078
-21.8167 12.5183 2.6859
-21.4317 12.0284 2.6859
-21.0593 11.5577 2.6859
-20.6988 11.1055 2.6859
-20.3496 10.6706 2.6859
-20.0111 10.2521 2.6859
-19.6828 9.8492 2.6859
-19.6569 9.6041 2.7265
-19.6495 9.3704 2.7697
-19.6421 9.1392 2.8130
-19.5095 8.8530 2.8383
-19.2091 8.4977 2.8383
-18.9168 8.1546 2.8383
-18.6321 7.8230 2.8383
-18.3548 7.5023 2.8383
-18.0846 7.1923 2.8383
-17.8211 6.8923 2.8383
-17.5640 6.6018 2.8383
-17.3132 6.3205 2.8383
-17.0683 6.0480 2.8383
-16.8291 5.7839 2.8383
-16.5953 5.5278 2.8383
-16.3669 5.2795 2.8383
-16.1435 5.0385 2.8383
-6.3486 47.3485 0.3110
-6.8317 47.4758 0.3310
-7.3681 47.9258 0.3550
-6.4583 30.2575 0.3219
-6.7911 30.3826 0.3428
-7.0750 30.2816 0.3622
-21.4556 44.4024 1.6496
-6.4760 13.0814 0.5066
-21.4636 42.3332 1.7078
-21.3842 41.1958 1.7305
-6.9458 13.0739 0.5716
-7.1775 13.2042 0.6005
-21.4771 38.6268 1.8268
-21.4803 37.7791 1.8570
-21.4835 36.9595 1.8875
-21.4033 36.0262 1.9108
-21.4903 35.3996 1.9492
-21.4932 34.6552 1.9803
-21.4959 33.9335 2.0115
-21.4986 33.2331 2.0430
-21.5012 32.5531 2.0746
-21.5038 31.8925 2.1065
-21.4139 31.1162 2.1293
-21.4996 30.6129 2.1698
-21.5019 30.0053 2.2022
-21.5042 29.4137 2.2347
-21.5064 28.8373 2.2674
-21.5085 28.2755 2.3003
-21.5106 27.7276 2.3334
-21.5127 27.1930 2.3667
-21.5146 26.6711 2.4002
-21.5166 26.1614 2.4338
-21.4351 25.5640 2.4580
-21.5241 25.1811 2.5020
-21.5259 24.7050 2.5362
-21.5277 24.2391 2.5706
-21.5295 23.7832 2.6051
-21.9067 23.7439 2.6859
-21.6218 22.9942 2.6859
-21.3432 22.2715 2.6859
-21.0703 21.5740 2.6859
-20.8028 20.9006 2.6859
-20.5405 20.2502 2.6859
-20.2835 19.6219 2.6859
-20.0314 19.0146 2.6859
-19.7842 18.4263 2.6859
-19.6417 17.9509 2.6996
-19.6354 17.6074 2.7320
-19.6302 17.2709 2.7647
-19.6249 16.9399 2.7976
-19.6196 16.6145 2.8307
-19.4388 16.1486 2.8383
-19.2095 15.6539 2.8383
-18.9842 15.1744 2.8383
-18.7629 14.7094 2.8383
-18.5454 14.2583 2.8383
-18.3316 13.8207 2.8383
-18.1216 13.3960 2.8383
-17.9150 12.9837 2.8383
-17.7119 12.5834 2.8383
-17.5121 12.1946 2.8383
-17.3156 11.8168 2.8383
-17.1223 11.4497 2.8383
-7.2673 4.7611 1.2182
-16.7449 10.7460 2.8383
-16.5606 10.4086 2.8383
-16.3792 10.0804 2.8383
-16.2006 9.7611 2.8383
-16.0247 9.4504 2.8383
-15.8515 9.1479 2.8383
-15.6809 8.8534 2.8383
-15.5127 8.5667 2.8383
-15.3471 8.2873 2.8383
-15.1838 8.0152 2.8383
-15.0229 7.7500 2.8383
-14.8643 7.4916 2.8383
-14.7080 7.2397 2.8383
-14.5538 6.9940 2.8383
-14.4017 6.7545 2.8383
-14.2517 6.5209 2.8383
-14.1038 6.2930 2.8383
-13.9578 6.0706 2.8383
-13.8138 5.8536 2.8383
-13.6717 5.6417 2.8383
-13.5314 5.4349 2.8383
-13.3930 5.2330 2.8383
-13.2563 5.0358 2.8383
-13.1214 4.8432 2.8383
-12.9881 4.6550 2.8383
-12.8565 4.4712 2.8383
-12.7265 4.2915 2.8383
-12.5981 4.1160 2.8383
-7.1654 47.2652 2.5752
-7.8767 48.8241 2.6859
-8.2686 48.3304 2.6859
-8.6489 47.8177 2.6859
-9.0173 47.2866 2.6859
-10.2690 48.7977 2.8383
-10.6193 48.1888 2.8383
-6.9668 30.2457 1.8048
-11.2801 46.9321 2.8383
-11.5905 46.2867 2.8383
-11.8876 45.6322 2.8383
-12.1714 44.9693 2.8383
-12.4419 44.2994 2.8383
-12.6994 43.6237 2.8383
-12.9440 42.9432 2.8383
-13.1758 42.2589 2.8383
-13.3950 41.5719 2.8383
-7.0227 21.1082 1.4654
-13.7966 40.1939 2.8383
-13.9794 39.5046 2.8383
-14.1506 38.8162 2.8383
-14.3106 38.1296 2.8383
-14.4594 37.4454 2.8383
-14.5975 36.7643 2.8383
-14.7252 36.0870 2.8383
-14.8427 35.4141 2.8383
-14.9504 34.7460 2.8383
-15.0486 34.0834 2.8383
-15.1376 33.4265 2.8383
-15.2178 32.7760 2.8383
-15.2893 32.1322 2.8383
-15.3526 31.4953 2.8383
-15.4080 30.8657 2.8383
-15.4558 30.2437 2.8383
-15.4962 29.6295 2.8383
-7.0628 13.1998 1.2908
-7.2220 13.1966 1.3177
-15.5765 27.8359 2.8383
-15.5905 27.2549 2.8383
-15.5986 26.6825 2.8383
-15.6011 26.1188 2.8383
-15.5981 25.5638 2.8383
-15.5900 25.0177 2.8383
-15.5771 24.4804 2.8383
-15.5594 23.9519 2.8383
-15.5374 23.4323 2.8383
-15.5111 22.9215 2.8383
-15.4808 22.4195 2.8383
-15.4467 21.9263 2.8383
-15.4090 21.4418 2.8383
-15.3679 20.9660 2.8383
-15.3236 20.4988 2.8383
-15.2762 20.0400 2.8383
-15.2259 19.5896 2.8383
-15.1729 19.1476 2.8383
-15.1173 18.7138 2.8383
-15.0593 18.2882 2.8383
-14.9990 17.8705 2.8383
-14.9366 17.4608 2.8383
-14.8722 17.0589 2.8383
-14.8058 16.6647 2.8383
-14.7377 16.2781 2.8383
-14.6680 15.8989 2.8383
-14.5966 15.5271 2.8383
-14.5239 15.1624 2.8383
-14.4498 14.8049 2.8383
-14.3745 14.4543 2.8383
-14.2980 14.1105 2.8383
-14.2204 13.7735 2.8383
-14.1418 13.4431 2.8383
-14.0624 13.1191 2.8383
-13.9820 12.8014 2.8383
-13.9010 12.4900 2.8383
-13.8191 12.1848 2.8383
-13.7367 11.8855 2.8383
-13.6537 11.5920 2.8383
-13.5702 11.3044 2.8383
-13.4862 11.0223 2.8383
-13.4018 10.7458 2.8383
-13.3170 10.4747 2.8383
-13.2319 10.2089 2.8383
-13.1465 9.9483 2.8383
-13.0609 9.6928 2.8383
-12.9751 9.4422 2.8383
-12.8891 9.1965 2.8383
-12.8030 8.9556 2.8383
-12.7169 8.7193 2.8383
-12.6306 8.4877 2.8383
-7.2584 4.7796 1.6423
-12.4581 8.0377 2.8383
-12.3719 7.8191 2.8383
-12.2857 7.6048 2.8383
-12.1996 7.3945 2.8383
-12.1136 7.1883 2.8383
-12.0277 6.9860 2.8383
-11.9419 6.7876 2.8383
-11.8563 6.5929 2.8383
-11.7709 6.4019 2.8383
-11.6857 6.2145 2.8383
-11.6007 6.0307 2.8383
-11.5159 5.8502 2.8383
-11.4313 5.6732 2.8383
-11.3469 5.4995 2.8383
-11.2629 5.3290 2.8383
-11.1791 5.1617 2.8383
-11.0956 4.9975 2.8383
-11.0123 4.8363 2.8383
-10.9294 4.6781 2.8383
-10.8467 4.5228 2.8383
-10.7644 4.3703 2.8383
-10.6824 4.2207 2.8383
-10.6007 4.0737 2.8383
-10.5193 3.9294 2.8383
-10.4383 3.7878 2.8383
-10.3576 3.6486 2.8383
-10.2773 3.5120 2.8383
0.5918 29.1524 2.8383
0.3187 29.1701 2.8383
0.0454 29.1772 2.8383
-0.2280 29.1737 2.8383
-0.5012 29.1595 2.8383
-0.7739 29.1347 2.8383
-1.0460 29.0994 2.8383
-1.3170 29.0534 2.8383
-1.5869 28.9972 2.8383
-1.8553 28.9305 2.8383
-2.1220 28.8537 2.8383
-2.3868 28.7667 2.8383
-2.6494 28.6699 2.8383
-2.9097 28.5633 2.8383
-3.1674 28.4470 2.8383
-3.4222 28.3214 2.8383
-3.6741 28.1866 2.8383
-3.9228 28.0428 2.8383
-4.1682 27.8902 2.8383
-4.4099 27.7292 2.8383
-4.6480 27.5599 2.8383
-4.8822 27.3826 2.8383
-5.1124 27.1975 2.8383
-5.3384 27.0050 2.8383
-5.5601 26.8053 2.8383
-5.6615 26.0649 2.7813
-5.6792 25.0159 2.6910
-5.8655 24.7611 2.6859
-6.0580 24.5477 2.6859
-6.2461 24.3290 2.6859
-6.4294 24.1050 2.6859
-6.6082 23.8763 2.6859
-6.7823 23.6430 2.6859
-6.9516 23.4055 2.6859
-7.1161 23.1640 2.6859
-7.2759 22.9188 2.6859
-7.4308 22.6701 2.6859
-7.5810 22.4183 2.6859
-7.7263 22.1635 2.6859
-7.8668 21.9061 2.6859
-8.0025 21.6463 2.6859
-8.1334 21.3845 2.6859
-8.2595 21.1207 2.6859
-8.3810 20.8553 2.6859
-8.4977 20.5884 2.6859
-8.6099 20.3204 2.6859
-8.7174 20.0513 2.6859
-8.8204 19.7816 2.6859
-8.9189 19.5112 2.6859
-9.0129 19.2405 2.6859
-9.1026 18.9692 2.6859
-9.7093 19.7598 2.8383
-9.7951 19.4737 2.8383
-9.8764 19.1881 2.8383
-9.9535 18.9029 2.8383
-7.0794 13.1462 2.0041
-7.2348 13.1402 2.0341
-10.1594 18.0524 2.8383
-10.2200 17.7709 2.8383
-10.2766 17.4907 2.8383
-10.3295 17.2119 2.8383
-10.3785 16.9347 2.8383
-10.4240 16.6590 2.8383
-10.4658 16.3851 2.8383
-10.5042 16.1130 2.8383
-10.5392 15.8428 2.8383
-10.5709 15.5746 2.8383
-10.5994 15.3085 2.8383
-10.6247 15.0445 2.8383
-10.6470 14.7827 2.8383
-10.6664 14.5232 2.8383
-10.6828 14.2661 2.8383
-10.6965 14.0113 2.8383
-10.7075 13.7589 2.8383
-10.7158 13.5091 2.8383
-10.7216 13.2617 2.8383
-10.7249 13.0169 2.8383
-10.7258 12.7747 2.8383
-10.7244 12.5350 2.8383
-10.7208 12.2979 2.8383
-10.7150 12.0635 2.8383
-10.7071 11.8318 2.8383
-10.6971 11.6028 2.8383
-10.6852 11.3763 2.8383
-10.6714 11.1526 2.8383
-10.6557 10.9316 2.8383
-10.6383 10.7132 2.8383
-10.6192 10.4976 2.8383
-10.5985 10.2847 2.8383
-10.5761 10.0744 2.8383
-10.5523 9.8668 2.8383
-10.5269 9.6618 2.8383
-10.5002 9.4595 2.8383
-10.4721 9.2599 2.8383
-10.4427 9.0629 2.8383
-10.4120 8.8685 2.8383
-10.3801 8.6767 2.8383
-10.3471 8.4874 2.8383
-10.3129 8.3008 2.8383
-10.2777 8.1167 2.8383
-10.2414 7.9350 2.8383
-10.2042 7.7559 2.8383
-10.1660 7.5793 2.8383
-10.1269 7.4052 2.8383
-10.0870 7.2334 2.8383
-10.0462 7.0641 2.8383
-10.0046 6.8972 2.8383
-9.9623 6.7326 2.8383
-7.2481 4.8011 2.0740
-7.3056 4.7422 2.0997
-9.8311 6.2527 2.8383
-9.7860 6.0973 2.8383
-9.7404 5.9441 2.8383
-9.1737 5.4816 2.6859
-9.1294 5.3413 2.6859
-9.0847 5.2025 2.6859
-9.0395 5.0658 2.6859
-8.9939 4.9310 2.6859
-8.9479 4.7981 2.6859
-8.9014 4.6673 2.6859
-8.8546 4.5383 2.6859
-8.8075 4.4112 2.6859
-8.7600 4.2860 2.6859
-8.7121 4.1626 2.6859
-8.6640 4.0409 2.6859
-8.6157 3.9211 2.6859
-8.5670 3.8030 2.6859
-8.5181 3.6867 2.6859
-8.4690 3.5721 2.6859
-8.4197 3.4591 2.6859
-8.3701 3.3478 2.6859
-8.3204 3.2382 2.6859
-8.2705 3.1301 2.6859
-8.2205 3.0237 2.6859
-8.1703 2.9188 2.6859
0.3927 19.6286 2.8383
0.2115 19.6375 2.8383
0.0301 19.6410 2.8383
-0.1513 19.6392 2.8383
-0.3326 19.6321 2.8383
-0.5137 19.6197 2.8383
-0.6945 19.6020 2.8383
-0.8748 19.5790 2.8383
-1.0545 19.5507 2.8383
-1.2336 19.5173 2.8383
-1.4119 19.4787 2.8383
-1.5893 19.4349 2.8383
-1.7657 19.3861 2.8383
-1.9409 19.3321 2.8383
-2.1149 19.2733 2.8383
-2.2876 19.2096 2.8383
-2.4589 19.1410 2.8383
-2.6287 19.0677 2.8383
-2.7968 18.9898 2.8383
-2.9632 18.9072 2.8383
-3.1278 18.8202 2.8383
-3.2906 18.7287 2.8383
-3.4513 18.6330 2.8383
-3.6100 18.5332 2.8383
-3.7666 18.4292 2.8383
-3.9210 18.3212 2.8383
-4.0731 18.2094 2.8383
-4.2229 18.0938 2.8383
-4.3703 17.9746 2.8383
-4.5152 17.8519 2.8383
-4.6577 17.7258 2.8383
-4.7976 17.5964 2.8383
-4.9349 17.4638 2.8383
-5.0695 17.3283 2.8383
-5.2015 17.1898 2.8383
-5.3307 17.0485 2.8383
-5.4573 16.9046 2.8383
-5.5810 16.7582 2.8383
-5.6784 16.5406 2.8265
-5.6883 16.0854 2.7740
-5.6976 15.6517 2.7246
-5.7231 15.2819 2.6859
-5.8268 15.1335 2.6859
-5.9279 14.9829 2.6859
-6.0262 14.8308 2.6859
-6.1217 14.6771 2.6859
-6.2146 14.5221 2.6859
-6.3048 14.3659 2.6859
-6.3922 14.2085 2.6859
-6.4770 14.0500 2.6859
-6.5591 13.8906 2.6859
-6.6385 13.7303 2.6859
-6.7153 13.5692 2.6859
-6.7895 13.4075 2.6859
-6.8610 13.2452 2.6859
-6.9299 13.0824 2.6859
-6.9963 12.9192 2.6859
-7.0602 12.7558 2.6859
-7.1215 12.5921 2.6859
-7.1803 12.4282 2.6859
-7.2367 12.2643 2.6859
-7.2906 12.1004 2.6859
-7.3422 11.9366 2.6859
-7.3914 11.7729 2.6859
-7.4382 11.6095 2.6859
-7.4828 11.4463 2.6859
-7.5251 11.2835 2.6859
-7.5652 11.1211 2.6859
-7.6030 10.9591 2.6859
-7.6388 10.7977 2.6859
-7.6724 10.6368 2.6859
-7.7039 10.4766 2.6859
-7.7334 10.3170 2.6859
-7.7609 10.1582 2.6859
-7.7864 10.0001 2.6859
-7.8100 9.8429 2.6859
-7.8317 9.6864 2.6859
-7.8516 9.5309 2.6859
-7.8696 9.3762 2.6859
-7.8859 9.2225 2.6859
-7.9004 9.0699 2.6859
-7.9133 8.9182 2.6859
-7.9245 8.7675 2.6859
-7.9340 8.6179 2.6859
-7.9420 8.4694 2.6859
-7.9484 8.3221 2.6859
-7.9533 8.1758 2.6859
-7.9568 8.0307 2.6859
-7.9588 7.8868 2.6859
-7.9594 7.7440 2.6859
-7.9586 7.6025 2.6859
-7.9565 7.4622 2.6859
-7.9530 7.3231 2.6859
-7.9484 7.1852 2.6859
-7.9424 7.0486 2.6859
-7.9353 6.9132 2.6859
-7.9270 6.7792 2.6859
-7.9176 6.6463 2.6859
-7.9071 6.5148 2.6859
-7.8955 6.3845 2.6859
-7.8828 6.2555 2.6859
-7.8691 6.1278 2.6859
-7.8544 6.0014 2.6859
-7.8388 5.8763 2.6859
-7.8223 5.7525 2.6859
-7.8048 5.6299 2.6859
-7.7864 5.5087 2.6859
-7.7672 5.3888 2.6859
-7.7472 5.2701 2.6859
-7.2618 4.8428 2.5244
-7.2728 4.7542 2.5353
-7.6824 4.9217 2.6859
-7.6593 4.8081 2.6859
-7.6355 4.6958 2.6859
-7.6110 4.5848 2.6859
-7.5858 4.4750 2.6859
-7.5600 4.3664 2.6859
-7.5336 4.2591 2.6859
-7.5066 4.1530 2.6859
-7.4508 3.9445 2.6859
-7.4790 4.0481 2.6859
-7.4221 3.8420 2.6859
-7.3328 3.5419 2.6859
-7.3928 3.7408 2.6859
-7.3021 3.4442 2.6859
-7.3631 3.6407 2.6859
-7.2709 3.3476 2.6859
-7.2393 3.2522 2.6859
-7.2073 3.1580 2.6859
-7.1748 3.0649 2.6859
-7.1420 2.9729 2.6859
-7.1087 2.8820 2.6859
-7.0751 2.7923 2.6859
-7.0412 2.7036 2.6859
-7.0069 2.6160 2.6859
0.2907 14.7460 2.8383
0.1565 14.7515 2.8383
0.0223 14.7536 2.8383
-0.1120 14.7526 2.8383
-0.2462 14.7482 2.8383
-0.3803 14.7405 2.8383
-0.5141 14.7296 2.8383
-0.6478 14.7154 2.8383
-0.7811 14.6980 2.8383
-0.9140 14.6773 2.8383
-1.0464 14.6534 2.8383
-1.1784 14.6264 2.8383
-1.3097 14.5961 2.8383
-1.4404 14.5627 2.8383
-1.5704 14.5262 2.8383
-1.6996 14.4867 2.8383
-1.8279 14.4440 2.8383
-1.9554 14.3984 2.8383
-2.0819 14.3498 2.8383
-2.2074 14.2983 2.8383
-2.3319 14.2439 2.8383
-2.4552 14.1867 2.8383
-2.5773 14.1267 2.8383
-2.6983 14.0639 2.8383
-2.8179 13.9985 2.8383
-2.9363 13.9304 2.8383
-3.0533 13.8597 2.8383
-3.1688 13.7866 2.8383
-3.2830 13.7109 2.8383
-3.3956 13.6329 2.8383
-3.5067 13.5526 2.8383
-3.6163 13.4699 2.8383
-3.7242 13.3851 2.8383
-3.8305 13.2980 2.8383
-3.9352 13.2089 2.8383
-4.0382 13.1178 2.8383
-4.1394 13.0248 2.8383
-4.2390 12.9298 2.8383
-4.3367 12.8330 2.8383
-4.4327 12.7344 2.8383
-4.5268 12.6342 2.8383
-4.6192 12.5323 2.8383
-4.7097 12.4289 2.8383
-4.7983 12.3241 2.8383
-4.8851 12.2177 2.8383
-4.9700 12.1100 2.8383
-5.0531 12.0010 2.8383
-5.1342 11.8908 2.8383
-5.2135 11.7795 2.8383
-5.2908 11.6670 2.8383
-5.3663 11.5535 2.8383
-5.4398 11.4391 2.8383
-5.5115 11.3237 2.8383
-5.5812 11.2076 2.8383
-5.6491 11.0905 2.8383
-5.6927 10.9301 2.8272
-5.6980 10.7022 2.7985
-5.7032 10.4816 2.7712
-5.7080 10.2677 2.7452
-5.7127 10.0602 2.7205
-5.7171 9.8588 2.6970
-5.8907 9.3591 2.6859
-5.7455 9.7039 2.6859
-5.9357 9.2437 2.6859
-5.7956 9.5892 2.6859
-5.9791 9.1282 2.6859
-5.8440 9.4743 2.6859
-6.0208 9.0126 2.6859
-6.0608 8.8970 2.6859
-6.2050 8.4347 2.6859
-6.0993 8.7813 2.6859
-6.2372 8.3195 2.6859
-6.1361 8.6657 2.6859
-6.2678 8.2044 2.6859
-6.1714 8.5502 2.6859
-6.2969 8.0895 2.6859
-6.3245 7.9748 2.6859
-6.4206 7.5194 2.6859
-6.3507 7.8605 2.6859
-6.4411 7.4065 2.6859
-6.3754 7.7464 2.6859
-6.4602 7.2940 2.6859
-6.3987 7.6328 2.6859
-6.4780 7.1819 2.6859
-6.4945 7.0703 2.6859
-6.5478 6.6291 2.6859
-6.5097 6.9592 2.6859
-6.5581 6.5202 2.6859
-6.5237 6.8487 2.6859
-6.5672 6.4119 2.6859
-6.5364 6.7386 2.6859
-6.5751 6.3042 2.6859
-6.5818 6.1971 2.6859
-6.5980 5.7755 2.6859
-6.5875 6.0907 2.6859
-6.5994 5.6717 2.6859
-6.5921 5.9850 2.6859
-6.5998 5.5688 2.6859
-6.5992 5.4665 2.6859
-6.5956 5.8799 2.6859
-6.5976 5.3649 2.6859
-6.5821 4.9662 2.6859
-6.5951 5.2641 2.6859
-6.5760 4.8684 2.6859
-6.5917 5.1640 2.6859
-6.5691 4.7714 2.6859
-6.5874 5.0647 2.6859
-6.5613 4.6752 2.6859
-6.5527 4.5797 2.6859
-6.5106 4.2059 2.6859
-6.4570 3.8450 2.6859
-6.3929 3.4970 2.6859
-6.5433 4.4851 2.6859
-6.4983 4.1145 2.6859
-6.4419 3.7568 2.6859
-6.3754 3.4120 2.6859
-6.5332 4.3913 2.6859
-6.4852 4.0239 2.6859
-6.4262 3.6694 2.6859
-6.3573 3.3278 2.6859
-6.5223 4.2982 2.6859
-6.4099 3.5828 2.6859
-6.4714 3.9340 2.6859
-6.3386 3.2445 2.6859
-6.3194 3.1619 2.6859
-6.2374 2.8397 2.6859
-6.2997 3.0802 2.6859
-6.2156 2.7612 2.6859
-6.2794 2.9992 2.6859
-6.1934 2.6833 2.6859
-6.2586 2.9191 2.6859
-6.1708 2.6064 2.6859
-6.1477 2.5302 2.6859
-6.1242 2.4548 2.6859
-6.1002 2.3801 2.6859
0.2284 11.7662 2.8383
0.1230 11.7700 2.8383
0.0175 11.7715 2.8383
-0.0880 11.7707 2.8383
-0.1934 11.7677 2.8383
-0.2988 11.7625 2.8383
-0.4040 11.7549 2.8383
-0.5091 11.7451 2.8383
-0.6140 11.7331 2.8383
-0.7186 11.7188 2.8383
-0.8229 11.7023 2.8383
-0.9269 11.6836 2.8383
-1.0305 11.6627 2.8383
-1.1336 11.6396 2.8383
-1.2363 11.6144 2.8383
-1.3385 11.5870 2.8383
-1.4401 11.5574 2.8383
-1.5412 11.5258 2.8383
-1.6416 11.4921 2.8383
-1.7413 11.4563 2.8383
-1.8404 11.4184 2.8383
-1.9387 11.3786 2.8383
-2.0362 11.3368 2.8383
-2.1330 11.2930 2.8383
-2.2289 11.2473 2.8383
-2.3239 11.1997 2.8383
-2.4180 11.1502 2.8383
-2.5111 11.0989 2.8383
-2.6033 11.0459 2.8383
-2.6945 10.9910 2.8383
-2.7846 10.9345 2.8383
-2.8738 10.8762 2.8383
-2.9618 10.8163 2.8383
-3.0487 10.7548 2.8383
-3.1345 10.6917 2.8383
-3.2191 10.6271 2.8383
-3.3026 10.5609 2.8383
-3.3848 10.4933 2.8383
-3.4659 10.4244 2.8383
-3.5457 10.3540 2.8383
-3.6243 10.2823 2.8383
-3.7016 10.2093 2.8383
-3.7776 10.1350 2.8383
-3.8524 10.0596 2.8383
-3.9258 9.9829 2.8383
-3.9979 9.9052 2.8383
-4.0687 9.8264 2.8383
-4.1381 9.7465 2.8383
-4.2062 9.6656 2.8383
-4.2730 9.5837 2.8383
-4.3384 9.5010 2.8383
-4.4024 9.4173 2.8383
-4.4650 9.3329 2.8383
-4.5263 9.2476 2.8383
-4.5862 9.1615 2.8383
-4.6447 9.0748 2.8383
-4.7019 8.9873 2.8383
-4.7576 8.8992 2.8383
-4.8120 8.8106 2.8383
-4.8650 8.7213 2.8383
-4.9166 8.6316 2.8383
-5.1095 8.2680 2.8383
-4.9669 8.5413 2.8383
-5.1543 8.1761 2.8383
-5.0158 8.4506 2.8383
-5.1978 8.0840 2.8383
-5.2399 7.9915 2.8383
-5.0633 8.3595 2.8383
-5.2807 7.8985 2.8383
-5.4309 7.5262 2.8383
-5.3202 7.8059 2.8383
-5.4652 7.4328 2.8383
-5.3584 7.7129 2.8383
-5.4982 7.3393 2.8383
-5.3953 7.6196 2.8383
-5.5300 7.2457 2.8383
-5.5605 7.1522 2.8383
-5.6703 6.7784 2.8383
-5.7070 6.3463 2.8116
-5.5898 7.0587 2.8383
-5.6948 6.6851 2.8383
-5.7088 6.2350 2.8028
-5.6178 6.9652 2.8383
-5.7032 6.5750 2.8309
-5.7104 6.1258 2.7945
-5.6447 6.8718 2.8383
-5.7052 6.4596 2.8209
-5.7120 6.0186 2.7868
-5.7135 5.9131 2.7796
-5.7185 5.5089 2.7558
-5.7222 5.1298 2.7392
-5.7149 5.8095 2.7729
-5.7195 5.4119 2.7510
-5.7230 5.0386 2.7361
-5.7162 5.7076 2.7667
-5.7205 5.3164 2.7466
-5.7236 4.9487 2.7334
-5.7174 5.6074 2.7610
-5.7214 5.2224 2.7427
-5.7243 4.8602 2.7311
-5.7248 4.7728 2.7292
-5.7263 4.4352 2.7254
-5.7268 4.1146 2.7271
-5.7253 4.6867 2.7277
-5.7265 4.3535 2.7253
-5.7268 4.0369 2.7284
-5.7257 4.6017 2.7266
-5.7267 4.2729 2.7256
-5.7268 3.9601 2.7300
-5.7260 4.5179 2.7258
-5.7268 4.1933 2.7262
-5.7266 3.8842 2.7319
-5.7265 3.8091 2.7341
-5.7252 3.5169 2.7461
-5.7232 3.2364 2.7627
-5.7262 3.7348 2.7367
-5.7248 3.4457 2.7498
-5.7225 3.1679 2.7676
-5.7259 3.6614 2.7395
-5.7243 3.3752 2.7538
-5.7218 3.1001 2.7727
-5.7256 3.5888 2.7427
-5.7237 3.3055 2.7581
-5.7203 2.9662 2.7838
-5.7211 3.0329 2.7781
-5.7195 2.9002 2.7898
-5.7186 2.8347 2.7960
-5.7177 2.7697 2.8025
-5.7168 2.7053 2.8093
-5.7158 2.6413 2.8163
-5.7147 2.5779 2.8236
-5.7136 2.5149 2.8312
-5.7110 2.4517 2.8383
-5.6936 2.3829 2.8383
-5.6758 2.3146 2.8383
