ply
format ascii 1.0
element vertex 1915
property float32 x
property float32 y
property float32 z
end_header
-7.2635 5.3596 -3.3235
-26.7218 14.0181 -9.8866
-26.8074 13.7205 -9.7824
-26.8925 13.4244 -9.6793
-26.7656 13.0267 -9.5022
-26.8271 12.7253 -9.3944
-26.9133 12.4372 -9.2964
-27.0085 10.8795 -8.7139
-26.9572 12.1314 -9.1851
-27.0927 10.6011 -8.6228
-27.1765 10.3234 -8.5324
-26.9210 11.7927 -9.0484
-25.4160 9.3668 -7.8717
-26.4737 11.2829 -8.7774
-23.4498 8.3787 -7.1644
-26.9239 11.1586 -8.8058
-23.5346 7.3722 -6.8081
-23.3807 8.0935 -7.0466
-24.1462 6.5303 -6.6117
-23.7018 7.1684 -6.7632
-23.3100 7.8114 -6.9300
-24.2218 6.2957 -6.5416
-23.7712 6.9342 -6.6906
-23.4003 7.5850 -6.8625
-23.8404 6.7001 -6.6185
-24.2974 6.0611 -6.4718
-24.6764 5.6436 -6.3927
-24.9830 4.6930 -6.1190
-24.4439 5.8433 -6.4212
-25.0596 4.4545 -6.0514
-24.7531 5.4064 -6.3237
-25.2893 3.7358 -5.8507
-25.1361 4.2155 -5.9842
-24.8298 5.1689 -6.2551
-25.3660 3.4951 -5.7844
-25.2127 3.9759 -5.9173
-24.9064 4.9312 -6.1869
-26.3764 3.3732 -5.9282
-26.3542 2.8510 -5.7526
-28.2416 1.9509 -5.8080
-26.5962 2.6163 -5.7204
-26.4496 3.1216 -5.8587
-28.3289 1.6816 -5.7384
-33.1727 1.0047 -6.4166
-28.1490 2.4935 -5.9651
-33.2714 0.6861 -6.3359
-32.5402 1.6157 -6.4916
-28.2342 2.2254 -5.8945
-33.3704 0.3660 -6.2554
-33.4697 0.0441 -6.1751
-32.8596 1.3132 -6.4553
-7.3469 -2.0882 -0.7736
-7.3477 -2.1646 -0.7547
-7.3456 -1.9367 -0.8116
-7.3506 -2.3967 -0.6981
-7.3486 -2.2415 -0.7358
-7.3462 -2.0122 -0.7926
-7.3517 -2.4751 -0.6793
-7.3495 -2.3188 -0.7169
-7.3024 -2.6941 -0.6185
-7.3529 -2.5540 -0.6605
-7.3037 -2.7743 -0.5999
-7.2948 -3.0132 -0.5430
-7.3013 -2.6146 -0.6371
-7.3051 -2.8551 -0.5813
-7.3066 -2.9366 -0.5626
-7.2552 -3.0785 -0.5215
-7.2449 -3.3227 -0.4648
-7.2159 -3.1436 -0.5001
-6.9944 -3.5382 -0.3765
-7.1232 -3.3498 -0.4387
-7.1766 -3.2086 -0.4789
-6.9518 -3.6007 -0.3562
-7.0801 -3.4128 -0.4178
-6.3384 -3.5178 -0.2752
-6.6597 -3.5308 -0.3239
-6.1870 -3.5118 -0.2523
-7.0372 -3.4755 -0.3970
-6.4959 -3.5242 -0.2990
-6.0411 -3.5061 -0.2305
-6.7073 -4.0669 -0.2204
-5.9004 -3.5006 -0.2095
-6.6515 -4.1209 -0.2008
-7.1591 -4.5312 -0.1970
-7.1244 -4.6057 -0.1769
-7.2684 5.3756 -2.8480
-28.8819 14.1452 -8.6055
-27.7301 13.2397 -8.1382
-29.5737 13.7598 -8.5488
-22.9348 10.1208 -6.4314
-23.0028 9.8789 -6.3531
-23.0704 9.6379 -6.2753
-23.1377 9.3977 -6.1981
-23.1205 9.1250 -6.0993
-22.9961 8.8138 -5.9740
-22.8293 8.4920 -5.8399
-23.1230 8.3422 -5.8242
-23.6153 8.2573 -5.8566
-23.8351 8.0713 -5.8197
-23.9055 7.8335 -5.7462
-23.8958 7.5707 -5.6543
-24.8406 7.6021 -5.7857
-25.0617 7.1344 -5.6543
-25.1475 7.4265 -5.7649
-24.8301 6.8059 -5.5128
-25.2235 6.1231 -5.3338
-25.1219 5.8389 -5.2255
-24.7135 6.5142 -5.3991
-25.6634 5.7010 -5.2504
-24.9256 6.3097 -5.3577
-26.0194 5.5140 -5.2351
-26.2935 5.3046 -5.2019
-28.0466 4.5294 -5.1801
-28.1369 4.2636 -5.1062
-27.2574 5.2230 -5.3019
-28.2273 3.9971 -5.0325
-28.3180 3.7298 -4.9590
-27.8663 5.0587 -5.3284
-28.4087 3.4615 -4.8855
-27.0834 4.6447 -5.0901
-35.1601 3.9385 -5.9368
-35.2647 3.6043 -5.8452
-35.1586 2.9065 -5.6119
-35.2502 3.2580 -5.7343
-35.0678 2.5575 -5.4910
-35.0443 1.5356 -5.1721
-35.6638 2.2543 -5.4767
-35.2828 1.2047 -5.1027
-35.7634 1.9136 -5.3848
-49.4332 1.2100 -7.0036
-44.6446 -10.6999 -2.9644
-41.2625 -11.1554 -2.4051
-44.4011 -11.0935 -2.8282
-39.8328 -11.1804 -2.2140
-42.7904 -11.1286 -2.6098
-38.6527 -11.2507 -2.0438
-36.0437 -11.2467 -1.7107
-37.3868 -11.2729 -1.8757
-7.1468 -2.3056 -0.3198
-7.1486 -2.5359 -0.2616
-7.1474 -2.3818 -0.3004
-7.1480 -2.4586 -0.2810
-7.1493 -2.6138 -0.2421
-7.1501 -2.6923 -0.2226
-7.1518 -2.8512 -0.1834
-7.1509 -2.7714 -0.2030
-7.1528 -2.9316 -0.1637
-7.1538 -3.0128 -0.1440
-7.1561 -3.1773 -0.1043
-7.1549 -3.0946 -0.1242
-7.1573 -3.2607 -0.0844
-6.8354 -3.3559 -0.0229
-7.2147 -3.3712 -0.0649
-6.6318 -3.3357 -0.0034
-7.0498 -3.3773 -0.0436
-6.6215 -3.4110 0.0155
-6.3035 -3.4027 0.0509
-6.4594 -3.4067 0.0336
-6.1535 -3.3988 0.0676
-6.6301 -3.7461 0.0921
-6.6114 -3.9060 0.1307
-6.6665 -3.8521 0.1122
-7.0354 -4.2488 0.1600
-21.6740 -13.9639 0.6889
-21.6718 -13.3760 0.5578
-21.6751 -14.2637 0.7553
-21.6728 -13.6681 0.6231
-21.6762 -14.5674 0.8221
-21.6773 -14.8754 0.8896
-21.6785 -15.1876 0.9576
-21.6076 -15.4527 1.0229
-21.5968 -15.7642 1.0914
-21.6940 -16.1605 1.1663
-21.6952 -16.4918 1.2370
-21.6965 -16.8282 1.3085
-21.6978 -17.1699 1.3807
-7.2724 5.3893 -2.3847
-7.3102 5.3039 -2.3573
-28.3045 14.2935 -6.9728
-28.7898 14.1818 -6.9717
-28.3832 13.6336 -6.7558
-28.4211 13.3069 -6.6487
-28.4582 12.9825 -6.5426
-28.4948 12.6604 -6.4375
-28.5840 12.3633 -6.3451
-28.7700 12.1081 -6.2745
-30.6094 12.5283 -6.5580
-30.8568 12.2760 -6.4937
-30.9890 11.9765 -6.4050
-25.4144 9.5357 -5.1583
-25.4881 9.2786 -5.0795
-25.5616 9.0220 -5.0011
-25.6348 8.7658 -4.9230
-25.7079 8.5101 -4.8454
-25.6047 8.1984 -4.7355
-25.2554 7.8147 -4.5825
-27.9630 8.3535 -4.9769
-27.6813 7.9753 -4.8317
-28.3143 7.8588 -4.8458
-28.3908 7.5822 -4.7632
-28.5823 7.3352 -4.6997
-30.2326 7.4452 -4.8708
-29.1345 6.8742 -4.5980
-32.3988 7.3120 -5.0074
-31.5121 6.7902 -4.7683
-32.5736 6.6879 -4.8243
-32.6744 6.3781 -4.7349
-32.3228 5.9839 -4.5816
-32.8764 5.7567 -4.5566
-32.9776 5.4449 -4.4676
-33.0789 5.1324 -4.3786
-33.2836 4.8340 -4.3030
-41.0491 5.1516 -5.0560
-47.9979 3.2105 -5.0507
-49.1673 2.8118 -5.0292
-49.1867 2.3365 -4.8873
-49.0101 1.3803 -4.5846
-48.5907 0.8993 -4.4049
-48.5332 0.4299 -4.2599
-49.1382 -0.0387 -4.1719
-38.5464 -7.1655 -1.2125
-38.3955 -7.5206 -1.1005
-38.4023 -7.9067 -0.9934
-38.4091 -8.2945 -0.8860
-38.4159 -8.6840 -0.7786
-38.4227 -9.0755 -0.6709
-38.4296 -9.4689 -0.5630
-38.4365 -9.8644 -0.4549
-38.3709 -10.2427 -0.3459
-37.8783 -10.5034 -0.2344
-38.9166 -11.1964 -0.1305
-37.6258 -11.2190 -0.0193
-21.6508 -7.3767 0.2368
-36.4209 -11.2434 0.0851
-21.6516 -7.6111 0.2994
-36.0312 -11.5050 0.1871
-21.6525 -7.8472 0.3622
-21.6534 -8.0850 0.4253
-36.0377 -11.8915 0.2905
-6.9556 -2.6740 0.1570
-7.3233 -3.1456 0.2520
-6.9558 -2.7515 0.1774
-7.2414 -3.1939 0.2709
-6.9560 -2.8297 0.1979
-7.2038 -3.2610 0.2912
-7.4064 -3.0967 0.2327
-7.1069 -3.3004 0.3089
-6.9254 -3.2981 0.3222
-6.2694 -3.2901 0.3696
-6.7513 -3.2960 0.3349
-7.0193 -3.7711 0.4361
-6.5842 -3.2939 0.3470
-6.9859 -3.8411 0.4563
-6.4237 -3.2919 0.3586
-6.9525 -3.9113 0.4765
-6.9191 -3.9816 0.4967
-21.6719 -13.6218 1.8435
-21.6687 -12.7517 1.6264
-21.6730 -13.9193 1.9172
-21.6697 -13.0381 1.6981
-21.6741 -14.2208 1.9918
-21.6708 -13.3281 1.7704
-21.6752 -14.5264 2.0671
-21.6764 -14.8361 2.1433
-21.6776 -15.1503 2.2203
-21.6066 -15.4176 2.2905
-21.5959 -15.7313 2.3678
-21.6931 -16.1297 2.4581
-21.6943 -16.4633 2.5389
-22.2375 -17.2218 2.6862
-7.2997 5.3067 -1.9019
-28.9590 15.7964 -5.8816
-29.0440 15.4723 -5.7824
-29.1285 15.1499 -5.6840
-29.4378 14.9436 -5.6292
-29.9309 14.8245 -5.6078
-30.3138 14.6440 -5.5638
-30.7025 14.4607 -5.5192
-31.0972 14.2745 -5.4740
-27.8767 10.5459 -4.2079
-27.9507 10.2624 -4.1227
-28.0244 9.9797 -4.0379
-31.6581 10.5814 -4.3480
-28.7202 8.6740 -3.6599
-40.8054 11.8914 -5.0673
-40.7095 11.4346 -4.9240
-40.6148 10.9827 -4.7824
-40.5212 10.5355 -4.6424
-30.2640 7.5553 -3.3716
-30.3403 7.2619 -3.2848
-40.2467 9.2207 -4.2318
-40.1572 8.7908 -4.0979
-40.0686 8.3649 -3.9653
-39.9810 7.9427 -3.8341
-39.8942 7.5242 -3.7041
-39.8083 7.1092 -3.5755
-39.7232 6.6976 -3.4480
-39.6389 6.2892 -3.3217
-39.5553 5.8841 -3.1965
-39.4725 5.4819 -3.0724
-39.5077 5.0977 -2.9581
-48.8599 5.8246 -3.5142
-49.2298 5.3866 -3.3961
-48.9773 4.4030 -3.0924
-49.6574 3.4987 -2.8470
-47.6771 2.8968 -2.5956
-48.4031 2.4723 -2.4956
-48.4020 2.0040 -2.3563
-49.7421 1.0986 -2.1364
-41.1243 -5.0657 -0.0126
-38.6696 -5.1425 0.0983
-38.3598 -5.4783 0.2069
-38.3664 -5.8575 0.3165
-21.6368 -3.5173 0.2404
-21.6376 -3.7321 0.3025
-21.6384 -3.9477 0.3647
-21.6391 -4.1641 0.4270
-21.6399 -4.3813 0.4895
-21.6407 -4.5995 0.5522
-21.6416 -4.8186 0.6151
-21.5576 -5.0191 0.6756
-21.5584 -5.2394 0.7387
-21.5601 -5.4611 0.8020
-21.6439 -5.7057 0.8689
-21.6447 -5.9305 0.9330
-21.6456 -6.1565 0.9974
-21.6464 -6.3839 1.0621
-21.6473 -6.6126 1.1271
-21.6481 -6.8429 1.1924
-21.6490 -7.0746 1.2581
-21.6498 -7.3080 1.3241
-21.6507 -7.5430 1.3905
-21.6516 -7.7797 1.4573
-21.6524 -8.0182 1.5246
-21.6533 -8.2585 1.5922
-21.6542 -8.5008 1.6603
-21.6551 -8.7450 1.7289
-21.6560 -8.9913 1.7980
-21.6569 -9.2398 1.8677
-21.6578 -9.4905 1.9378
-7.1828 -3.2313 0.6661
-7.1448 -3.2982 0.6860
-6.7130 -3.1787 0.6668
-6.5476 -3.1790 0.6723
-21.6606 -10.7791 2.2971
-21.6616 -11.0449 2.3709
-21.6626 -11.3135 2.4455
-21.6636 -11.5851 2.5207
-21.6646 -11.8597 2.5967
-21.7670 -12.1942 2.6860
-21.1545 -12.1249 2.6861
-20.5690 -12.0588 2.6861
-20.0092 -11.9959 2.6861
-19.7154 -12.0844 2.7195
-19.7027 -12.3445 2.7914
-19.5142 -12.4951 2.8385
-19.0137 -12.4401 2.8385
-18.5325 -12.3874 2.8385
-18.0693 -12.3370 2.8385
-17.6231 -12.2888 2.8385
-17.1929 -12.2426 2.8385
-16.7776 -12.1982 2.8385
-16.3765 -12.1557 2.8385
-15.9888 -12.1148 2.8385
-7.2897 5.3093 -1.4562
-39.9831 15.6944 -4.1087
-39.8926 15.2121 -3.9697
-39.8031 14.7357 -3.8322
-39.7147 14.2651 -3.6964
-39.6274 13.8001 -3.5622
-39.5409 13.3404 -3.4294
-39.4555 12.8859 -3.2981
-39.3709 12.4364 -3.1682
-39.2872 11.9918 -3.0397
-39.2043 11.5518 -2.9124
-38.7610 11.0137 -2.7607
-38.7680 10.6105 -2.6430
-39.1071 10.2970 -2.5476
-39.2514 9.9294 -2.4385
-30.0928 7.3032 -1.7792
-39.2804 9.1311 -2.2051
-39.2874 8.7329 -2.0886
-39.2182 8.3201 -1.9687
-39.3012 7.9413 -1.8569
-39.3081 7.5478 -1.7417
-39.3150 7.1558 -1.6268
-39.1694 6.7389 -1.5065
-39.1762 6.3510 -1.3927
-39.1830 5.9643 -1.2793
-39.3363 5.5994 -1.1704
-41.2305 5.4635 -1.1078
-49.1605 4.5919 -0.7562
-49.6305 3.6714 -0.4798
-21.5306 0.1362 0.2210
-21.5313 -0.0715 0.2823
-21.6242 -0.2804 0.3451
-21.6250 -0.4890 0.4068
-21.6257 -0.6978 0.4685
-21.6265 -0.9068 0.5303
-21.6273 -1.1159 0.5922
-21.6280 -1.3253 0.6542
-21.6288 -1.5350 0.7162
-21.6296 -1.7450 0.7785
-21.6304 -1.9554 0.8408
-21.6311 -2.1663 0.9033
-21.6319 -2.3776 0.9660
-21.6327 -2.5894 1.0289
-21.6335 -2.8017 1.0919
-21.6342 -3.0147 1.1551
-21.6350 -3.2283 1.2186
-21.6358 -3.4426 1.2823
-21.6366 -3.6576 1.3462
-21.6374 -3.8734 1.4105
-21.6382 -4.0901 1.4749
-21.6390 -4.3077 1.5397
-21.6398 -4.5262 1.6048
-21.6406 -4.7456 1.6702
-21.5567 -4.9467 1.7291
-21.5575 -5.1674 1.7950
-21.5592 -5.3895 1.8612
-21.6430 -5.6341 1.9352
-21.6438 -5.8593 2.0025
-21.6446 -6.0858 2.0701
-21.6455 -6.3136 2.1382
-21.6463 -6.5429 2.2068
-21.6471 -6.7736 2.2758
-21.6480 -7.0059 2.3453
-21.6489 -7.2398 2.4153
-21.6497 -7.4754 2.4859
-21.6506 -7.7127 2.5569
-22.1256 -8.1260 2.6862
-21.5335 -8.1479 2.6861
-20.9687 -8.1691 2.6861
-20.4281 -8.1893 2.6861
-19.9104 -8.2086 2.6861
-19.7045 -8.3502 2.7263
-19.6927 -8.5736 2.7932
-7.1618 -3.2018 1.0410
-7.1236 -3.2689 1.0608
-18.6134 -8.7634 2.8385
-18.1813 -8.7790 2.8385
-17.7645 -8.7940 2.8385
-17.3623 -8.8083 2.8385
-16.9736 -8.8221 2.8385
-16.5978 -8.8354 2.8385
-16.2342 -8.8482 2.8385
-15.8821 -8.8605 2.8385
-15.5410 -8.8723 2.8385
-15.2102 -8.8837 2.8385
-14.8893 -8.8947 2.8385
-14.5777 -8.9053 2.8385
-14.2750 -8.9155 2.8385
-13.9807 -8.9254 2.8385
-13.6945 -8.9349 2.8385
-13.4159 -8.9441 2.8385
-13.1446 -8.9530 2.8385
-12.8804 -8.9616 2.8385
-12.6227 -8.9699 2.8385
-12.3715 -8.9780 2.8385
-12.1263 -8.9858 2.8385
-7.2798 5.3119 -1.0180
-38.9941 16.7505 -2.3670
-39.0019 16.3073 -2.2466
-39.0096 15.8677 -2.1270
-39.0172 15.4316 -2.0080
-39.0248 14.9988 -1.8897
-39.0323 14.5693 -1.7720
-39.0398 14.1428 -1.6549
-38.7799 13.6254 -1.5279
-38.5228 13.1176 -1.4031
-38.3188 12.6358 -1.2821
-39.0692 12.4656 -1.1920
-39.0764 12.0529 -1.0774
-39.0836 11.6427 -0.9633
-39.0907 11.2347 -0.8496
-39.0978 10.8290 -0.7362
-38.9911 10.3951 -0.6214
-37.9849 9.7350 -0.4958
-30.1232 7.4111 -0.3066
-37.8766 8.9319 -0.2769
-37.8842 8.5487 -0.1686
-39.1397 8.4360 -0.0626
-38.4140 7.8927 0.0480
-39.1535 7.6519 0.1602
-39.1603 7.2619 0.2713
-39.1671 6.8733 0.3822
-21.6010 3.5764 0.2719
-21.6018 3.3629 0.3330
-21.6026 3.1501 0.3940
-21.6034 2.9379 0.4549
-21.6042 2.7263 0.5158
-21.6049 2.5151 0.5768
-21.6057 2.3044 0.6377
-21.6065 2.0941 0.6986
-21.6073 1.8842 0.7596
-21.6080 1.6747 0.8206
-21.6088 1.4654 0.8816
-21.6096 1.2564 0.9427
-21.6103 1.0475 1.0039
-21.6111 0.8389 1.0651
-21.6119 0.6303 1.1265
-21.6126 0.4218 1.1880
-21.5296 0.2126 1.2447
-21.5304 0.0049 1.3062
-21.5311 -0.2027 1.3678
-21.6240 -0.4123 1.4357
-21.6248 -0.6211 1.4980
-21.6256 -0.8300 1.5604
-21.6263 -1.0392 1.6230
-21.6271 -1.2487 1.6858
-21.6279 -1.4585 1.7489
-21.6286 -1.6686 1.8122
-21.6294 -1.8791 1.8757
-21.6302 -2.0900 1.9395
-21.6310 -2.3014 2.0036
-21.6317 -2.5134 2.0680
-21.6325 -2.7259 2.1327
-21.6333 -2.9390 2.1977
-21.6341 -3.1528 2.2630
-21.6349 -3.3673 2.3287
-21.6357 -3.5826 2.3948
-21.6364 -3.7986 2.4613
-21.6372 -4.0156 2.5281
-21.6380 -4.2334 2.5954
-21.8257 -4.4906 2.6861
-21.2820 -4.5947 2.6861
-20.7613 -4.6939 2.6861
-20.2620 -4.7887 2.6861
-19.7829 -4.8794 2.6861
-19.6940 -5.0612 2.7377
-19.6829 -5.2633 2.8003
-19.5012 -5.4190 2.8385
-19.0675 -5.4994 2.8385
-18.6494 -5.5765 2.8385
-18.2459 -5.6506 2.8385
-17.8562 -5.7217 2.8385
-17.4796 -5.7901 2.8385
-17.1153 -5.8559 2.8385
-16.7628 -5.9193 2.8385
-16.4212 -5.9803 2.8385
-16.0902 -6.0391 2.8385
-15.7691 -6.0958 2.8385
-15.4575 -6.1505 2.8385
-15.1549 -6.2033 2.8385
-14.8609 -6.2543 2.8385
-7.2062 -3.1166 1.4034
-7.1691 -3.1848 1.4233
-7.1322 -3.2530 1.4433
-7.0955 -3.3211 1.4634
-13.5058 -6.4849 2.8385
-13.2554 -6.5267 2.8385
-13.0112 -6.5671 2.8385
-12.7730 -6.6063 2.8385
-12.5403 -6.6443 2.8385
-12.3131 -6.6811 2.8385
-12.0911 -6.7168 2.8385
-11.8741 -6.7514 2.8385
-11.6619 -6.7851 2.8385
-11.4542 -6.8177 2.8385
-11.2510 -6.8494 2.8385
-11.0520 -6.8802 2.8385
-10.8571 -6.9101 2.8385
-10.6661 -6.9391 2.8385
-10.4788 -6.9674 2.8385
-10.2952 -6.9948 2.8385
-10.1151 -7.0215 2.8385
-9.9383 -7.0475 2.8385
-9.7648 -7.0727 2.8385
-7.2706 5.3154 -0.5852
-37.7260 20.3764 -1.3388
-38.3296 20.2254 -1.2443
-38.9443 20.0702 -1.1472
-39.5705 19.9107 -1.0475
-40.2086 19.7467 -0.9450
-40.8591 19.5781 -0.8397
-41.5224 19.4047 -0.7315
-42.1990 19.2263 -0.6202
-42.8894 19.0428 -0.5058
-38.9922 16.8637 -0.3471
-38.9999 16.4220 -0.2350
-39.0076 15.9839 -0.1233
-39.0152 15.5492 -0.0120
-38.9695 15.0971 0.0988
-39.0191 14.6853 0.2095
-39.0265 14.2602 0.3197
-21.5892 7.6536 0.2376
-21.5901 7.4206 0.2981
-21.5909 7.1891 0.3586
-21.5918 6.9592 0.4188
-21.5926 6.7307 0.4790
-21.5935 6.5035 0.5390
-21.5943 6.2777 0.5989
-21.5951 6.0532 0.6587
-21.5959 5.8300 0.7185
-21.5092 5.5851 0.7750
-21.5100 5.3650 0.8343
-21.5147 5.1469 0.8938
-21.5953 4.9471 0.9567
-21.5961 4.7292 1.0162
-21.5969 4.5121 1.0757
-21.5977 4.2960 1.1352
-21.5985 4.0806 1.1947
-21.5993 3.8661 1.2543
-21.6001 3.6522 1.3139
-21.6009 3.4390 1.3735
-21.6017 3.2264 1.4332
-21.6024 3.0145 1.4930
-21.6032 2.8030 1.5529
-21.6040 2.5921 1.6129
-21.6048 2.3816 1.6730
-21.6055 2.1715 1.7332
-21.6063 1.9617 1.7935
-21.6071 1.7523 1.8540
-21.6078 1.5432 1.9147
-21.6086 1.3343 1.9755
-21.6094 1.1255 2.0365
-21.6101 0.9170 2.0977
-21.6109 0.7085 2.1592
-21.6117 0.5001 2.2208
-21.5370 0.2907 2.2747
-21.5294 0.0830 2.3357
-21.5302 -0.1247 2.3978
-21.6231 -0.3339 2.4708
-21.6238 -0.5427 2.5337
-21.6246 -0.7517 2.5970
-21.8327 -0.9701 2.6860
-21.3215 -1.1539 2.6861
-20.8312 -1.3294 2.6861
-20.3604 -1.4972 2.6861
-19.9080 -1.6577 2.6861
-19.6897 -1.8316 2.7160
-19.6794 -2.0230 2.7743
-19.6690 -2.2147 2.8329
-19.2964 -2.3623 2.8385
-18.8992 -2.5000 2.8385
-18.5154 -2.6322 2.8385
-18.1444 -2.7595 2.8385
-17.7854 -2.8819 2.8385
-17.4380 -2.9998 2.8385
-17.1013 -3.1134 2.8385
-16.7750 -3.2230 2.8385
-16.4584 -3.3286 2.8385
-16.1511 -3.4306 2.8385
-15.8527 -3.5291 2.8385
-15.5627 -3.6242 2.8385
-15.2807 -3.7162 2.8385
-15.0064 -3.8051 2.8385
-14.7394 -3.8912 2.8385
-14.4793 -3.9745 2.8385
-14.2259 -4.0551 2.8385
-13.9789 -4.1332 2.8385
-13.7380 -4.2089 2.8385
-13.5029 -4.2823 2.8385
-13.2735 -4.3534 2.8385
-13.0493 -4.4224 2.8385
-12.8304 -4.4894 2.8385
-12.6163 -4.5544 2.8385
-12.4070 -4.6175 2.8385
-12.2023 -4.6789 2.8385
-12.0019 -4.7384 2.8385
-11.8057 -4.7963 2.8385
-11.6136 -4.8526 2.8385
-7.2162 -3.0994 1.7928
-7.1788 -3.1680 1.8127
-7.1414 -3.2364 1.8328
-7.1043 -3.3050 1.8530
-10.7087 -5.1117 2.8385
-10.5379 -5.1595 2.8385
-10.3702 -5.2060 2.8385
-10.2056 -5.2512 2.8385
-10.0438 -5.2953 2.8385
-9.8849 -5.3383 2.8385
-9.2063 -5.0913 2.6861
-9.0610 -5.1300 2.6861
-8.9180 -5.1676 2.6861
-8.7774 -5.2043 2.6861
-8.6390 -5.2401 2.6861
-8.5028 -5.2750 2.6861
-8.3687 -5.3090 2.6861
-8.2367 -5.3423 2.6861
-8.1066 -5.3747 2.6861
-7.9784 -5.4063 2.6861
-7.8520 -5.4372 2.6861
-7.7275 -5.4673 2.6861
-7.2661 5.3236 -0.1558
-37.5331 23.7773 -0.0372
-37.8530 23.4715 0.0701
-37.7979 22.9358 0.1769
-37.8703 22.4833 0.2837
-37.8788 21.9976 0.3897
-21.5744 12.2527 0.2820
-21.5754 11.9800 0.3417
-21.5764 11.7103 0.4012
-21.5774 11.4435 0.4604
-21.5784 11.1794 0.5194
-21.4928 10.8743 0.5759
-21.4937 10.6165 0.6343
-21.4976 10.3626 0.6925
-21.5793 10.1477 0.7533
-21.5802 9.8961 0.8113
-21.5811 9.6468 0.8692
-21.5820 9.3997 0.9270
-21.5829 9.1546 0.9846
-21.5838 8.9116 1.0422
-21.5847 8.6705 1.0996
-21.5856 8.4312 1.1569
-21.5865 8.1938 1.2142
-21.5874 7.9581 1.2714
-21.5882 7.7241 1.3286
-21.5891 7.4917 1.3857
-21.5900 7.2608 1.4429
-21.5908 7.0315 1.5000
-21.5916 6.8035 1.5571
-21.5925 6.5769 1.6142
-21.5933 6.3516 1.6713
-21.5942 6.1276 1.7285
-21.5950 5.9048 1.7857
-21.5958 5.6831 1.8430
-21.5090 5.4404 1.8927
-21.5098 5.2218 1.9499
-21.5145 5.0050 2.0075
-21.5951 4.8060 2.0726
-21.5960 4.5893 2.1303
-21.5967 4.3735 2.1882
-21.5975 4.1585 2.2461
-21.5983 3.9442 2.3043
-21.5991 3.7307 2.3626
-21.5999 3.5178 2.4210
-21.6007 3.3055 2.4797
-21.6015 3.0937 2.5385
-21.6022 2.8825 2.5975
-21.8413 2.7012 2.6861
-21.3639 2.4342 2.6861
-20.9052 2.1787 2.6861
-20.4639 1.9341 2.6861
-20.0392 1.6998 2.6861
-19.6908 1.4798 2.6944
-19.6758 1.2885 2.7476
-19.6663 1.0980 2.8017
-19.5355 0.9022 2.8385
-19.1598 0.7000 2.8385
-18.7963 0.5055 2.8385
-18.4445 0.3183 2.8385
-18.1037 0.1379 2.8385
-17.7735 -0.0361 2.8385
-17.4531 -0.2038 2.8385
-17.1422 -0.3657 2.8385
-16.8404 -0.5220 2.8385
-16.5470 -0.6730 2.8385
-16.2619 -0.8189 2.8385
-15.9845 -0.9600 2.8385
-15.7146 -1.0965 2.8385
-15.4518 -1.2287 2.8385
-15.1958 -1.3566 2.8385
-14.9462 -1.4805 2.8385
-14.7029 -1.6006 2.8385
-14.4655 -1.7170 2.8385
-14.2338 -1.8298 2.8385
-14.0076 -1.9393 2.8385
-13.7866 -2.0456 2.8385
-13.5707 -2.1487 2.8385
-13.3596 -2.2489 2.8385
-13.1531 -2.3462 2.8385
-12.9511 -2.4408 2.8385
-12.7534 -2.5327 2.8385
-12.5598 -2.6220 2.8385
-12.3702 -2.7089 2.8385
-12.1844 -2.7935 2.8385
-12.0023 -2.8757 2.8385
-11.8238 -2.9557 2.8385
-11.6487 -3.0337 2.8385
-11.4769 -3.1096 2.8385
-11.3083 -3.1835 2.8385
-11.1428 -3.2555 2.8385
-10.9803 -3.3257 2.8385
-10.8206 -3.3941 2.8385
-10.6638 -3.4608 2.8385
-10.5096 -3.5258 2.8385
-10.3580 -3.5892 2.8385
-10.2090 -3.6510 2.8385
-10.0624 -3.7114 2.8385
-9.9181 -3.7702 2.8385
-9.7762 -3.8277 2.8385
-9.1190 -3.6753 2.6861
-8.9888 -3.7271 2.6861
-7.2268 -3.0811 2.1908
-7.1892 -3.1501 2.2109
-7.1516 -3.2190 2.2311
-7.1140 -3.2878 2.2515
-7.0765 -3.3567 2.2720
-8.2468 -4.0135 2.6861
-8.1292 -4.0574 2.6861
-8.0132 -4.1004 2.6861
-7.8987 -4.1423 2.6861
-7.7857 -4.1834 2.6861
-7.6742 -4.2235 2.6861
-7.5641 -4.2627 2.6861
-7.4554 -4.3010 2.6861
-7.3481 -4.3386 2.6861
-7.2420 -4.3752 2.6861
-7.1372 -4.4111 2.6861
-7.0336 -4.4462 2.6861
-6.9313 -4.4805 2.6861
-6.8301 -4.5141 2.6861
-6.7300 -4.5469 2.6861
-6.6310 -4.5790 2.6861
-21.5424 18.8920 0.2952
-21.5438 18.5294 0.3539
-21.5451 18.1729 0.4121
-21.5464 17.8223 0.4699
-21.5477 17.4773 0.5274
-21.5490 17.1377 0.5845
-21.5502 16.8033 0.6413
-21.5515 16.4740 0.6977
-21.4755 16.0917 0.7512
-7.2612 5.3328 0.2728
-21.5190 15.4887 0.8640
-21.5626 15.2083 0.9210
-21.5637 14.9016 0.9762
-21.5648 14.5991 1.0312
-21.5660 14.3004 1.0859
-21.5671 14.0057 1.1405
-21.5681 13.7146 1.1949
-21.5692 13.4271 1.2491
-21.5703 13.1430 1.3032
-21.5713 12.8623 1.3572
-21.5724 12.5848 1.4110
-21.5734 12.3104 1.4648
-21.5744 12.0390 1.5185
-21.5754 11.7706 1.5720
-21.5764 11.5049 1.6255
-21.5774 11.2420 1.6790
-21.5783 10.9817 1.7324
-21.4928 10.6809 1.7786
-21.4937 10.4266 1.8318
-21.5783 10.2143 1.8922
-21.5792 9.9636 1.9456
-21.5801 9.7152 1.9989
-21.5810 9.4690 2.0523
-21.5820 9.2247 2.1057
-21.5829 8.9825 2.1592
-21.5837 8.7421 2.2127
-21.5846 8.5036 2.2663
-21.5855 8.2669 2.3199
-21.5864 8.0319 2.3736
-21.5873 7.7985 2.4274
-21.5881 7.5667 2.4814
-21.5890 7.3365 2.5354
-21.5898 7.1077 2.5895
-21.9358 6.9903 2.6861
-21.4938 6.6241 2.6861
-21.0684 6.2735 2.6861
-20.6584 5.9373 2.6861
-20.2628 5.6148 2.6861
-19.8809 5.3051 2.6861
-19.6735 5.0491 2.7083
-19.6648 4.8472 2.7576
-19.6562 4.6462 2.8069
-19.5236 4.4183 2.8385
-19.1812 4.1486 2.8385
-18.8493 3.8885 2.8385
-18.5273 3.6378 2.8385
-18.2147 3.3958 2.8385
-17.9110 3.1622 2.8385
-17.6159 2.9366 2.8385
-17.3290 2.7186 2.8385
-17.0498 2.5078 2.8385
-16.7780 2.3038 2.8385
-16.5133 2.1065 2.8385
-16.2554 1.9154 2.8385
-16.0040 1.7304 2.8385
-15.7588 1.5511 2.8385
-15.5196 1.3773 2.8385
-15.2860 1.2088 2.8385
-15.0580 1.0453 2.8385
-14.8352 0.8867 2.8385
-14.6174 0.7327 2.8385
-14.4045 0.5832 2.8385
-14.1963 0.4379 2.8385
-13.9925 0.2968 2.8385
-13.7931 0.1596 2.8385
-13.5978 0.0263 2.8385
-13.4065 -0.1034 2.8385
-13.2191 -0.2297 2.8385
-13.0354 -0.3524 2.8385
-12.8553 -0.4719 2.8385
-12.6786 -0.5882 2.8385
-12.5053 -0.7015 2.8385
-12.3352 -0.8119 2.8385
-12.1683 -0.9194 2.8385
-12.0043 -1.0242 2.8385
-11.8433 -1.1263 2.8385
-11.6851 -1.2259 2.8385
-11.5296 -1.3230 2.8385
-11.3767 -1.4177 2.8385
-11.2264 -1.5101 2.8385
-11.0786 -1.6003 2.8385
-10.9332 -1.6883 2.8385
-10.7901 -1.7742 2.8385
-10.6493 -1.8581 2.8385
-10.5106 -1.9400 2.8385
-10.3741 -2.0199 2.8385
-10.2396 -2.0981 2.8385
-10.1071 -2.1744 2.8385
-9.9766 -2.2490 2.8385
-9.8479 -2.3218 2.8385
-9.1992 -2.2646 2.6861
-9.0808 -2.3305 2.6861
-8.9641 -2.3949 2.6861
-8.8490 -2.4579 2.6861
-8.7354 -2.5195 2.6861
-8.6234 -2.5798 2.6861
-8.5128 -2.6387 2.6861
-8.4036 -2.6964 2.6861
-8.2958 -2.7528 2.6861
-8.1893 -2.8080 2.6861
-8.0841 -2.8620 2.6861
-7.9803 -2.9149 2.6861
-7.8776 -2.9667 2.6861
-7.7762 -3.0173 2.6861
-7.6760 -3.0669 2.6861
-7.5768 -3.1155 2.6861
-7.2383 -3.0613 2.5997
-7.2004 -3.1307 2.6200
-7.1625 -3.2000 2.6405
-7.1247 -3.2693 2.6612
-7.0869 -3.3386 2.6820
-7.0048 -3.3865 2.6861
-6.9130 -3.4285 2.6861
-6.8221 -3.4697 2.6861
-6.7321 -3.5099 2.6861
-6.6430 -3.5494 2.6861
-6.5548 -3.5881 2.6861
-6.4674 -3.6260 2.6861
-6.3809 -3.6632 2.6861
-6.2952 -3.6995 2.6861
-6.2102 -3.7352 2.6861
-6.1261 -3.7702 2.6861
-6.0427 -3.8045 2.6861
-5.9600 -3.8380 2.6861
-5.8780 -3.8710 2.6861
-5.7968 -3.9032 2.6861
-21.5358 20.4150 1.4687
-21.5372 20.0295 1.5169
-21.5387 19.6508 1.5649
-21.5401 19.2788 1.6128
-21.5414 18.9131 1.6606
-21.5428 18.5536 1.7083
-21.5441 18.2000 1.7559
-21.5454 17.8520 1.8034
-21.5467 17.5096 1.8508
-21.5480 17.1725 1.8981
-21.5493 16.8406 1.9455
-21.5505 16.5135 1.9927
-21.5517 16.1913 2.0400
-7.2555 5.3437 0.7026
-21.4705 15.5002 2.1261
-21.5616 15.2561 2.1823
-21.5627 14.9513 2.2295
-21.5638 14.6506 2.2768
-21.5650 14.3537 2.3240
-21.5661 14.0605 2.3714
-21.5671 13.7710 2.4187
-21.5682 13.4851 2.4661
-21.5693 13.2024 2.5136
-21.5703 12.9231 2.5612
-21.5714 12.6470 2.6088
-21.8120 12.5114 2.6861
-21.4274 12.0218 2.6861
-21.0553 11.5517 2.6861
-20.6951 11.0999 2.6861
-20.3461 10.6653 2.6861
-20.0079 10.2471 2.6861
-19.6798 9.8445 2.6861
-19.6583 9.6017 2.7272
-19.6509 9.3681 2.7705
-19.6434 9.1370 2.8138
-19.5071 8.8493 2.8385
-19.2069 8.4943 2.8385
-18.9148 8.1513 2.8385
-18.6303 7.8199 2.8385
-18.3531 7.4996 2.8385
-18.0831 7.1897 2.8385
-17.8197 6.8899 2.8385
-17.5628 6.5996 2.8385
-17.3121 6.3185 2.8385
-17.0673 6.0461 2.8385
-16.8282 5.7822 2.8385
-16.5946 5.5262 2.8385
-16.3662 5.2780 2.8385
-16.1429 5.0372 2.8385
-15.9245 4.8034 2.8385
-15.7107 4.5765 2.8385
-15.5015 4.3561 2.8385
-15.2965 4.1420 2.8385
-15.0958 3.9339 2.8385
-14.8991 3.7316 2.8385
-14.7064 3.5349 2.8385
-14.5173 3.3435 2.8385
-14.3319 3.1574 2.8385
-14.1500 2.9763 2.8385
-13.9715 2.7999 2.8385
-13.7963 2.6282 2.8385
-13.6243 2.4610 2.8385
-13.4553 2.2981 2.8385
-13.2893 2.1394 2.8385
-13.1261 1.9848 2.8385
-12.9658 1.8339 2.8385
-12.8081 1.6869 2.8385
-12.6531 1.5435 2.8385
-12.5006 1.4036 2.8385
-12.3506 1.2671 2.8385
-12.2029 1.1340 2.8385
-12.0576 1.0039 2.8385
-11.9145 0.8771 2.8385
-11.7736 0.7532 2.8385
-11.6348 0.6321 2.8385
-11.4981 0.5139 2.8385
-11.3634 0.3985 2.8385
-11.2306 0.2856 2.8385
-11.0997 0.1754 2.8385
-10.9707 0.0676 2.8385
-10.8434 -0.0378 2.8385
-10.7179 -0.1408 2.8385
-10.5941 -0.2415 2.8385
-10.4720 -0.3400 2.8385
-10.3514 -0.4364 2.8385
-10.2325 -0.5307 2.8385
-10.1150 -0.6229 2.8385
-9.9991 -0.7131 2.8385
-9.8846 -0.8015 2.8385
-9.7715 -0.8879 2.8385
-9.1411 -0.9204 2.6861
-9.0367 -0.9988 2.6861
-8.9335 -1.0756 2.6861
-8.8315 -1.1507 2.6861
-8.7306 -1.2244 2.6861
-8.6310 -1.2965 2.6861
-8.5324 -1.3672 2.6861
-8.4350 -1.4364 2.6861
-8.3386 -1.5042 2.6861
-8.2433 -1.5706 2.6861
-8.1490 -1.6358 2.6861
-8.0557 -1.6996 2.6861
-7.9634 -1.7622 2.6861
-7.8720 -1.8235 2.6861
-7.7815 -1.8836 2.6861
-7.6920 -1.9425 2.6861
-7.6034 -2.0003 2.6861
-7.5156 -2.0570 2.6861
-7.4287 -2.1125 2.6861
-7.3426 -2.1670 2.6861
-7.2573 -2.2204 2.6861
-7.1728 -2.2728 2.6861
-7.0891 -2.3242 2.6861
-7.0062 -2.3747 2.6861
-6.9240 -2.4241 2.6861
-6.8425 -2.4727 2.6861
-6.7617 -2.5203 2.6861
-6.6817 -2.5670 2.6861
-6.6023 -2.6128 2.6861
-6.5236 -2.6578 2.6861
-6.4455 -2.7019 2.6861
-6.3681 -2.7452 2.6861
-6.2913 -2.7877 2.6861
-6.2151 -2.8294 2.6861
-6.1396 -2.8703 2.6861
-6.0646 -2.9105 2.6861
-5.9902 -2.9499 2.6861
-5.9163 -2.9885 2.6861
-5.8430 -3.0265 2.6861
-5.7703 -3.0638 2.6861
-5.7497 -3.1285 2.7104
-5.7445 -3.2021 2.7425
-5.7393 -3.2766 2.7751
-5.7339 -3.3519 2.8082
-5.7215 -3.4239 2.8385
-5.6478 -3.4591 2.8385
-5.5746 -3.4936 2.8385
-5.5019 -3.5275 2.8385
-5.4297 -3.5608 2.8385
-20.2786 19.6079 2.6861
-20.0267 19.0013 2.6861
-19.7797 18.4148 2.6861
-19.6424 17.9434 2.7005
-19.6367 17.6008 2.7330
-19.6315 17.2645 2.7657
-19.6262 16.9338 2.7986
-19.6209 16.6086 2.8316
-19.4350 16.1387 2.8385
-19.2058 15.6444 2.8385
-18.9806 15.1653 2.8385
-18.7595 14.7007 2.8385
-18.5422 14.2501 2.8385
-18.3286 13.8130 2.8385
-7.2503 5.3575 1.1358
-7.3094 5.2954 1.1583
-17.7092 12.5767 2.8385
-17.5096 12.1882 2.8385
-17.3132 11.8108 2.8385
-17.1200 11.4440 2.8385
-16.9299 11.0875 2.8385
-16.7428 10.7408 2.8385
-16.5586 10.4037 2.8385
-16.3773 10.0758 2.8385
-16.1988 9.7567 2.8385
-16.0230 9.4462 2.8385
-15.8499 9.1439 2.8385
-15.6793 8.8497 2.8385
-15.5113 8.5631 2.8385
-15.3457 8.2839 2.8385
-15.1826 8.0120 2.8385
-15.0218 7.7470 2.8385
-14.8632 7.4888 2.8385
-14.7069 7.2370 2.8385
-14.5528 6.9915 2.8385
-14.4008 6.7521 2.8385
-14.2509 6.5186 2.8385
-14.1031 6.2908 2.8385
-13.9572 6.0686 2.8385
-13.8132 5.8517 2.8385
-13.6712 5.6400 2.8385
-13.5310 5.4333 2.8385
-13.3926 5.2315 2.8385
-13.2559 5.0344 2.8385
-13.1211 4.8419 2.8385
-12.9878 4.6538 2.8385
-12.8563 4.4701 2.8385
-12.7264 4.2905 2.8385
-12.5980 4.1150 2.8385
-12.4713 3.9435 2.8385
-12.3460 3.7758 2.8385
-12.2222 3.6118 2.8385
-12.0999 3.4514 2.8385
-11.9789 3.2946 2.8385
-11.8594 3.1412 2.8385
-11.7413 2.9911 2.8385
-11.6244 2.8442 2.8385
-11.5089 2.7005 2.8385
-11.3947 2.5599 2.8385
-11.2817 2.4222 2.8385
-11.1700 2.2874 2.8385
-11.0594 2.1555 2.8385
-10.9500 2.0262 2.8385
-10.8418 1.8997 2.8385
-10.7347 1.7758 2.8385
-10.6288 1.6544 2.8385
-10.5239 1.5354 2.8385
-10.4201 1.4189 2.8385
-10.3173 1.3048 2.8385
-10.2156 1.1929 2.8385
-10.1148 1.0833 2.8385
-10.0151 0.9758 2.8385
-9.9163 0.8705 2.8385
-9.8185 0.7672 2.8385
-9.7216 0.6659 2.8385
-9.1088 0.5362 2.6861
-9.0188 0.4441 2.6861
-8.9297 0.3538 2.6861
-8.8413 0.2651 2.6861
-8.7538 0.1782 2.6861
-8.6670 0.0930 2.6861
-8.5811 0.0094 2.6861
-8.4959 -0.0727 2.6861
-8.4114 -0.1533 2.6861
-8.3276 -0.2322 2.6861
-8.2446 -0.3098 2.6861
-8.1623 -0.3859 2.6861
-8.0807 -0.4606 2.6861
-7.9997 -0.5339 2.6861
-7.9194 -0.6059 2.6861
-7.8398 -0.6765 2.6861
-7.7608 -0.7458 2.6861
-7.6825 -0.8139 2.6861
-7.6047 -0.8808 2.6861
-7.5276 -0.9464 2.6861
-7.4511 -1.0109 2.6861
-7.3751 -1.0742 2.6861
-7.2998 -1.1364 2.6861
-7.2250 -1.1974 2.6861
-7.1507 -1.2574 2.6861
-7.0770 -1.3163 2.6861
-7.0039 -1.3742 2.6861
-6.9313 -1.4310 2.6861
-6.8592 -1.4869 2.6861
-6.7876 -1.5417 2.6861
-6.7165 -1.5956 2.6861
-6.6459 -1.6486 2.6861
-6.5758 -1.7006 2.6861
-6.5061 -1.7517 2.6861
-6.4370 -1.8019 2.6861
-6.3682 -1.8513 2.6861
-6.3000 -1.8998 2.6861
-6.2322 -1.9475 2.6861
-6.1648 -1.9943 2.6861
-6.0979 -2.0403 2.6861
-6.0313 -2.0856 2.6861
-5.9652 -2.1300 2.6861
-5.8995 -2.1737 2.6861
-5.8342 -2.2166 2.6861
-5.7693 -2.2589 2.6861
-5.7482 -2.3178 2.7065
-5.7436 -2.3838 2.7351
-5.7390 -2.4503 2.7641
-5.7342 -2.5174 2.7936
-5.7294 -2.5850 2.8235
-5.6935 -2.6389 2.8385
-5.6277 -2.6784 2.8385
-5.5622 -2.7172 2.8385
-5.4970 -2.7554 2.8385
-5.4323 -2.7929 2.8385
-5.3678 -2.8297 2.8385
-5.3037 -2.8660 2.8385
-5.2400 -2.9016 2.8385
-5.1765 -2.9366 2.8385
-5.1134 -2.9710 2.8385
-5.0506 -3.0047 2.8385
-4.9881 -3.0379 2.8385
-4.9259 -3.0705 2.8385
-4.8641 -3.1026 2.8385
-14.2970 14.1030 2.8385
-14.2194 13.7662 2.8385
-14.1408 13.4360 2.8385
-14.0614 13.1123 2.8385
-13.9811 12.7949 2.8385
-13.9000 12.4838 2.8385
-13.8182 12.1787 2.8385
-13.7358 11.8796 2.8385
-13.6528 11.5865 2.8385
-13.5693 11.2990 2.8385
-13.4853 11.0171 2.8385
-13.4009 10.7408 2.8385
-13.3161 10.4699 2.8385
-13.2310 10.2043 2.8385
-13.1457 9.9439 2.8385
-7.2604 5.3861 1.5780
-7.2892 5.3025 1.5947
-12.8883 9.1926 2.8385
-12.8023 8.9518 2.8385
-12.7161 8.7157 2.8385
-12.6299 8.4842 2.8385
-12.5437 8.2571 2.8385
-12.4575 8.0345 2.8385
-12.3713 7.8160 2.8385
-12.2851 7.6018 2.8385
-12.1990 7.3917 2.8385
-12.1130 7.1856 2.8385
-12.0272 6.9834 2.8385
-11.9415 6.7852 2.8385
-11.8559 6.5906 2.8385
-11.7705 6.3997 2.8385
-11.6853 6.2124 2.8385
-11.6003 6.0286 2.8385
-11.5155 5.8483 2.8385
-11.4310 5.6714 2.8385
-11.3467 5.4978 2.8385
-11.2626 5.3274 2.8385
-11.1789 5.1602 2.8385
-11.0954 4.9961 2.8385
-11.0121 4.8350 2.8385
-10.9292 4.6768 2.8385
-10.8466 4.5216 2.8385
-10.7643 4.3692 2.8385
-10.6823 4.2196 2.8385
-10.6007 4.0727 2.8385
-10.5193 3.9285 2.8385
-10.4383 3.7869 2.8385
-10.3577 3.6479 2.8385
-10.2774 3.5113 2.8385
-10.1974 3.3772 2.8385
-10.1178 3.2455 2.8385
-10.0385 3.1162 2.8385
-9.9596 2.9891 2.8385
-9.8811 2.8643 2.8385
-9.8029 2.7417 2.8385
-9.7250 2.6213 2.8385
-9.1296 2.3686 2.6861
-9.0566 2.2586 2.6861
-8.9840 2.1505 2.6861
-8.9117 2.0444 2.6861
-8.8398 1.9400 2.6861
-8.7682 1.8375 2.6861
-8.6970 1.7367 2.6861
-8.6261 1.6377 2.6861
-8.5556 1.5404 2.6861
-8.4854 1.4447 2.6861
-8.4155 1.3507 2.6861
-8.3460 1.2583 2.6861
-8.2769 1.1674 2.6861
-8.2081 1.0782 2.6861
-8.1396 0.9903 2.6861
-8.0715 0.9040 2.6861
-8.0037 0.8192 2.6861
-7.9362 0.7357 2.6861
-7.8691 0.6537 2.6861
-7.8023 0.5731 2.6861
-7.7358 0.4937 2.6861
-7.6696 0.4157 2.6861
-7.6038 0.3390 2.6861
-7.5383 0.2636 2.6861
-7.4732 0.1894 2.6861
-7.4083 0.1164 2.6861
-7.3438 0.0446 2.6861
-7.2796 -0.0259 2.6861
-7.2157 -0.0954 2.6861
-7.1521 -0.1637 2.6861
-7.0888 -0.2309 2.6861
-7.0258 -0.2970 2.6861
-6.9632 -0.3620 2.6861
-6.9008 -0.4259 2.6861
-6.8387 -0.4889 2.6861
-6.7769 -0.5508 2.6861
-6.7155 -0.6117 2.6861
-6.6543 -0.6716 2.6861
-6.5934 -0.7306 2.6861
-6.5327 -0.7886 2.6861
-6.4724 -0.8457 2.6861
-6.4123 -0.9019 2.6861
-6.3526 -0.9571 2.6861
-6.2930 -1.0115 2.6861
-6.2338 -1.0650 2.6861
-6.1748 -1.1177 2.6861
-6.1161 -1.1695 2.6861
-6.0577 -1.2205 2.6861
-5.9995 -1.2707 2.6861
-5.9416 -1.3201 2.6861
-5.8839 -1.3687 2.6861
-5.8265 -1.4165 2.6861
-5.7694 -1.4636 2.6861
-5.7469 -1.5190 2.7023
-5.7429 -1.5794 2.7274
-5.7388 -1.6402 2.7529
-5.7346 -1.7013 2.7788
-5.7304 -1.7628 2.8051
-5.7261 -1.8246 2.8318
-5.6810 -1.8734 2.8385
-5.6226 -1.9172 2.8385
-5.5645 -1.9602 2.8385
-5.5066 -2.0026 2.8385
-5.4489 -2.0443 2.8385
-5.3914 -2.0854 2.8385
-5.3342 -2.1258 2.8385
-5.2772 -2.1655 2.8385
-5.2204 -2.2047 2.8385
-5.1638 -2.2432 2.8385
-5.1075 -2.2810 2.8385
-5.0513 -2.3183 2.8385
-4.9954 -2.3550 2.8385
-4.9397 -2.3911 2.8385
-4.8842 -2.4266 2.8385
-4.8289 -2.4615 2.8385
-4.7738 -2.4959 2.8385
-4.7189 -2.5297 2.8385
-4.6642 -2.5630 2.8385
-4.6096 -2.5957 2.8385
-4.5553 -2.6279 2.8385
-4.5012 -2.6595 2.8385
-4.4472 -2.6907 2.8385
-4.3934 -2.7214 2.8385
-10.6386 10.7085 2.8385
-10.6194 10.4931 2.8385
-10.5986 10.2802 2.8385
-10.5763 10.0701 2.8385
-10.5524 9.8626 2.8385
-10.5270 9.6578 2.8385
-10.5002 9.4556 2.8385
-10.4721 9.2561 2.8385
-10.4427 9.0592 2.8385
-10.4120 8.8649 2.8385
-10.3801 8.6732 2.8385
-10.3470 8.4841 2.8385
-10.3129 8.2975 2.8385
-10.2776 8.1135 2.8385
-10.2414 7.9320 2.8385
-10.2041 7.7530 2.8385
-10.1659 7.5765 2.8385
-7.2665 5.3116 2.0367
-10.0869 7.2308 2.8385
-10.0461 7.0616 2.8385
-10.0045 6.8947 2.8385
-9.9622 6.7302 2.8385
-9.9191 6.5681 2.8385
-9.8754 6.4082 2.8385
-9.8310 6.2506 2.8385
-9.7859 6.0953 2.8385
-9.7403 5.9422 2.8385
-9.1736 5.4802 2.6861
-9.1294 5.3396 2.6861
-9.0847 5.2009 2.6861
-9.0395 5.0642 2.6861
-8.9939 4.9296 2.6861
-8.9479 4.7968 2.6861
-8.9014 4.6659 2.6861
-8.8546 4.5370 2.6861
-8.8075 4.4100 2.6861
-8.7600 4.2848 2.6861
-8.7122 4.1614 2.6861
-8.6641 4.0399 2.6861
-8.6157 3.9201 2.6861
-8.5671 3.8021 2.6861
-8.5182 3.6858 2.6861
-8.4691 3.5713 2.6861
-8.4198 3.4583 2.6861
-8.3703 3.3471 2.6861
-8.3206 3.2375 2.6861
-8.2707 3.1295 2.6861
-8.2207 3.0231 2.6861
-8.1705 2.9183 2.6861
-8.1202 2.8150 2.6861
-8.0697 2.7132 2.6861
-8.0192 2.6129 2.6861
-7.9685 2.5140 2.6861
-7.9178 2.4167 2.6861
-7.8670 2.3208 2.6861
-7.8161 2.2262 2.6861
-7.7652 2.1331 2.6861
-7.7142 2.0413 2.6861
-7.6631 1.9509 2.6861
-7.6120 1.8618 2.6861
-7.5609 1.7741 2.6861
-7.5098 1.6876 2.6861
-7.4586 1.6023 2.6861
-7.4075 1.5183 2.6861
-7.3563 1.4356 2.6861
-7.3052 1.3540 2.6861
-7.2541 1.2737 2.6861
-7.2029 1.1946 2.6861
-7.1518 1.1165 2.6861
-7.1008 1.0396 2.6861
-7.0497 0.9639 2.6861
-6.9987 0.8893 2.6861
-6.9478 0.8157 2.6861
-6.8969 0.7432 2.6861
-6.8460 0.6718 2.6861
-6.7952 0.6014 2.6861
-6.5421 0.2646 2.6861
-6.7444 0.5321 2.6861
-6.4917 0.2001 2.6861
-6.6937 0.4637 2.6861
-6.4413 0.1366 2.6861
-6.3911 0.0740 2.6861
-6.6431 0.3963 2.6861
-6.3409 0.0123 2.6861
-6.5926 0.3299 2.6861
-6.2908 -0.0485 2.6861
-6.2408 -0.1084 2.6861
-6.1410 -0.2256 2.6861
-6.1908 -0.1675 2.6861
-6.0913 -0.2830 2.6861
-5.9426 -0.4500 2.6861
-6.0416 -0.3395 2.6861
-5.8932 -0.5041 2.6861
-5.9921 -0.3952 2.6861
-5.8440 -0.5574 2.6861
-5.7948 -0.6100 2.6861
-5.7473 -0.6619 2.6868
-5.7332 -0.8898 2.7745
-5.7438 -0.7186 2.7083
-5.7296 -0.9471 2.7972
-5.7259 -1.0047 2.8202
-5.7404 -0.7755 2.7300
-5.7118 -1.0606 2.8385
-5.6609 -1.1092 2.8385
-5.7368 -0.8325 2.7521
-5.6100 -1.1572 2.8385
-5.4581 -1.2969 2.8385
-5.5593 -1.2044 2.8385
-5.5086 -1.2510 2.8385
-5.4077 -1.3421 2.8385
-5.2572 -1.4738 2.8385
-5.3574 -1.3866 2.8385
-5.2072 -1.5164 2.8385
-5.1574 -1.5584 2.8385
-5.3072 -1.4305 2.8385
-5.1076 -1.5998 2.8385
-5.0580 -1.6405 2.8385
-4.8607 -1.7976 2.8385
-5.0085 -1.6807 2.8385
-4.8116 -1.8355 2.8385
-4.9591 -1.7202 2.8385
-4.7627 -1.8727 2.8385
-4.9098 -1.7592 2.8385
-4.7138 -1.9094 2.8385
-4.6651 -1.9456 2.8385
-4.4713 -2.0849 2.8385
-4.6165 -1.9812 2.8385
-4.4231 -2.1184 2.8385
-4.5680 -2.0163 2.8385
-4.3750 -2.1514 2.8385
-4.5196 -2.0509 2.8385
-4.3271 -2.1839 2.8385
-4.2792 -2.2160 2.8385
-4.2314 -2.2475 2.8385
-4.1838 -2.2785 2.8385
-4.1362 -2.3091 2.8385
-4.0887 -2.3391 2.8385
-4.0414 -2.3687 2.8385
-3.9941 -2.3979 2.8385
-7.9540 8.1727 2.6861
-7.9574 8.0277 2.6861
-7.9593 7.8839 2.6861
-7.9599 7.7412 2.6861
-7.9591 7.5997 2.6861
-7.9569 7.4595 2.6861
-7.9535 7.3204 2.6861
-7.9488 7.1826 2.6861
-7.9428 7.0461 2.6861
-7.9357 6.9108 2.6861
-7.9274 6.7768 2.6861
-7.9179 6.6440 2.6861
-7.9074 6.5126 2.6861
-7.8957 6.3823 2.6861
-7.8831 6.2534 2.6861
-7.8694 6.1258 2.6861
-7.8547 5.9995 2.6861
-7.8390 5.8744 2.6861
-7.2558 5.3341 2.4915
-7.8050 5.6282 2.6861
-7.7866 5.5070 2.6861
-7.7674 5.3871 2.6861
-7.7474 5.2685 2.6861
-7.7265 5.1511 2.6861
-7.7049 5.0350 2.6861
-7.6825 4.9203 2.6861
-7.6594 4.8067 2.6861
-7.6356 4.6945 2.6861
-7.6111 4.5835 2.6861
-7.5860 4.4737 2.6861
-7.5602 4.3652 2.6861
-7.5338 4.2579 2.6861
-7.5067 4.1519 2.6861
-7.4791 4.0471 2.6861
-7.4509 3.9435 2.6861
-7.4222 3.8411 2.6861
-7.3930 3.7399 2.6861
-7.3632 3.6399 2.6861
-7.3330 3.5410 2.6861
-7.3023 3.4434 2.6861
-7.2711 3.3469 2.6861
-7.2395 3.2515 2.6861
-7.2074 3.1573 2.6861
-7.1750 3.0643 2.6861
-7.1421 2.9724 2.6861
-7.1089 2.8815 2.6861
-7.0753 2.7918 2.6861
-7.0414 2.7031 2.6861
-7.0071 2.6156 2.6861
-6.9725 2.5291 2.6861
-6.9375 2.4438 2.6861
-6.9023 2.3594 2.6861
-6.8668 2.2761 2.6861
-6.8310 2.1938 2.6861
-6.7949 2.1125 2.6861
-6.7586 2.0323 2.6861
-6.7220 1.9530 2.6861
-6.6852 1.8748 2.6861
-6.6482 1.7975 2.6861
-6.6109 1.7212 2.6861
-6.5734 1.6459 2.6861
-6.5358 1.5715 2.6861
-6.4217 1.3539 2.6861
-6.4979 1.4980 2.6861
-6.4599 1.4255 2.6861
-6.3833 1.2832 2.6861
-6.2673 1.0765 2.6861
-6.3448 1.2134 2.6861
-6.2283 1.0093 2.6861
-6.1892 0.9430 2.6861
-6.3061 1.1445 2.6861
-6.1500 0.8775 2.6861
-6.1107 0.8130 2.6861
-5.9524 0.5627 2.6861
-6.0713 0.7491 2.6861
-5.9126 0.5021 2.6861
-6.0317 0.6862 2.6861
-5.8727 0.4423 2.6861
-5.8327 0.3833 2.6861
-5.9921 0.6240 2.6861
-5.7927 0.3251 2.6861
-5.7371 0.1014 2.7362
-5.7526 0.2676 2.6861
-5.7428 0.2120 2.7003
-5.7342 0.0462 2.7546
-5.7399 0.1567 2.7182
-5.7312 -0.0091 2.7732
-5.7252 -0.1197 2.8112
-5.7282 -0.0644 2.7920
-5.7221 -0.1751 2.8306
-5.6951 -0.2296 2.8385
-5.6094 -0.3354 2.8385
-5.6523 -0.2828 2.8385
-5.5666 -0.3873 2.8385
-5.4378 -0.5388 2.8385
-5.5237 -0.4384 2.8385
-5.3949 -0.5880 2.8385
-5.3519 -0.6365 2.8385
-5.4807 -0.4889 2.8385
-5.3090 -0.6844 2.8385
-5.2661 -0.7316 2.8385
-5.0943 -0.9144 2.8385
-5.2231 -0.7782 2.8385
-5.0514 -0.9585 2.8385
-5.0085 -1.0021 2.8385
-5.1802 -0.8242 2.8385
-4.9656 -1.0451 2.8385
-5.1372 -0.8696 2.8385
-4.9227 -1.0874 2.8385
-4.8798 -1.1293 2.8385
-4.7514 -1.2513 2.8385
-4.8370 -1.1705 2.8385
-4.7086 -1.2909 2.8385
-4.7942 -1.2112 2.8385
-4.5804 -1.4065 2.8385
-4.4099 -1.5532 2.8385
-4.6658 -1.3300 2.8385
-4.5377 -1.4440 2.8385
-4.3674 -1.5886 2.8385
-4.6231 -1.3685 2.8385
-4.4951 -1.4809 2.8385
-4.3248 -1.6236 2.8385
-4.4525 -1.5173 2.8385
-4.2399 -1.6919 2.8385
-4.2824 -1.6580 2.8385
-4.0705 -1.8229 2.8385
-3.9017 -1.9466 2.8385
-4.1975 -1.7254 2.8385
-4.0282 -1.8545 2.8385
-3.8596 -1.9763 2.8385
-3.9860 -1.8856 2.8385
-4.1551 -1.7584 2.8385
-3.8175 -2.0057 2.8385
-3.9438 -1.9163 2.8385
-3.7755 -2.0346 2.8385
-4.1128 -1.7908 2.8385
-3.7335 -2.0631 2.8385
-3.6916 -2.0912 2.8385
-3.6497 -2.1188 2.8385
-6.5244 6.8464 2.6861
-6.5371 6.7364 2.6861
-6.5485 6.6269 2.6861
-6.5588 6.5181 2.6861
-6.5678 6.4098 2.6861
-6.5757 6.3022 2.6861
-6.5824 6.1952 2.6861
-6.5881 6.0888 2.6861
-6.5926 5.9831 2.6861
-6.5961 5.8780 2.6861
-6.5985 5.7737 2.6861
-6.5999 5.6700 2.6861
-6.6002 5.5670 2.6861
-6.5996 5.4648 2.6861
-6.5981 5.3633 2.6861
-6.5955 5.2625 2.6861
-6.5921 5.1625 2.6861
-6.5877 5.0632 2.6861
-6.5825 4.9647 2.6861
-6.5764 4.8670 2.6861
-6.5694 4.7701 2.6861
-6.5616 4.6739 2.6861
-6.5530 4.5785 2.6861
-6.5436 4.4839 2.6861
-6.5335 4.3901 2.6861
-6.5225 4.2971 2.6861
-6.5109 4.2049 2.6861
-6.4985 4.1134 2.6861
-6.4854 4.0228 2.6861
-6.4717 3.9330 2.6861
-6.4572 3.8441 2.6861
-6.4422 3.7559 2.6861
-6.4264 3.6685 2.6861
-6.4101 3.5819 2.6861
-6.3932 3.4962 2.6861
-6.3756 3.4112 2.6861
-6.3575 3.3271 2.6861
-6.3388 3.2438 2.6861
-6.3196 3.1612 2.6861
-6.2999 3.0795 2.6861
-6.2796 2.9986 2.6861
-6.2589 2.9185 2.6861
-6.2376 2.8391 2.6861
-6.2159 2.7606 2.6861
-6.1937 2.6829 2.6861
-6.1710 2.6059 2.6861
-6.1479 2.5298 2.6861
-6.1244 2.4544 2.6861
-6.1005 2.3798 2.6861
-6.0761 2.3060 2.6861
-6.0514 2.2329 2.6861
-6.0263 2.1606 2.6861
-6.0008 2.0890 2.6861
-5.9750 2.0182 2.6861
-5.9488 1.9482 2.6861
-5.9223 1.8789 2.6861
-5.8954 1.8104 2.6861
-5.8682 1.7426 2.6861
-5.8407 1.6755 2.6861
-5.8130 1.6092 2.6861
-5.7849 1.5436 2.6861
-5.7565 1.4787 2.6861
-5.7410 1.4177 2.6922
-5.7391 1.3605 2.7050
-5.7370 1.3035 2.7179
-5.7350 1.2467 2.7311
-5.7329 1.1901 2.7445
-5.7308 1.1337 2.7582
-5.7286 1.0775 2.7721
-5.7264 1.0214 2.7863
-5.7241 0.9655 2.8007
-5.7218 0.9098 2.8153
-5.7195 0.8542 2.8302
-5.7032 0.7968 2.8385
-5.6701 0.7375 2.8385
-5.6368 0.6790 2.8385
-5.6033 0.6211 2.8385
-5.5696 0.5640 2.8385
-5.5358 0.5074 2.8385
-5.5018 0.4515 2.8385
-5.4676 0.3963 2.8385
-5.4333 0.3417 2.8385
-5.3988 0.2878 2.8385
-5.3642 0.2345 2.8385
-5.3295 0.1818 2.8385
-5.2946 0.1297 2.8385
-5.2596 0.0783 2.8385
-5.2245 0.0274 2.8385
-5.1892 -0.0228 2.8385
-5.1539 -0.0724 2.8385
-5.1184 -0.1215 2.8385
-5.0828 -0.1699 2.8385
-5.0471 -0.2178 2.8385
-5.0114 -0.2651 2.8385
-4.9755 -0.3118 2.8385
-4.9395 -0.3580 2.8385
-4.9035 -0.4035 2.8385
-4.8674 -0.4485 2.8385
-4.8312 -0.4930 2.8385
-4.7949 -0.5370 2.8385
-4.7585 -0.5804 2.8385
-4.7221 -0.6232 2.8385
-4.6856 -0.6656 2.8385
-4.6491 -0.7074 2.8385
-4.6125 -0.7486 2.8385
-4.5758 -0.7894 2.8385
-4.5391 -0.8297 2.8385
-4.5023 -0.8694 2.8385
-4.4655 -0.9086 2.8385
-4.4286 -0.9474 2.8385
-4.3917 -0.9857 2.8385
-4.3548 -1.0234 2.8385
-4.3178 -1.0607 2.8385
-4.2808 -1.0975 2.8385
-4.2437 -1.1339 2.8385
-4.2066 -1.1698 2.8385
-4.1695 -1.2051 2.8385
-4.1323 -1.2401 2.8385
-4.0952 -1.2746 2.8385
-4.0579 -1.3086 2.8385
-4.0207 -1.3422 2.8385
-3.9835 -1.3754 2.8385
-3.9462 -1.4081 2.8385
-3.9089 -1.4403 2.8385
-3.8716 -1.4722 2.8385
-3.8343 -1.5036 2.8385
-3.7970 -1.5346 2.8385
-3.7596 -1.5651 2.8385
-3.7223 -1.5953 2.8385
-3.6849 -1.6250 2.8385
-3.6475 -1.6544 2.8385
-3.6101 -1.6833 2.8385
-3.5728 -1.7118 2.8385
-3.5354 -1.7399 2.8385
-3.4980 -1.7677 2.8385
-3.4606 -1.7950 2.8385
-3.4232 -1.8220 2.8385
-3.3857 -1.8485 2.8385
-3.3483 -1.8747 2.8385
-5.7118 6.1246 2.7950
-5.7134 6.0173 2.7873
-5.7149 5.9120 2.7801
-5.7162 5.8084 2.7734
-5.7175 5.7066 2.7672
-5.7187 5.6065 2.7615
-5.7199 5.5079 2.7563
-5.7209 5.4110 2.7515
-5.7219 5.3156 2.7472
-5.7228 5.2216 2.7432
-5.7236 5.1291 2.7398
-5.7243 5.0379 2.7367
-5.7250 4.9481 2.7340
-5.7256 4.8596 2.7317
-5.7262 4.7722 2.7299
-5.7266 4.6862 2.7283
-5.7270 4.6012 2.7272
-5.7274 4.5174 2.7264
-5.7277 4.4348 2.7260
-5.7279 4.3531 2.7260
-5.7280 4.2725 2.7262
-5.7281 4.1929 2.7268
-5.7282 4.1143 2.7278
-5.7282 4.0366 2.7291
-5.7281 3.9598 2.7307
-5.7280 3.8839 2.7326
-5.7278 3.8088 2.7348
-5.7276 3.7346 2.7374
-5.7273 3.6612 2.7402
-5.7269 3.5886 2.7433
-5.7266 3.5167 2.7468
-5.7261 3.4455 2.7505
-5.7256 3.3751 2.7545
-5.7251 3.3054 2.7588
-5.7245 3.2363 2.7634
-5.7239 3.1679 2.7683
-5.7232 3.1000 2.7734
-5.7224 3.0328 2.7789
-5.7217 2.9662 2.7846
-5.7208 2.9002 2.7905
-5.7200 2.8347 2.7968
-5.7191 2.7697 2.8033
-5.7181 2.7053 2.8100
-5.7171 2.6414 2.8171
-5.7160 2.5779 2.8244
-5.7149 2.5150 2.8319
-5.7112 2.4514 2.8385
-5.6938 2.3825 2.8385
-5.6760 2.3143 2.8385
-5.6577 2.2467 2.8385
-5.6390 2.1797 2.8385
-5.6198 2.1133 2.8385
-5.6002 2.0475 2.8385
-5.5802 1.9822 2.8385
-5.5598 1.9176 2.8385
-5.5391 1.8536 2.8385
-5.5179 1.7902 2.8385
-5.4964 1.7274 2.8385
-5.4745 1.6651 2.8385
-5.4522 1.6035 2.8385
-5.4296 1.5424 2.8385
-5.4067 1.4819 2.8385
-5.3834 1.4221 2.8385
-5.3598 1.3628 2.8385
-5.3359 1.3040 2.8385
-5.3117 1.2459 2.8385
-5.2872 1.1883 2.8385
-5.2624 1.1313 2.8385
-5.2373 1.0748 2.8385
-5.2120 1.0190 2.8385
-5.1863 0.9636 2.8385
-5.1604 0.9089 2.8385
-5.1343 0.8547 2.8385
-5.1079 0.8011 2.8385
-5.0813 0.7480 2.8385
-5.0544 0.6954 2.8385
-5.0273 0.6434 2.8385
-4.9999 0.5920 2.8385
-4.9724 0.5410 2.8385
-4.9446 0.4906 2.8385
-4.9167 0.4408 2.8385
-4.8885 0.3915 2.8385
-4.8601 0.3426 2.8385
-4.8316 0.2944 2.8385
-4.8028 0.2466 2.8385
-4.7739 0.1993 2.8385
-4.7448 0.1526 2.8385
-4.7155 0.1064 2.8385
-4.6861 0.0606 2.8385
-4.6565 0.0154 2.8385
-4.6267 -0.0293 2.8385
-4.5968 -0.0736 2.8385
-4.5668 -0.1173 2.8385
-4.5366 -0.1606 2.8385
-4.5062 -0.2034 2.8385
-4.4758 -0.2457 2.8385
-4.4452 -0.2875 2.8385
-4.4144 -0.3289 2.8385
-4.3836 -0.3697 2.8385
-4.3526 -0.4102 2.8385
-4.3215 -0.4501 2.8385
-4.2903 -0.4896 2.8385
-4.2590 -0.5287 2.8385
-4.2276 -0.5673 2.8385
-4.1960 -0.6054 2.8385
-4.1644 -0.6431 2.8385
-4.1327 -0.6804 2.8385
-4.1009 -0.7172 2.8385
-4.0690 -0.7536 2.8385
-4.0370 -0.7895 2.8385
-4.0049 -0.8250 2.8385
-3.9727 -0.8602 2.8385
-3.9405 -0.8948 2.8385
-3.9081 -0.9291 2.8385
-3.8758 -0.9629 2.8385
-3.8433 -0.9964 2.8385
-3.8107 -1.0294 2.8385
-3.7781 -1.0620 2.8385
-3.7455 -1.0942 2.8385
-3.7127 -1.1260 2.8385
-3.6799 -1.1574 2.8385
-3.6471 -1.1885 2.8385
-3.6142 -1.2191 2.8385
-3.5812 -1.2494 2.8385
-3.5482 -1.2792 2.8385
-3.5151 -1.3087 2.8385
-3.4820 -1.3378 2.8385
-3.4488 -1.3665 2.8385
-3.4156 -1.3948 2.8385
-3.3824 -1.4228 2.8385
-3.3491 -1.4505 2.8385
-3.3157 -1.4777 2.8385
-3.2824 -1.5046 2.8385
-3.2490 -1.5311 2.8385
-3.2155 -1.5573 2.8385
-3.1820 -1.5831 2.8385
-3.1485 -1.6085 2.8385
-3.1149 -1.6337 2.8385
-3.0814 -1.6584 2.8385
