ply
format ascii 1.0
element vertex 2096
property float32 x
property float32 y
property float32 z
end_header
6.4845 -1.8784 -0.6740
6.4845 -1.8112 -0.6908
6.4846 -1.7443 -0.7077
6.4847 -1.6777 -0.7247
6.4848 -1.6115 -0.7416
6.4849 -1.5455 -0.7586
6.4849 -1.4799 -0.7757
6.4850 -1.4145 -0.7928
6.4851 -1.3494 -0.8100
6.4852 -1.2845 -0.8272
6.4853 -1.2199 -0.8445
6.4853 -1.1555 -0.8618
6.4854 -1.0913 -0.8792
6.4855 -1.0273 -0.8967
6.4856 -0.9635 -0.9143
6.4856 -0.8998 -0.9319
6.4923 -0.8370 -0.9506
6.4925 -0.7736 -0.9684
6.4927 -0.7103 -0.9863
6.4929 -0.6471 -1.0043
6.4931 -0.5840 -1.0224
6.4933 -0.5210 -1.0406
6.4935 -0.4580 -1.0589
6.4936 -0.3951 -1.0773
6.4938 -0.3322 -1.0958
6.4940 -0.2694 -1.1144
6.4942 -0.2066 -1.1332
6.4944 -0.1438 -1.1520
6.4946 -0.0810 -1.1710
6.4948 -0.0182 -1.1901
6.4950 0.0447 -1.2094
6.4952 0.1076 -1.2288
6.4954 0.1706 -1.2483
6.4956 0.2336 -1.2679
6.4958 0.2967 -1.2878
6.4959 0.3600 -1.3077
6.4961 0.4233 -1.3279
6.4963 0.4868 -1.3481
6.4965 0.5504 -1.3686
6.4967 0.6141 -1.3892
6.4969 0.6780 -1.4100
6.4971 0.7421 -1.4310
6.4973 0.8064 -1.4522
6.4975 0.8709 -1.4736
6.4977 0.9356 -1.4951
6.4979 1.0006 -1.5169
6.4981 1.0658 -1.5389
6.4983 1.1312 -1.5611
6.4985 1.1970 -1.5835
6.4987 1.2630 -1.6062
6.4989 1.3294 -1.6291
6.4991 1.3961 -1.6522
6.4993 1.4631 -1.6756
6.4995 1.5305 -1.6992
6.4998 1.5983 -1.7231
6.5000 1.6664 -1.7473
6.5002 1.7350 -1.7717
6.5004 1.8040 -1.7964
6.5006 1.8735 -1.8214
6.5008 1.9434 -1.8468
6.5010 2.0138 -1.8724
6.5013 2.0848 -1.8983
6.4970 2.1547 -1.9233
6.4972 2.2266 -1.9499
6.4973 2.2992 -1.9768
6.4974 2.3722 -2.0040
6.4976 2.4460 -2.0317
6.4977 2.5203 -2.0597
6.4979 2.5953 -2.0881
6.4980 2.6710 -2.1169
6.4982 2.7474 -2.1461
6.4983 2.8246 -2.1757
6.4985 2.9025 -2.2058
6.4986 2.9813 -2.2363
6.4988 3.0608 -2.2673
6.4991 3.2225 -2.3307
6.4989 3.1412 -2.2987
6.4992 3.3047 -2.3631
6.4997 3.5572 -2.4636
6.4994 3.3879 -2.3961
6.4999 3.6434 -2.4983
6.4995 3.4720 -2.4296
6.5000 3.7307 -2.5335
6.5004 3.9088 -2.6058
6.5002 3.8191 -2.5693
6.5006 3.9996 -2.6429
6.5007 4.0917 -2.6807
6.5011 4.2800 -2.7584
6.5009 4.1852 -2.7192
6.5013 4.3762 -2.7983
6.5019 4.6738 -2.9228
6.5015 4.4739 -2.8390
6.5021 4.7762 -2.9660
6.5017 4.5731 -2.8805
6.5023 4.8803 -3.0101
6.5027 5.0939 -3.1010
6.5025 4.9862 -3.0551
6.5043 5.2047 -3.1486
6.5052 5.5461 -3.2957
6.5046 5.3164 -3.1965
6.5055 5.6642 -3.3470
6.5059 5.7847 -3.3995
6.5049 5.4301 -3.2456
6.5062 5.9076 -3.4532
6.5066 6.0330 -3.5082
6.5080 6.5621 -3.7421
6.5069 6.1610 -3.5645
6.5084 6.7019 -3.8044
6.5073 6.2918 -3.6222
6.5088 6.8449 -3.8683
6.5092 6.9913 -3.9339
6.5076 6.4255 -3.6814
6.5096 7.1413 -4.0014
6.5114 7.7803 -4.2908
6.5100 7.2950 -4.0707
6.5118 7.9507 -4.3685
6.5105 7.4526 -4.1419
6.5109 7.6143 -4.2153
6.5123 8.1259 -4.4486
6.5178 8.4973 -4.6196
6.5176 8.3123 -4.5346
6.5180 8.6878 -4.7074
6.5186 9.2950 -4.9886
6.5182 8.8840 -4.7980
6.5188 9.5103 -5.0888
6.5184 9.0863 -4.8917
6.5190 9.7328 -5.1926
6.5192 9.9629 -5.3001
6.5194 10.2008 -5.4117
6.5197 10.4472 -5.5274
6.5199 10.7026 -5.6476
6.4848 -1.7884 -0.3688
6.4849 -1.7214 -0.3864
6.4850 -1.6547 -0.4040
6.4851 -1.5883 -0.4216
6.4851 -1.5223 -0.4392
6.4852 -1.4565 -0.4568
6.4853 -1.3910 -0.4744
6.4854 -1.3258 -0.4921
6.4855 -1.2609 -0.5098
6.4855 -1.1961 -0.5275
6.4856 -1.1316 -0.5452
6.4857 -1.0674 -0.5630
6.4858 -1.0033 -0.5807
6.4858 -0.9393 -0.5986
6.4859 -0.8756 -0.6165
6.4921 -0.8127 -0.6350
6.4923 -0.7492 -0.6530
6.4925 -0.6858 -0.6710
6.4927 -0.6226 -0.6891
6.4929 -0.5594 -0.7073
6.4931 -0.4964 -0.7255
6.4933 -0.4334 -0.7438
6.4935 -0.3704 -0.7622
6.4937 -0.3075 -0.7806
6.4939 -0.2447 -0.7991
6.4941 -0.1819 -0.8178
6.4943 -0.1190 -0.8364
6.4944 -0.0562 -0.8552
6.4946 0.0066 -0.8741
6.4948 0.0695 -0.8931
6.4950 0.1324 -0.9121
6.4952 0.1954 -0.9313
6.4954 0.2584 -0.9506
6.4956 0.3216 -0.9700
6.4958 0.3848 -0.9895
6.4960 0.4481 -1.0092
6.4962 0.5115 -1.0289
6.4964 0.5751 -1.0488
6.4966 0.6388 -1.0689
6.4968 0.7027 -1.0891
6.4970 0.7668 -1.1094
6.4972 0.8310 -1.1299
6.4974 0.8955 -1.1505
6.4976 0.9601 -1.1713
6.4978 1.0250 -1.1922
6.4980 1.0902 -1.2134
6.4982 1.1556 -1.2347
6.4984 1.2212 -1.2562
6.4986 1.2872 -1.2778
6.4988 1.3535 -1.2997
6.4990 1.4201 -1.3218
6.4992 1.4870 -1.3440
6.4994 1.5543 -1.3665
6.4996 1.6220 -1.3892
6.4998 1.6901 -1.4122
6.5000 1.7585 -1.4353
6.5002 1.8274 -1.4587
6.5004 1.8968 -1.4823
6.5006 1.9665 -1.5062
6.5009 2.0368 -1.5304
6.4968 2.1061 -1.5538
6.4969 2.1774 -1.5785
6.4970 2.2491 -1.6034
6.4972 2.3214 -1.6286
6.4973 2.3944 -1.6542
6.4975 2.4679 -1.6800
6.4976 2.5420 -1.7062
6.4977 2.6168 -1.7327
6.4979 2.6923 -1.7596
6.4980 2.7685 -1.7868
6.4982 2.8454 -1.8143
6.4983 2.9230 -1.8422
6.4985 3.0015 -1.8705
6.4986 3.0808 -1.8992
6.4988 3.1608 -1.9284
6.4989 3.2418 -1.9579
6.4991 3.3237 -1.9879
6.4992 3.4065 -2.0183
6.4994 3.4903 -2.0491
6.4996 3.5750 -2.0805
6.4997 3.6608 -2.1123
6.4999 3.7477 -2.1447
6.5001 3.8357 -2.1776
6.5002 3.9249 -2.2110
6.5004 4.0153 -2.2450
6.5006 4.1069 -2.2795
6.5008 4.1998 -2.3147
6.5009 4.2940 -2.3504
6.5019 4.7870 -2.5393
6.5011 4.3896 -2.3868
6.5013 4.4867 -2.4239
6.5021 4.8904 -2.5793
6.5015 4.5852 -2.4617
6.5023 4.9955 -2.6201
6.5017 4.6853 -2.5001
6.5040 5.2122 -2.7046
6.5025 5.1024 -2.6616
6.5043 5.3230 -2.7479
6.5052 5.6677 -2.8835
6.5046 5.4357 -2.7921
6.5056 5.7871 -2.9307
6.5049 5.5506 -2.8373
6.5059 5.9088 -2.9790
6.5066 6.1597 -3.0789
6.5062 6.0330 -3.0284
6.5069 6.2891 -3.1306
6.5080 6.6945 -3.2935
6.5084 6.8358 -3.3506
6.5073 6.4213 -3.1836
6.5088 6.9804 -3.4091
6.5076 6.5564 -3.2379
6.5092 7.1285 -3.4691
6.5096 7.2802 -3.5308
6.5100 7.4357 -3.5942
6.5114 7.9266 -3.7952
6.5105 7.5951 -3.6593
6.5109 7.7587 -3.7263
6.5118 8.0990 -3.8661
6.5170 8.6510 -4.0944
6.5166 8.2818 -3.9418
6.5171 8.8438 -4.1743
6.5173 9.0424 -4.2568
6.5168 8.4638 -4.0169
6.5175 9.2471 -4.3420
6.5177 9.4583 -4.4300
6.5178 9.6763 -4.5211
6.5180 9.9015 -4.6154
6.5182 10.1344 -4.7131
6.5185 10.3753 -4.8143
6.5187 10.6248 -4.9194
6.5189 10.8834 -5.0284
6.4852 -1.6995 -0.0671
6.4853 -1.6327 -0.0855
6.4853 -1.5662 -0.1038
6.4854 -1.5000 -0.1221
6.4855 -1.4341 -0.1403
6.4856 -1.3685 -0.1585
6.4856 -1.3032 -0.1767
6.4857 -1.2382 -0.1949
6.4858 -1.1734 -0.2131
6.4859 -1.1088 -0.2313
6.4860 -1.0444 -0.2494
6.4860 -0.9802 -0.2676
6.4861 -0.9162 -0.2858
6.4862 -0.8524 -0.3040
6.4920 -0.7894 -0.3224
6.4922 -0.7258 -0.3407
6.4924 -0.6624 -0.3589
6.4926 -0.5991 -0.3772
6.4928 -0.5359 -0.3955
6.4930 -0.4728 -0.4138
6.4931 -0.4098 -0.4322
6.4933 -0.3468 -0.4506
6.4935 -0.2839 -0.4690
6.4939 -0.1582 -0.5060
6.4937 -0.2210 -0.4875
6.4941 -0.0953 -0.5246
6.4943 -0.0325 -0.5432
6.4947 0.0932 -0.5807
6.4945 0.0304 -0.5619
6.4949 0.1562 -0.5995
6.4954 0.3453 -0.6565
6.4956 0.4084 -0.6756
6.4951 0.2191 -0.6184
6.4958 0.4718 -0.6949
6.4953 0.2822 -0.6374
6.4960 0.5352 -0.7142
6.4962 0.5987 -0.7336
6.4970 0.8544 -0.8123
6.4972 0.9188 -0.8323
6.4964 0.6624 -0.7531
6.4974 0.9835 -0.8524
6.4966 0.7262 -0.7727
6.4976 1.0483 -0.8726
6.4978 1.1134 -0.8929
6.4968 0.7903 -0.7925
6.4980 1.1787 -0.9134
6.4986 1.3764 -0.9758
6.4982 1.2443 -0.9341
6.4988 1.4429 -0.9969
6.4984 1.3102 -0.9548
6.4994 1.6445 -1.0611
6.4990 1.5097 -1.0181
6.4996 1.7124 -1.0829
6.4992 1.5769 -1.0395
6.4998 1.7807 -1.1049
6.5000 1.8495 -1.1271
6.5003 1.9187 -1.1494
6.4968 2.1987 -1.2402
6.5005 1.9883 -1.1720
6.4969 2.2703 -1.2637
6.4970 2.3424 -1.2873
6.5007 2.0585 -1.1948
6.4972 2.4151 -1.3113
6.4966 2.1276 -1.2170
6.4973 2.4884 -1.3355
6.4975 2.5624 -1.3599
6.4979 2.7881 -1.4350
6.4976 2.6369 -1.3846
6.4977 2.7122 -1.4097
6.4980 2.8648 -1.4606
6.4985 3.0993 -1.5393
6.4982 2.9421 -1.4865
6.4986 3.1790 -1.5662
6.4983 3.0203 -1.5127
6.4988 3.2597 -1.5935
6.4989 3.3412 -1.6211
6.4991 3.4236 -1.6491
6.4997 3.7633 -1.7652
6.4993 3.5071 -1.6776
6.4999 3.8509 -1.7953
6.5001 3.9396 -1.8259
6.4994 3.5914 -1.7064
6.5002 4.0294 -1.8569
6.4996 3.6768 -1.7356
6.5004 4.1205 -1.8884
6.5011 4.4980 -2.0198
6.5006 4.2129 -1.9205
6.5008 4.3065 -1.9530
6.5013 4.5959 -2.0540
6.5009 4.4016 -1.9861
6.5015 4.6953 -2.0888
6.5019 4.8989 -2.1604
6.5021 5.0032 -2.1972
6.5017 4.7963 -2.1243
6.5023 5.1092 -2.2347
6.5040 5.3280 -2.3123
6.5037 5.2181 -2.2733
6.5052 5.7879 -2.4762
6.5043 5.4398 -2.3520
6.5056 5.9085 -2.5194
6.5046 5.5537 -2.3926
6.5059 6.0314 -2.5635
6.5062 6.1569 -2.6086
6.5049 5.6697 -2.4340
6.5066 6.2849 -2.6548
6.5080 6.8254 -2.8503
6.5069 6.4157 -2.7019
6.5084 6.9682 -2.9022
6.5073 6.5492 -2.7502
6.5088 7.1144 -2.9553
6.5077 6.6858 -2.7996
6.5092 7.2641 -3.0099
6.5096 7.4174 -3.0659
6.5114 8.0711 -3.3055
6.5100 7.5746 -3.1234
6.5157 8.2504 -3.3717
6.5105 7.7358 -3.1824
6.5158 8.4294 -3.4376
6.5109 7.9013 -3.2431
6.5159 8.6135 -3.5055
6.5161 8.8029 -3.5755
6.5167 9.6196 -3.8783
6.5162 8.9979 -3.6476
6.5169 9.8402 -3.9604
6.5164 9.1988 -3.7221
6.5171 10.0682 -4.0453
6.5166 9.4059 -3.7989
6.5173 10.3038 -4.1332
6.5175 10.5477 -4.2243
6.5177 10.8003 -4.3187
6.5179 11.0620 -4.4167
4.8886 -1.2145 0.1750
4.8895 -1.1644 0.1607
4.8632 -1.1085 0.1456
4.9549 -1.0789 0.1339
6.1586 -1.2787 0.1484
6.4859 -1.2812 0.1375
6.4860 -1.2161 0.1187
6.4861 -1.1512 0.1000
6.4861 -1.0865 0.0813
4.6232 -0.7285 0.0447
4.6148 -0.6814 0.0314
4.6164 -0.6361 0.0182
5.5835 -0.7143 0.0060
6.4918 -0.7667 -0.0116
6.4920 -0.7031 -0.0301
6.4922 -0.6396 -0.0486
6.4924 -0.5763 -0.0671
6.4926 -0.5131 -0.0856
6.4928 -0.4499 -0.1041
6.4930 -0.3868 -0.1225
6.4932 -0.3239 -0.1410
6.4934 -0.2609 -0.1595
6.4936 -0.1980 -0.1780
6.4938 -0.1351 -0.1966
6.4939 -0.0723 -0.2151
6.4941 -0.0094 -0.2337
6.4943 0.0534 -0.2523
6.4945 0.1163 -0.2709
6.4947 0.1792 -0.2895
6.4949 0.2421 -0.3082
6.4951 0.3052 -0.3270
6.4953 0.3682 -0.3457
6.4955 0.4314 -0.3646
6.4957 0.4947 -0.3835
6.4959 0.5581 -0.4024
6.4961 0.6216 -0.4214
6.4963 0.6852 -0.4405
6.4964 0.7490 -0.4596
6.4966 0.8130 -0.4788
6.4968 0.8771 -0.4981
6.4970 0.9415 -0.5175
6.4972 1.0060 -0.5370
6.4974 1.0708 -0.5565
6.4976 1.1358 -0.5762
6.4978 1.2010 -0.5959
6.4980 1.2666 -0.6158
6.4982 1.3324 -0.6357
6.4984 1.3984 -0.6558
6.4986 1.4649 -0.6760
6.4988 1.5316 -0.6963
6.4990 1.5987 -0.7168
6.4992 1.6661 -0.7374
6.4995 1.7339 -0.7581
6.4997 1.8021 -0.7790
6.4999 1.8708 -0.8000
6.5001 1.9398 -0.8212
6.5003 2.0093 -0.8425
6.5005 2.0793 -0.8640
6.4965 2.1483 -0.8851
6.4967 2.2191 -0.9070
6.4968 2.2905 -0.9290
6.4969 2.3625 -0.9512
6.4971 2.4350 -0.9737
6.4972 2.5081 -0.9963
6.4973 2.5818 -1.0191
6.4975 2.6562 -1.0422
6.4976 2.7311 -1.0655
6.4978 2.8068 -1.0890
6.4979 2.8832 -1.1128
6.4980 2.9603 -1.1369
6.4982 3.0382 -1.1612
6.4983 3.1168 -1.1857
6.4985 3.1963 -1.2106
6.4986 3.2766 -1.2357
6.4988 3.3578 -1.2612
6.4990 3.4399 -1.2869
6.4991 3.5229 -1.3130
6.4993 3.6069 -1.3394
6.4994 3.6918 -1.3662
6.4996 3.7779 -1.3933
6.4998 3.8650 -1.4208
6.4999 3.9532 -1.4486
6.5001 4.0426 -1.4769
6.5003 4.1332 -1.5055
6.5004 4.2250 -1.5346
6.5006 4.3181 -1.5641
6.5008 4.4125 -1.5941
6.5010 4.5083 -1.6245
6.5011 4.6055 -1.6554
6.5013 4.7043 -1.6869
6.5015 4.8045 -1.7188
6.5017 4.9064 -1.7513
6.5019 5.0099 -1.7843
6.5021 5.1151 -1.8180
6.5034 5.2230 -1.8525
6.5037 5.3320 -1.8874
6.5040 5.4429 -1.9229
6.5043 5.5558 -1.9591
6.5046 5.6707 -1.9960
6.5049 5.7879 -2.0337
6.5053 5.9072 -2.0721
6.5056 6.0290 -2.1112
6.5059 6.1531 -2.1512
6.5062 6.2798 -2.1921
6.5066 6.4092 -2.2338
6.5069 6.5413 -2.2765
6.5073 6.6762 -2.3201
6.5077 6.8142 -2.3647
6.5080 6.9552 -2.4104
6.5084 7.0996 -2.4571
6.5088 7.2473 -2.5050
6.5092 7.3986 -2.5541
6.5096 7.5536 -2.6045
6.5101 7.7126 -2.6561
6.5105 7.8756 -2.7092
6.5109 8.0428 -2.7636
6.5147 8.2188 -2.8210
6.5148 8.3949 -2.8783
6.5150 8.5759 -2.9374
6.5151 8.7620 -2.9981
6.5152 8.9535 -3.0607
6.5154 9.1507 -3.1251
6.5155 9.3540 -3.1916
6.5157 9.5635 -3.2601
6.5158 9.7797 -3.3309
6.5160 10.0029 -3.4041
6.5162 10.2335 -3.4797
6.5163 10.4719 -3.5579
6.5165 10.7187 -3.6389
6.5167 10.9743 -3.7229
6.5123 11.2314 -3.8072
6.4859 -1.5232 0.5306
6.4860 -1.4568 0.5108
6.4860 -1.3907 0.4911
6.4861 -1.3250 0.4716
6.4862 -1.2594 0.4520
6.4863 -1.1942 0.4326
6.4863 -1.1292 0.4133
6.4864 -1.0645 0.3940
6.4865 -0.9999 0.3749
6.4866 -0.9356 0.3557
4.8711 -0.6544 0.2528
4.8720 -0.6065 0.2386
4.9000 -0.5618 0.2257
4.9009 -0.5138 0.2115
4.9017 -0.4659 0.1973
4.9026 -0.4181 0.1831
4.9034 -0.3704 0.1690
4.8770 -0.3210 0.1540
4.8778 -0.2736 0.1400
4.9148 -0.2280 0.1270
6.1771 -0.2266 0.1419
6.4934 -0.1753 0.1306
6.4936 -0.1124 0.1120
6.4938 -0.0496 0.0934
6.4940 0.0133 0.0749
4.6324 0.0543 0.0402
4.6285 0.0991 0.0269
4.6345 0.1441 0.0137
6.4948 0.2648 0.0007
6.4949 0.3278 -0.0179
6.4951 0.3909 -0.0364
6.4953 0.4540 -0.0550
6.4955 0.5173 -0.0736
6.4957 0.5806 -0.0922
6.4959 0.6441 -0.1109
6.4961 0.7077 -0.1296
6.4963 0.7715 -0.1483
6.4965 0.8354 -0.1671
6.4967 0.8995 -0.1859
6.4969 0.9637 -0.2047
6.4971 1.0282 -0.2236
6.4973 1.0929 -0.2426
6.4975 1.1578 -0.2616
6.4977 1.2230 -0.2807
6.4979 1.2884 -0.2998
6.4981 1.3542 -0.3191
6.4983 1.4201 -0.3384
6.4985 1.4864 -0.3577
6.4987 1.5531 -0.3772
6.4989 1.6200 -0.3968
6.4991 1.6873 -0.4164
6.4993 1.7550 -0.4362
6.4995 1.8231 -0.4560
6.4997 1.8916 -0.4760
6.4999 1.9605 -0.4960
6.5001 2.0298 -0.5162
6.5003 2.0996 -0.5366
6.4964 2.1684 -0.5567
6.4965 2.2391 -0.5772
6.4967 2.3104 -0.5980
6.4968 2.3821 -0.6188
6.4969 2.4544 -0.6398
6.4971 2.5273 -0.6610
6.4972 2.6008 -0.6823
6.4973 2.6749 -0.7038
6.4975 2.7496 -0.7255
6.4976 2.8250 -0.7474
6.4978 2.9012 -0.7695
6.4979 2.9780 -0.7917
6.4981 3.0555 -0.8142
6.4982 3.1339 -0.8369
6.4984 3.2130 -0.8598
6.4985 3.2930 -0.8829
6.4987 3.3738 -0.9063
6.4988 3.4556 -0.9299
6.4990 3.5382 -0.9538
6.4991 3.6218 -0.9779
6.4993 3.7063 -1.0024
6.4994 3.7919 -1.0271
6.4996 3.8786 -1.0521
6.4998 3.9663 -1.0774
6.4999 4.0552 -1.1030
6.5001 4.1453 -1.1290
6.5003 4.2365 -1.1553
6.5004 4.3291 -1.1819
6.5006 4.4229 -1.2089
6.5008 4.5181 -1.2363
6.5010 4.6147 -1.2641
6.5012 4.7127 -1.2923
6.5013 4.8123 -1.3209
6.5015 4.9134 -1.3500
6.5017 5.0161 -1.3795
6.5019 5.1205 -1.4095
6.5032 5.2275 -1.4402
6.5034 5.3356 -1.4712
6.5037 5.4455 -1.5028
6.5040 5.5574 -1.5348
6.5043 5.6714 -1.5675
6.5046 5.7874 -1.6008
6.5049 5.9056 -1.6347
6.5053 6.0262 -1.6692
6.5056 6.1491 -1.7044
6.5059 6.2744 -1.7402
6.5063 6.4024 -1.7769
6.5066 6.5330 -1.8142
6.5069 6.6664 -1.8524
6.5073 6.8028 -1.8914
6.5077 6.9421 -1.9312
6.5081 7.0847 -1.9719
6.5084 7.2305 -2.0136
6.5088 7.3798 -2.0562
6.5092 7.5327 -2.0999
6.5096 7.6894 -2.1446
6.5101 7.8501 -2.1904
6.5105 8.0148 -2.2374
6.5138 8.1875 -2.2866
6.5139 8.3608 -2.3360
6.5140 8.5388 -2.3868
6.5141 8.7218 -2.4389
6.5143 8.9100 -2.4925
6.5144 9.1036 -2.5477
6.5145 9.3031 -2.6044
6.5146 9.5086 -2.6629
6.5148 9.7205 -2.7233
6.5149 9.9392 -2.7855
6.5151 10.1649 -2.8497
6.5152 10.3982 -2.9160
6.5154 10.6395 -2.9846
6.5155 10.8892 -3.0556
6.5119 11.1413 -3.1273
6.5126 11.4100 -3.2036
6.4862 -1.4352 0.8294
6.4863 -1.3690 0.8089
6.4864 -1.3031 0.7885
6.4865 -1.2375 0.7682
6.4865 -1.1721 0.7481
6.4866 -1.1071 0.7281
6.4867 -1.0422 0.7082
6.4868 -0.9776 0.6884
6.4868 -0.9133 0.6687
6.1941 -0.8107 0.6199
6.1680 -0.7464 0.5987
6.2186 -0.6913 0.5850
6.2197 -0.6304 0.5666
6.2207 -0.5696 0.5483
6.2218 -0.5089 0.5300
6.2228 -0.4483 0.5118
6.2239 -0.3878 0.4937
6.2250 -0.3273 0.4756
6.2260 -0.2669 0.4576
6.2271 -0.2066 0.4396
6.2402 -0.1465 0.4225
6.4934 -0.0896 0.4210
6.4936 -0.0267 0.4023
6.4938 0.0361 0.3837
6.4940 0.0990 0.3652
6.4942 0.1618 0.3466
4.8855 0.1690 0.2468
4.9137 0.2176 0.2343
4.9145 0.2653 0.2204
4.9154 0.3130 0.2065
4.9162 0.3608 0.1926
4.9170 0.4087 0.1787
4.9179 0.4567 0.1648
4.8914 0.5020 0.1501
4.8922 0.5500 0.1363
6.1943 0.7571 0.1550
6.1953 0.8180 0.1375
6.4965 0.9218 0.1258
6.4967 0.9860 0.1074
6.4969 1.0504 0.0890
6.4971 1.1150 0.0706
4.6432 0.8432 0.0372
4.6423 0.8895 0.0240
4.6513 0.9380 0.0108
6.4979 1.3759 -0.0034
6.4981 1.4418 -0.0220
6.4983 1.5080 -0.0407
6.4985 1.5745 -0.0593
6.4987 1.6414 -0.0781
6.4989 1.7085 -0.0969
6.4991 1.7761 -0.1157
6.4993 1.8440 -0.1346
6.4995 1.9124 -0.1536
6.4997 1.9811 -0.1726
6.4999 2.0503 -0.1918
6.4961 2.1185 -0.2109
6.4963 2.1886 -0.2302
6.4964 2.2591 -0.2495
6.4965 2.3301 -0.2690
6.4967 2.4017 -0.2886
6.4968 2.4738 -0.3083
6.4969 2.5464 -0.3281
6.4971 2.6197 -0.3480
6.4972 2.6936 -0.3680
6.4974 2.7680 -0.3882
6.4975 2.8432 -0.4085
6.4976 2.9190 -0.4289
6.4978 2.9956 -0.4495
6.4979 3.0729 -0.4703
6.4981 3.1509 -0.4912
6.4982 3.2297 -0.5122
6.4984 3.3093 -0.5335
6.4985 3.3898 -0.5549
6.4987 3.4712 -0.5765
6.4988 3.5534 -0.5983
6.4990 3.6366 -0.6203
6.4991 3.7208 -0.6425
6.4993 3.8060 -0.6650
6.4995 3.8922 -0.6876
6.4996 3.9794 -0.7105
6.4998 4.0678 -0.7337
6.4999 4.1573 -0.7570
6.5001 4.2481 -0.7807
6.5003 4.3400 -0.8046
6.5005 4.4333 -0.8289
6.5006 4.5279 -0.8534
6.5008 4.6238 -0.8782
6.5010 4.7212 -0.9033
6.5012 4.8200 -0.9288
6.5014 4.9204 -0.9546
6.5016 5.0224 -0.9808
6.5017 5.1260 -1.0073
6.5029 5.2321 -1.0344
6.5032 5.3392 -1.0617
6.5035 5.4483 -1.0895
6.5037 5.5592 -1.1177
6.5040 5.6721 -1.1464
6.5043 5.7871 -1.1755
6.5046 5.9042 -1.2051
6.5050 6.0236 -1.2352
6.5053 6.1452 -1.2659
6.5056 6.2693 -1.2970
6.5059 6.3959 -1.3288
6.5063 6.5251 -1.3612
6.5066 6.6570 -1.3942
6.5070 6.7917 -1.4278
6.5073 6.9294 -1.4622
6.5077 7.0702 -1.4972
6.5081 7.2142 -1.5330
6.5084 7.3616 -1.5695
6.5088 7.5124 -1.6069
6.5092 7.6670 -1.6451
6.5097 7.8253 -1.6842
6.5101 7.9877 -1.7242
6.5105 8.1542 -1.7651
6.5130 8.3278 -1.8077
6.5131 8.5029 -1.8507
6.5132 8.6829 -1.8948
6.5133 8.8678 -1.9400
6.5134 9.0581 -1.9865
6.5135 9.2539 -2.0342
6.5136 9.4555 -2.0834
6.5138 9.6634 -2.1339
6.5139 9.8777 -2.1859
6.5140 10.0988 -2.2396
6.5141 10.3271 -2.2949
6.5143 10.5631 -2.3519
6.5144 10.8071 -2.4109
6.5146 11.0597 -2.4718
6.5122 11.3170 -2.5339
6.5128 11.5889 -2.5993
6.4866 -1.3466 1.1299
6.4867 -1.2806 1.1086
6.4867 -1.2149 1.0875
6.4868 -1.1495 1.0666
6.4869 -1.0843 1.0458
6.4870 -1.0195 1.0252
6.4870 -0.9548 1.0047
6.1662 -0.8462 0.9357
6.1945 -0.7888 0.9207
6.2520 -0.7343 0.9099
6.2190 -0.6692 0.8860
6.2200 -0.6083 0.8672
6.2211 -0.5474 0.8485
6.2222 -0.4867 0.8298
6.2232 -0.4260 0.8113
6.2243 -0.3655 0.7929
6.2253 -0.3050 0.7745
6.2264 -0.2446 0.7563
6.2275 -0.1842 0.7381
6.2285 -0.1239 0.7200
6.2296 -0.0636 0.7020
6.2306 -0.0033 0.6841
6.2317 0.0570 0.6662
6.2327 0.1174 0.6484
6.2338 0.1777 0.6307
6.4942 0.2480 0.6385
6.2135 0.2974 0.5933
6.1873 0.3561 0.5732
6.2269 0.4188 0.5593
6.2391 0.4802 0.5428
6.2402 0.5410 0.5254
6.2412 0.6018 0.5080
6.2423 0.6628 0.4906
6.2434 0.7239 0.4733
6.2444 0.7852 0.4560
6.2455 0.8467 0.4387
6.2631 0.9107 0.4225
6.4966 1.0087 0.4203
6.4968 1.0731 0.4023
6.4970 1.1376 0.3843
6.4971 1.2024 0.3664
6.4973 1.2674 0.3484
4.9002 1.0050 0.2492
4.9202 1.0587 0.2366
4.9293 1.1105 0.2235
4.9302 1.1608 0.2099
4.9311 1.2114 0.1963
4.9320 1.2622 0.1827
4.9329 1.3133 0.1690
4.9063 1.3570 0.1545
4.9072 1.4084 0.1409
6.4994 1.9335 0.1686
6.4996 2.0021 0.1505
6.4998 2.0711 0.1323
6.4960 2.1392 0.1141
6.4962 2.2091 0.0959
6.4963 2.2794 0.0776
4.6633 1.6871 0.0425
6.4966 2.4216 0.0409
6.4967 2.4935 0.0224
6.4968 2.5659 0.0039
6.4970 2.6389 -0.0146
6.4971 2.7126 -0.0333
6.4972 2.7868 -0.0520
6.4974 2.8617 -0.0708
6.4975 2.9373 -0.0898
6.4977 3.0136 -0.1088
6.4978 3.0905 -0.1279
6.4979 3.1683 -0.1471
6.4981 3.2468 -0.1664
6.4982 3.3261 -0.1858
6.4984 3.4062 -0.2054
6.4985 3.4872 -0.2251
6.4987 3.5690 -0.2449
6.4988 3.6519 -0.2649
6.4990 3.7356 -0.2850
6.4991 3.8203 -0.3053
6.4993 3.9061 -0.3257
6.4995 3.9929 -0.3463
6.4996 4.0808 -0.3671
6.4998 4.1698 -0.3880
6.5000 4.2600 -0.4092
6.5001 4.3514 -0.4305
6.5003 4.4441 -0.4521
6.5005 4.5381 -0.4739
6.5006 4.6334 -0.4959
6.5008 4.7301 -0.5181
6.5010 4.8283 -0.5406
6.5012 4.9279 -0.5633
6.5014 5.0291 -0.5863
6.5016 5.1320 -0.6095
6.5026 5.2371 -0.6332
6.5029 5.3435 -0.6570
6.5032 5.4516 -0.6812
6.5035 5.5616 -0.7057
6.5038 5.6735 -0.7306
6.5040 5.7874 -0.7557
6.5043 5.9034 -0.7813
6.5047 6.0216 -0.8072
6.5050 6.1421 -0.8336
6.5053 6.2649 -0.8603
6.5056 6.3902 -0.8875
6.5059 6.5180 -0.9152
6.5063 6.6484 -0.9433
6.5066 6.7816 -0.9719
6.5070 6.9177 -1.0010
6.5073 7.0568 -1.0306
6.5077 7.1990 -1.0609
6.5081 7.3445 -1.0916
6.5085 7.4934 -1.1231
6.5089 7.6458 -1.1551
6.5093 7.8019 -1.1878
6.5097 7.9620 -1.2212
6.5101 8.1260 -1.2554
6.5121 8.2964 -1.2906
6.5122 8.4688 -1.3263
6.5123 8.6458 -1.3628
6.5124 8.8276 -1.4002
6.5125 9.0146 -1.4385
6.5126 9.2070 -1.4778
6.5127 9.4049 -1.5182
6.5128 9.6088 -1.5596
6.5129 9.8189 -1.6021
6.5130 10.0356 -1.6458
6.5131 10.2592 -1.6908
6.5132 10.4902 -1.7372
6.5133 10.7288 -1.7849
6.5135 10.9756 -1.8342
6.5118 11.2281 -1.8845
6.5125 11.4936 -1.9372
6.5131 11.7688 -1.9916
6.4869 -1.2571 1.4333
6.4870 -1.1913 1.4113
6.4871 -1.1259 1.3895
6.4872 -1.0606 1.3679
6.4872 -0.9957 1.3465
6.4873 -0.9310 1.3253
6.1938 -0.8272 1.2452
6.1949 -0.7659 1.2255
6.2183 -0.7074 1.2103
6.2194 -0.6462 1.1908
6.2204 -0.5852 1.1715
6.2215 -0.5243 1.1523
6.2226 -0.4636 1.1332
6.2236 -0.4029 1.1143
6.2247 -0.3423 1.0955
6.2258 -0.2818 1.0768
6.2268 -0.2214 1.0583
6.2279 -0.1610 1.0399
6.2289 -0.1007 1.0215
6.2300 -0.0403 1.0033
6.2310 0.0200 0.9852
6.2321 0.0803 0.9673
6.2331 0.1406 0.9494
6.2342 0.2009 0.9316
6.1856 0.2592 0.9066
6.2139 0.3205 0.8930
6.4945 0.3979 0.9149
6.2384 0.4427 0.8612
6.2395 0.5033 0.8438
6.2406 0.5640 0.8265
6.2416 0.6248 0.8093
6.2427 0.6858 0.7921
6.2438 0.7469 0.7750
6.2448 0.8081 0.7580
6.2459 0.8695 0.7410
6.2470 0.9310 0.7240
6.2481 0.9928 0.7071
6.2491 1.0547 0.6903
6.2502 1.1169 0.6735
6.2513 1.1793 0.6567
6.2524 1.2419 0.6400
6.2535 1.3048 0.6233
6.2048 1.3570 0.6018
6.0361 1.3811 0.5693
5.8088 1.3880 0.5324
6.4982 1.6190 0.5782
5.3492 1.3875 0.4617
5.3776 1.4502 0.4499
6.4988 1.8198 0.5264
4.7726 1.3861 0.3739
4.7735 1.4362 0.3613
6.4994 2.0239 0.4747
6.4996 2.0928 0.4575
6.4959 2.1607 0.4400
6.4960 2.2304 0.4228
6.4962 2.3005 0.4056
6.4963 2.3711 0.3884
6.4964 2.4423 0.3711
6.4966 2.5140 0.3538
6.4967 2.5862 0.3366
6.4968 2.6590 0.3192
6.4970 2.7324 0.3019
6.4971 2.8064 0.2845
6.4972 2.8810 0.2671
6.4974 2.9563 0.2496
6.4975 3.0323 0.2321
6.4977 3.1090 0.2146
6.4978 3.1864 0.1970
6.4980 3.2646 0.1793
6.4981 3.3436 0.1616
6.4982 3.4234 0.1438
6.4984 3.5040 0.1259
6.4985 3.5855 0.1079
6.4987 3.6679 0.0899
6.4988 3.7512 0.0718
6.4990 3.8355 0.0536
6.4992 3.9209 0.0353
6.4993 4.0072 0.0169
6.4995 4.0946 -0.0016
6.4996 4.1832 -0.0203
6.4998 4.2728 -0.0390
6.5000 4.3637 -0.0579
6.5001 4.4558 -0.0769
6.5003 4.5492 -0.0961
6.5005 4.6439 -0.1154
6.5007 4.7400 -0.1348
6.5008 4.8374 -0.1544
6.5010 4.9364 -0.1742
6.5012 5.0369 -0.1942
6.5014 5.1389 -0.2143
6.5024 5.2432 -0.2347
6.5026 5.3487 -0.2552
6.5029 5.4559 -0.2760
6.5032 5.5650 -0.2969
6.5035 5.6759 -0.3182
6.5038 5.7889 -0.3396
6.5041 5.9038 -0.3613
6.5044 6.0209 -0.3833
6.5047 6.1402 -0.4055
6.5050 6.2618 -0.4280
6.5053 6.3858 -0.4508
6.5056 6.5123 -0.4740
6.5059 6.6413 -0.4974
6.5063 6.7730 -0.5212
6.5066 6.9075 -0.5454
6.5070 7.0450 -0.5699
6.5073 7.1854 -0.5949
6.5077 7.3291 -0.6202
6.5081 7.4760 -0.6460
6.5085 7.6265 -0.6722
6.5089 7.7805 -0.6989
6.5093 7.9382 -0.7261
6.5097 8.0999 -0.7538
6.5112 8.2672 -0.7822
6.5113 8.4370 -0.8109
6.5114 8.6111 -0.8403
6.5115 8.7900 -0.8703
6.5116 8.9738 -0.9009
6.5116 9.1628 -0.9323
6.5117 9.3573 -0.9643
6.5118 9.5574 -0.9971
6.5119 9.7635 -1.0308
6.5120 9.9760 -1.0652
6.5121 10.1951 -1.1006
6.5122 10.4212 -1.1369
6.5123 10.6548 -1.1742
6.5124 10.8961 -1.2125
6.5115 11.1441 -1.2518
6.5121 11.4033 -1.2926
6.5127 11.6719 -1.3346
6.5134 11.9504 -1.3779
6.4873 -1.1664 1.7411
6.4874 -1.1008 1.7183
6.4874 -1.0355 1.6958
6.4875 -0.9705 1.6735
6.4876 -0.9057 1.6515
6.1943 -0.8031 1.5559
6.1681 -0.7385 1.5288
6.2187 -0.6831 1.5208
6.2198 -0.6219 1.5007
6.2209 -0.5609 1.4808
6.2219 -0.5000 1.4611
6.2230 -0.4392 1.4415
6.2241 -0.3785 1.4222
6.2251 -0.3179 1.4029
6.2262 -0.2574 1.3839
6.2272 -0.1969 1.3650
6.2283 -0.1365 1.3462
6.2294 -0.0762 1.3276
6.2304 -0.0159 1.3092
6.2315 0.0444 1.2908
6.2325 0.1047 1.2726
6.2336 0.1650 1.2546
6.4938 0.2347 1.2881
6.2133 0.2846 1.2145
6.2143 0.3448 1.1969
6.2378 0.4065 1.1836
6.2389 0.4670 1.1661
6.2399 0.5276 1.1488
6.2410 0.5883 1.1316
6.2420 0.6491 1.1144
6.2431 0.7100 1.0974
6.2442 0.7710 1.0804
6.2453 0.8322 1.0636
6.2463 0.8935 1.0468
6.2474 0.9550 1.0302
6.2485 1.0167 1.0136
6.2496 1.0786 0.9971
6.2507 1.1406 0.9806
6.2517 1.2030 0.9643
6.2528 1.2655 0.9480
6.4972 1.3800 0.9680
6.2326 1.3863 0.9124
6.0289 1.4018 0.8669
5.7942 1.4060 0.8182
5.4116 1.3682 0.7502
5.3770 1.4143 0.7316
5.3779 1.4698 0.7180
6.4986 1.8432 0.8510
6.4988 1.9107 0.8345
6.4990 1.9786 0.8181
6.4992 2.0469 0.8017
6.4957 2.1143 0.7848
6.4958 2.1833 0.7685
6.4959 2.2528 0.7522
6.4961 2.3228 0.7360
6.4962 2.3932 0.7198
6.4963 2.4642 0.7036
6.4964 2.5356 0.6874
6.4966 2.6077 0.6713
6.4967 2.6802 0.6552
6.4968 2.7534 0.6390
6.4970 2.8271 0.6229
6.4971 2.9015 0.6069
6.4973 2.9765 0.5908
6.4974 3.0523 0.5747
6.4975 3.1287 0.5586
6.4977 3.2058 0.5425
6.4978 3.2837 0.5264
6.4980 3.3623 0.5103
6.4981 3.4418 0.4942
6.4983 3.5220 0.4781
6.4984 3.6032 0.4619
6.4986 3.6852 0.4458
6.4987 3.7681 0.4296
6.4989 3.8520 0.4133
6.4990 3.9369 0.3970
6.4992 4.0228 0.3807
6.4993 4.1098 0.3644
6.4995 4.1978 0.3480
6.4997 4.2870 0.3315
6.4998 4.3773 0.3150
6.5000 4.4689 0.2984
6.5002 4.5617 0.2817
6.5003 4.6558 0.2650
6.5005 4.7512 0.2482
6.5007 4.8480 0.2314
6.5009 4.9463 0.2144
6.5010 5.0461 0.1974
6.5012 5.1474 0.1802
6.5021 5.2509 0.1630
6.5024 5.3555 0.1456
6.5026 5.4619 0.1281
6.5029 5.5700 0.1105
6.5032 5.6800 0.0928
6.5035 5.7920 0.0750
6.5038 5.9059 0.0570
6.5041 6.0219 0.0388
6.5044 6.1401 0.0205
6.5047 6.2605 0.0020
6.5050 6.3832 -0.0166
6.5053 6.5084 -0.0355
6.5056 6.6361 -0.0545
6.5060 6.7663 -0.0737
6.5063 6.8994 -0.0932
6.5066 7.0352 -0.1128
6.5070 7.1740 -0.1327
6.5074 7.3159 -0.1529
6.5077 7.4610 -0.1733
6.5081 7.6095 -0.1939
6.5085 7.7615 -0.2149
6.5089 7.9171 -0.2361
6.5093 8.0765 -0.2577
6.5104 8.2408 -0.2796
6.5104 8.4080 -0.3019
6.5105 8.5795 -0.3245
6.5106 8.7555 -0.3474
6.5106 8.9363 -0.3708
6.5107 9.1221 -0.3946
6.5108 9.3131 -0.4189
6.5109 9.5097 -0.4436
6.5109 9.7120 -0.4688
6.5110 9.9204 -0.4945
6.5111 10.1352 -0.5208
6.5112 10.3568 -0.5477
6.5113 10.5855 -0.5752
6.5113 10.8217 -0.6033
6.5114 11.0658 -0.6321
6.5117 11.3187 -0.6617
6.5124 11.5810 -0.6921
6.5130 11.8528 -0.7233
6.5137 12.1347 -0.7554
6.4877 -1.0739 2.0547
6.4877 -1.0085 2.0312
6.4878 -0.9435 2.0080
6.1715 -0.8357 1.8882
6.1947 -0.7772 1.8736
6.4905 -0.7499 1.9405
6.2192 -0.6571 1.8381
6.2203 -0.5959 1.8173
6.2213 -0.5348 1.7968
6.2224 -0.4738 1.7765
6.2235 -0.4130 1.7563
6.2245 -0.3523 1.7364
6.2256 -0.2917 1.7167
6.2266 -0.2312 1.6972
6.2277 -0.1707 1.6779
6.2288 -0.1104 1.6587
6.2298 -0.0500 1.6397
6.2309 0.0103 1.6209
6.2319 0.0706 1.6023
6.2330 0.1308 1.5839
6.2340 0.1911 1.5656
6.1854 0.2494 1.5351
6.2137 0.3106 1.5240
6.1875 0.3691 1.4997
6.2383 0.4325 1.4941
6.2393 0.4930 1.4765
6.2404 0.5535 1.4592
6.2414 0.6142 1.4419
6.2425 0.6749 1.4248
6.2436 0.7358 1.4079
6.2446 0.7967 1.3911
6.2457 0.8578 1.3744
6.2468 0.9191 1.3578
6.2479 0.9806 1.3413
6.2489 1.0422 1.3250
6.2500 1.1040 1.3087
6.2511 1.1660 1.2926
6.2522 1.2282 1.2766
6.2533 1.2907 1.2607
6.2545 1.3534 1.2450
6.1147 1.3845 1.2016
5.9348 1.4035 1.1512
5.7077 1.4075 1.0928
5.3490 1.3733 1.0108
5.3773 1.4355 1.0028
5.3509 1.4832 0.9847
6.4985 1.8683 1.1799
6.4987 1.9357 1.1641
6.4989 2.0034 1.1484
6.4991 2.0715 1.1327
6.4956 2.1387 1.1165
6.4957 2.2076 1.1011
6.4958 2.2769 1.0857
6.4959 2.3467 1.0703
6.4961 2.4170 1.0551
6.4962 2.4877 1.0399
6.4963 2.5590 1.0247
6.4965 2.6308 1.0097
6.4966 2.7031 0.9947
6.4967 2.7760 0.9798
6.4969 2.8496 0.9649
6.4970 2.9237 0.9501
6.4971 2.9985 0.9353
6.4973 3.0739 0.9206
6.4974 3.1500 0.9059
6.4976 3.2268 0.8913
6.4977 3.3044 0.8767
6.4978 3.3827 0.8621
6.4980 3.4619 0.8476
6.4981 3.5418 0.8332
6.4983 3.6226 0.8187
6.4984 3.7042 0.8043
6.4986 3.7868 0.7899
6.4987 3.8703 0.7756
6.4989 3.9547 0.7613
6.4990 4.0402 0.7470
6.4992 4.1267 0.7327
6.4993 4.2143 0.7184
6.4995 4.3030 0.7041
6.4997 4.3928 0.6899
6.4998 4.4838 0.6756
6.5000 4.5760 0.6614
6.5002 4.6695 0.6472
6.5003 4.7644 0.6329
6.5005 4.8606 0.6187
6.5007 4.9582 0.6045
6.5009 5.0572 0.5902
6.5010 5.1578 0.5759
6.5019 5.2605 0.5617
6.5021 5.3643 0.5474
6.5024 5.4699 0.5331
6.5027 5.5772 0.5187
6.5029 5.6863 0.5043
6.5032 5.7973 0.4899
6.5035 5.9102 0.4755
6.5038 6.0252 0.4610
6.5041 6.1422 0.4464
6.5044 6.2615 0.4319
6.5047 6.3831 0.4172
6.5050 6.5070 0.4025
6.5053 6.6333 0.3877
6.5056 6.7622 0.3729
6.5060 6.8938 0.3580
6.5063 7.0281 0.3430
6.5067 7.1653 0.3279
6.5070 7.3055 0.3127
6.5074 7.4488 0.2975
6.5077 7.5954 0.2821
6.5081 7.7454 0.2666
6.5085 7.8990 0.2511
6.5089 8.0562 0.2353
6.5095 8.2177 0.2195
6.5096 8.3824 0.2035
6.5096 8.5513 0.1873
6.5097 8.7246 0.1710
6.5097 8.9025 0.1546
6.5098 9.0853 0.1379
6.5099 9.2731 0.1211
6.5099 9.4662 0.1040
6.5100 9.6649 0.0868
6.5100 9.8695 0.0693
6.5101 10.0802 0.0516
6.5102 10.2974 0.0337
6.5102 10.5215 0.0155
6.5103 10.7528 -0.0030
6.5104 10.9917 -0.0218
6.5114 11.2403 -0.0409
6.5120 11.4967 -0.0604
6.5126 11.7621 -0.0802
6.5133 12.0372 -0.1004
6.5139 12.3224 -0.1211
6.4880 -0.9792 2.3758
6.4881 -0.9141 2.3515
6.1941 -0.8107 2.2220
6.1680 -0.7459 2.1901
6.2186 -0.6903 2.1856
6.2197 -0.6289 2.1638
6.2207 -0.5676 2.1423
6.2218 -0.5065 2.1210
6.2229 -0.4456 2.1000
6.2240 -0.3847 2.0792
6.2250 -0.3240 2.0587
6.2261 -0.2634 2.0384
6.2271 -0.2029 2.0183
6.2282 -0.1424 1.9985
6.2292 -0.0821 1.9789
6.2303 -0.0217 1.9595
6.2314 0.0386 1.9403
6.2324 0.0988 1.9213
6.2335 0.1591 1.9025
6.2345 0.2193 1.8840
6.2132 0.2786 1.8589
6.2142 0.3387 1.8408
6.2377 0.4002 1.8294
6.2387 0.4606 1.8116
6.2398 0.5210 1.7940
6.2409 0.5815 1.7765
6.2419 0.6421 1.7592
6.2430 0.7028 1.7421
6.2441 0.7636 1.7252
6.2451 0.8245 1.7084
6.2462 0.8856 1.6918
6.2473 0.9468 1.6753
6.2483 1.0082 1.6590
6.2494 1.0697 1.6429
6.2505 1.1314 1.6269
6.2516 1.1934 1.6110
6.2527 1.2555 1.5953
6.2538 1.3179 1.5797
6.2050 1.3695 1.5518
5.9897 1.3819 1.4830
5.8364 1.4052 1.4307
5.4511 1.3675 1.3229
5.3768 1.4033 1.2918
5.3777 1.4583 1.2791
6.4981 1.8286 1.5301
6.4983 1.8955 1.5148
6.4985 1.9627 1.4996
6.4987 2.0303 1.4846
6.4989 2.0982 1.4696
6.4954 2.1653 1.4540
6.4956 2.2340 1.4393
6.4957 2.3031 1.4247
6.4958 2.3727 1.4102
6.4960 2.4428 1.3959
6.4961 2.5134 1.3816
6.4962 2.5844 1.3675
6.4963 2.6560 1.3535
6.4965 2.7281 1.3395
6.4966 2.8008 1.3257
6.4967 2.8741 1.3120
6.4969 2.9480 1.2984
6.4970 3.0225 1.2849
6.4971 3.0977 1.2714
6.4973 3.1735 1.2581
6.4974 3.2501 1.2449
6.4976 3.3274 1.2317
6.4977 3.4054 1.2187
6.4978 3.4842 1.2057
6.4980 3.5638 1.1928
6.4981 3.6442 1.1801
6.4983 3.7255 1.1674
6.4984 3.8077 1.1547
6.4986 3.8908 1.1422
6.4987 3.9748 1.1298
6.4989 4.0599 1.1174
6.4990 4.1459 1.1051
6.4992 4.2330 1.0929
6.4994 4.3212 1.0808
6.4995 4.4106 1.0687
6.4997 4.5010 1.0567
6.4998 4.5928 1.0448
6.5000 4.6857 1.0330
6.5002 4.7800 1.0212
6.5004 4.8755 1.0095
6.5005 4.9725 0.9979
6.5007 5.0709 0.9863
6.5013 5.1711 0.9749
6.5016 5.2726 0.9635
6.5019 5.3757 0.9521
6.5021 5.4805 0.9409
6.5024 5.5869 0.9296
6.5027 5.6952 0.9185
6.5029 5.8053 0.9074
6.5032 5.9172 0.8964
6.5041 6.2654 0.8637
6.5044 6.3858 0.8529
6.5047 6.5085 0.8421
6.5050 6.6336 0.8315
6.5053 6.7612 0.8209
6.5057 6.8913 0.8103
6.5060 7.0242 0.7998
6.5063 7.1599 0.7894
6.5067 7.2985 0.7790
6.5070 7.4401 0.7687
6.5074 7.5849 0.7584
6.5077 7.7330 0.7482
6.5081 7.8846 0.7380
6.5085 8.0397 0.7279
6.5087 8.1984 0.7179
6.5087 8.3608 0.7078
6.5088 8.5272 0.6978
6.5088 8.6980 0.6879
6.5088 8.8731 0.6780
6.5035 6.0312 0.8854
6.5089 9.0530 0.6682
6.5038 6.1472 0.8745
6.5089 9.2377 0.6585
6.5090 9.4276 0.6488
6.5091 10.0306 0.6200
6.5090 9.6228 0.6391
6.5092 10.2437 0.6105
6.5091 9.8238 0.6295
6.5092 10.4634 0.6011
6.5093 10.6900 0.5917
6.5093 10.9240 0.5824
6.5111 11.1686 0.5733
6.5117 11.4193 0.5642
6.5123 11.6788 0.5551
6.5129 11.9474 0.5461
6.5135 12.2258 0.5371
6.5142 12.5146 0.5282
6.1664 -0.8380 2.5716
6.1947 -0.7799 2.5594
6.4900 -0.7525 2.6566
6.4902 -0.6881 2.6323
5.6803 -0.5460 2.2827
5.6711 -0.4892 2.2582
5.6852 -0.4345 2.2432
5.6992 -0.3797 2.2284
5.7239 -0.3253 2.2179
5.7511 -0.2707 2.2085
5.7843 -0.2160 2.2014
5.8211 -0.1607 2.1957
5.8578 -0.1049 2.1899
5.9013 -0.0485 2.1867
5.9459 0.0087 2.1839
6.0019 0.0669 2.1852
6.0665 0.1262 2.1894
6.1619 0.1877 2.2045
6.1854 0.2481 2.1938
6.2137 0.3093 2.1848
5.6719 0.3370 1.9772
6.2382 0.4309 2.1560
6.2393 0.4912 2.1379
6.2403 0.5516 2.1201
6.2414 0.6121 2.1025
6.2425 0.6726 2.0851
6.2435 0.7333 2.0679
6.2446 0.7940 2.0509
6.2457 0.8549 2.0342
6.2467 0.9159 2.0176
6.2478 0.9770 2.0012
6.2489 1.0383 1.9850
6.2499 1.0998 1.9689
6.2510 1.1614 1.9531
6.2521 1.2233 1.9374
6.2532 1.2853 1.9220
6.2791 1.3530 1.9142
6.1201 1.3796 1.8506
5.9598 1.4031 1.7876
5.7324 1.4070 1.7055
5.3579 1.3691 1.5813
5.3772 1.4284 1.5743
5.3507 1.4758 1.5541
6.4979 1.8585 1.8722
6.4981 1.9252 1.8575
6.4983 1.9923 1.8428
6.4985 2.0597 1.8284
6.4952 2.1263 1.8131
6.4953 2.1944 1.7990
6.4955 2.2630 1.7850
6.4956 2.3320 1.7712
6.4957 2.4014 1.7575
6.4958 2.4713 1.7440
6.4960 2.5416 1.7306
6.4961 2.6125 1.7174
6.4962 2.6839 1.7044
6.4964 2.7558 1.6915
6.4965 2.8282 1.6787
6.4966 2.9013 1.6661
6.4968 2.9749 1.6536
6.4969 3.0492 1.6413
6.4970 3.1241 1.6291
6.4972 3.1997 1.6171
6.4973 3.2760 1.6052
6.4974 3.3530 1.5934
6.4976 3.4307 1.5818
6.4977 3.5092 1.5703
6.4979 3.5884 1.5590
6.4980 3.6685 1.5478
6.4982 3.7495 1.5368
6.4983 3.8313 1.5259
6.4984 3.9140 1.5151
6.4986 3.9977 1.5044
6.4988 4.0823 1.4940
6.4989 4.1680 1.4836
6.4991 4.2546 1.4734
6.4992 4.3424 1.4633
6.4994 4.4312 1.4534
6.4995 4.5212 1.4436
6.4997 4.6124 1.4339
6.4999 4.7048 1.4244
6.5000 4.7985 1.4150
6.5002 4.8935 1.4058
6.5004 4.9898 1.3967
6.5005 5.0876 1.3878
6.5011 5.1871 1.3791
6.5014 5.2879 1.3704
6.5016 5.3903 1.3620
6.5019 5.4942 1.3536
6.5021 5.5999 1.3454
6.5024 5.7073 1.3374
6.5027 5.8165 1.3296
6.5029 5.9276 1.3219
6.5032 6.0406 1.3143
6.5035 6.1556 1.3069
6.5038 6.2728 1.2997
6.5041 6.3920 1.2927
6.5044 6.5136 1.2858
6.5047 6.6375 1.2791
6.5050 6.7638 1.2726
6.5053 6.8926 1.2663
6.5057 7.0241 1.2601
6.5060 7.1583 1.2542
6.5063 7.2954 1.2484
6.5067 7.4354 1.2429
6.5070 7.5785 1.2375
6.5074 7.7248 1.2324
6.5078 7.8745 1.2275
6.5081 8.0277 1.2228
6.5078 8.1836 1.2182
6.5078 8.3438 1.2139
6.5079 8.5079 1.2098
6.5079 8.6762 1.2060
6.5079 8.8487 1.2025
6.5080 9.0258 1.1993
6.5080 9.2076 1.1963
6.5080 9.3944 1.1936
6.5081 9.5864 1.1912
6.5081 9.7839 1.1892
6.5082 9.9871 1.1874
6.5082 10.1963 1.1860
6.5082 10.4118 1.1850
6.5083 10.6340 1.1843
6.5083 10.8633 1.1840
6.5083 11.0999 1.1842
6.5114 11.3496 1.1853
6.5119 11.6034 1.1864
6.5126 11.8661 1.1880
6.5132 12.1380 1.1901
6.5138 12.4199 1.1927
6.5145 12.7122 1.1959
5.7199 -0.6886 2.6860
5.7691 -0.6371 2.6860
5.8183 -0.5848 2.6860
5.8677 -0.5317 2.6860
5.9172 -0.4778 2.6860
5.9668 -0.4232 2.6860
6.0165 -0.3677 2.6860
6.0662 -0.3114 2.6860
6.1161 -0.2543 2.6860
6.1661 -0.1963 2.6860
6.2161 -0.1375 2.6860
6.2662 -0.0779 2.6860
6.3165 -0.0173 2.6860
6.3668 0.0442 2.6860
6.4172 0.1066 2.6860
6.4676 0.1698 2.6860
6.4928 0.2332 2.6755
6.2133 0.2831 2.5406
6.2143 0.3430 2.5216
6.4933 0.4210 2.6148
5.6910 0.4239 2.2743
5.6894 0.4787 2.2566
5.7011 0.5347 2.2444
5.7128 0.5910 2.2323
5.7292 0.6481 2.2222
5.7515 0.7063 2.2145
5.7738 0.7650 2.2069
5.8017 0.8251 2.2015
5.8315 0.8860 2.1969
5.8612 0.9477 2.1923
5.8926 1.0103 2.1885
5.9284 1.0745 2.1862
5.9641 1.1395 2.1840
6.0062 1.2067 2.1842
6.0567 1.2767 2.1873
6.2050 1.3694 2.2255
6.0182 1.3880 2.1438
5.8400 1.4051 2.0663
5.4559 1.3674 1.9174
5.3767 1.4016 1.8770
5.3777 1.4561 1.8650
6.4976 1.8253 2.2386
6.4978 1.8915 2.2241
6.4980 1.9581 2.2098
6.4982 2.0251 2.1957
6.4984 2.0923 2.1818
6.4951 2.1588 2.1669
6.4952 2.2267 2.1534
6.4953 2.2951 2.1401
6.4955 2.3639 2.1270
6.4956 2.4332 2.1141
6.4957 2.5029 2.1014
6.4959 2.5730 2.0889
6.4960 2.6437 2.0765
6.4961 2.7149 2.0644
6.4962 2.7866 2.0525
6.4964 2.8588 2.0407
6.4965 2.9317 2.0292
6.4966 3.0051 2.0178
6.4968 3.0791 2.0066
6.4969 3.1538 1.9956
6.4970 3.2291 1.9848
6.4972 3.3051 1.9742
6.4973 3.3818 1.9638
6.4975 3.4592 1.9536
6.4976 3.5374 1.9435
6.4977 3.6164 1.9337
6.4979 3.6962 1.9241
6.4980 3.7768 1.9146
6.4982 3.8583 1.9053
6.4983 3.9406 1.8963
6.4985 4.0239 1.8874
6.4986 4.1082 1.8787
6.4988 4.1934 1.8702
6.4989 4.2796 1.8620
6.4991 4.3669 1.8539
6.4992 4.4553 1.8460
6.4994 4.5449 1.8384
6.4995 4.6355 1.8309
6.4997 4.7274 1.8236
6.4999 4.8206 1.8166
6.5000 4.9150 1.8098
6.5002 5.0108 1.8032
6.5004 5.1079 1.7968
6.5009 5.2067 1.7907
6.5011 5.3069 1.7848
6.5014 5.4085 1.7791
6.5016 5.5118 1.7737
6.5019 5.6167 1.7685
6.5021 5.7233 1.7635
6.5024 5.8317 1.7588
6.5027 5.9419 1.7543
6.5030 6.0540 1.7501
6.5032 6.1681 1.7461
6.5035 6.2842 1.7425
6.5038 6.4024 1.7391
6.5041 6.5229 1.7360
6.5044 6.6456 1.7331
6.5047 6.7707 1.7306
6.5050 6.8983 1.7284
6.5053 7.0285 1.7265
6.5057 7.1613 1.7249
6.5067 7.5768 1.7221
6.5060 7.2969 1.7236
6.5070 7.7215 1.7219
6.5063 7.4354 1.7227
6.5074 7.8694 1.7221
6.5078 8.0207 1.7226
6.5070 8.1740 1.7233
6.5070 8.3321 1.7246
6.5070 8.8300 1.7310
6.5071 9.0045 1.7341
6.5070 8.4940 1.7263
6.5071 9.1835 1.7377
6.5070 8.6599 1.7284
6.5071 9.3674 1.7417
6.5071 9.5563 1.7464
6.5072 10.3674 1.7707
6.5072 9.7505 1.7515
6.5072 10.5854 1.7784
6.5072 9.9502 1.7573
6.5073 10.8103 1.7868
6.5072 10.1557 1.7637
6.5073 11.0422 1.7959
6.5111 11.2882 1.8068
6.5116 11.5367 1.8177
6.5122 11.7937 1.8294
6.5128 12.0596 1.8420
6.5135 12.3350 1.8556
6.5141 12.6204 1.8702
6.5148 12.9164 1.8859
5.1244 -0.5344 2.6860
5.1652 -0.4874 2.6860
5.2059 -0.4398 2.6860
5.2467 -0.3915 2.6860
5.2874 -0.3426 2.6860
5.3281 -0.2930 2.6860
5.3688 -0.2428 2.6860
5.4094 -0.1919 2.6860
5.4501 -0.1403 2.6860
5.4907 -0.0880 2.6860
5.5312 -0.0351 2.6860
5.5718 0.0187 2.6860
5.6123 0.0730 2.6860
5.6527 0.1282 2.6860
5.6931 0.1840 2.6860
5.7334 0.2405 2.6860
5.7737 0.2979 2.6860
5.8139 0.3560 2.6860
5.8540 0.4148 2.6860
5.8941 0.4745 2.6860
5.9341 0.5349 2.6860
5.9740 0.5961 2.6860
6.0138 0.6580 2.6860
6.0535 0.7209 2.6860
6.0931 0.7845 2.6860
6.1326 0.8490 2.6860
6.1720 0.9143 2.6860
6.2113 0.9805 2.6860
6.2504 1.0475 2.6860
6.2894 1.1153 2.6860
6.3283 1.1841 2.6860
6.3670 1.2538 2.6860
6.4056 1.3243 2.6860
6.2487 1.3535 2.6046
6.2330 1.4117 2.5827
6.2067 1.4674 2.5568
6.4966 1.6006 2.6608
5.3489 1.3713 2.1782
5.3773 1.4325 2.1774
5.3508 1.4794 2.1546
6.4974 1.8622 2.6019
6.4976 1.9283 2.5877
6.4978 1.9948 2.5739
6.4980 2.0616 2.5602
6.4949 2.1275 2.5456
6.4950 2.1950 2.5324
6.4951 2.2628 2.5195
6.4952 2.3310 2.5068
6.4954 2.3997 2.4943
6.4955 2.4687 2.4821
6.4956 2.5383 2.4702
6.4957 2.6083 2.4584
6.4959 2.6787 2.4470
6.4960 2.7497 2.4357
6.4961 2.8212 2.4247
6.4963 2.8933 2.4139
6.4964 2.9659 2.4034
6.4965 3.0391 2.3930
6.4966 3.1129 2.3830
6.4968 3.1873 2.3731
6.4969 3.2624 2.3635
6.4971 3.3381 2.3542
6.4972 3.4146 2.3451
6.4973 3.4917 2.3362
6.4975 3.5696 2.3275
6.4976 3.6483 2.3191
6.4977 3.7278 2.3110
6.4979 3.8081 2.3031
6.4980 3.8892 2.2954
6.4982 3.9712 2.2880
6.4983 4.0542 2.2809
6.4985 4.1380 2.2740
6.4986 4.2229 2.2674
6.4988 4.3087 2.2610
6.4989 4.3956 2.2549
6.4991 4.4836 2.2490
6.4992 4.5726 2.2434
6.4994 4.6629 2.2381
6.4996 4.7543 2.2331
6.4997 4.8469 2.2283
6.4999 4.9408 2.2239
6.5001 5.0360 2.2197
6.5002 5.1326 2.2158
6.5006 5.2307 2.2123
6.5009 5.3302 2.2090
6.5011 5.4312 2.2061
6.5014 5.5338 2.2035
6.5016 5.6380 2.2012
6.5019 5.7438 2.1992
6.5022 5.8514 2.1976
6.5024 5.9608 2.1963
6.5027 6.0720 2.1953
6.5030 6.1852 2.1947
6.5033 6.3004 2.1945
6.5035 6.4177 2.1947
6.5038 6.5371 2.1953
6.5041 6.6587 2.1962
6.5044 6.7827 2.1976
6.5047 6.9091 2.1994
6.5054 7.1695 2.2043
6.5050 7.0380 2.2016
6.5057 7.3037 2.2074
6.5067 7.7237 2.2198
6.5060 7.4408 2.2111
6.5071 7.8700 2.2249
6.5064 7.5807 2.2152
6.5074 8.0195 2.2306
6.5061 8.3264 2.2429
6.5061 8.1703 2.2362
6.5061 8.4862 2.2502
6.5061 8.9897 2.2759
6.5061 8.6499 2.2581
6.5061 9.1661 2.2859
6.5061 8.8177 2.2667
6.5062 9.3472 2.2965
6.5062 9.7243 2.3202
6.5062 9.5332 2.3080
6.5062 9.9208 2.3332
6.5062 10.5450 2.3776
6.5062 10.1229 2.3471
6.5062 10.7657 2.3944
6.5062 10.3308 2.3619
6.5062 10.9932 2.4121
6.5108 11.2359 2.4327
6.5113 11.4794 2.4529
6.5119 11.7311 2.4744
6.5125 11.9913 2.4971
6.5131 12.2606 2.5212
6.5138 12.5395 2.5467
6.5144 12.8286 2.5737
6.5151 13.1285 2.6023
4.7348 -0.4142 2.7514
4.7383 -0.3677 2.7332
4.7417 -0.3212 2.7153
4.7470 -0.2750 2.6987
4.7594 -0.2291 2.6864
4.7927 -0.1839 2.6860
4.8265 -0.1382 2.6860
4.8602 -0.0919 2.6860
4.8939 -0.0451 2.6860
4.9274 0.0024 2.6860
4.9608 0.0503 2.6860
4.9941 0.0989 2.6860
5.0273 0.1481 2.6860
5.0603 0.1978 2.6860
5.0932 0.2481 2.6860
5.1260 0.2991 2.6860
5.1587 0.3506 2.6860
5.1912 0.4028 2.6860
5.2235 0.4555 2.6860
5.2557 0.5089 2.6860
5.2878 0.5629 2.6860
5.3197 0.6176 2.6860
5.3514 0.6729 2.6860
5.3829 0.7288 2.6860
5.4142 0.7855 2.6860
5.4454 0.8427 2.6860
5.4763 0.9006 2.6860
5.5071 0.9592 2.6860
5.5376 1.0184 2.6860
5.5679 1.0784 2.6860
5.5980 1.1390 2.6860
5.6279 1.2003 2.6860
5.6575 1.2623 2.6860
5.6868 1.3249 2.6860
5.7160 1.3883 2.6860
5.4113 1.3682 2.5301
5.3769 1.4131 2.5016
5.3779 1.4672 2.4898
5.8297 1.6491 2.6860
5.8574 1.7161 2.6860
5.8848 1.7839 2.6860
5.9118 1.8524 2.6860
5.9386 1.9216 2.6860
5.9650 1.9916 2.6860
5.9911 2.0623 2.6860
6.0168 2.1338 2.6860
6.0421 2.2061 2.6860
6.0670 2.2791 2.6860
6.0916 2.3529 2.6860
6.1158 2.4275 2.6860
6.1395 2.5029 2.6860
6.1628 2.5790 2.6860
6.1857 2.6560 2.6860
6.2081 2.7337 2.6860
6.2301 2.8122 2.6860
6.2516 2.8915 2.6860
6.2726 2.9717 2.6860
6.2931 3.0526 2.6860
6.3131 3.1343 2.6860
6.3325 3.2168 2.6860
6.3515 3.3002 2.6860
6.3698 3.3844 2.6860
6.3876 3.4694 2.6860
6.4048 3.5552 2.6860
6.4214 3.6417 2.6860
6.4373 3.7292 2.6860
6.4527 3.8174 2.6860
6.4673 3.9064 2.6860
6.4813 3.9963 2.6860
6.4947 4.0870 2.6860
6.4983 4.1727 2.6823
6.4985 4.2571 2.6775
6.4986 4.3426 2.6730
6.4988 4.4291 2.6688
6.4990 4.5167 2.6649
6.4991 4.6053 2.6614
6.4993 4.6951 2.6582
6.4994 4.7860 2.6553
6.4996 4.8782 2.6528
6.4997 4.9716 2.6507
6.4999 5.0662 2.6489
6.5002 5.1624 2.6475
6.5004 5.2598 2.6465
6.5006 5.3587 2.6459
6.5009 5.4591 2.6457
6.5011 5.5610 2.6458
6.5014 5.6645 2.6464
6.5016 5.7697 2.6474
6.5019 5.8765 2.6488
6.5022 5.9851 2.6506
6.5024 6.0956 2.6529
6.5027 6.2079 2.6556
6.5030 6.3222 2.6588
6.5033 6.4385 2.6625
6.5035 6.5570 2.6667
6.5038 6.6776 2.6714
6.5041 6.8005 2.6766
6.5044 6.9258 2.6824
6.4983 7.0466 2.6860
6.4820 7.1584 2.6860
6.4644 7.2707 2.6860
6.4455 7.3835 2.6860
6.3804 7.7242 2.6860
6.4252 7.4967 2.6860
6.3559 7.8386 2.6860
6.4035 7.6103 2.6860
6.2736 8.1834 2.6860
6.3300 7.9532 2.6860
6.2432 8.2988 2.6860
6.3026 8.0682 2.6860
6.2113 8.4144 2.6860
6.1427 8.6460 2.6860
6.1777 8.5301 2.6860
6.1060 8.7620 2.6860
5.9862 9.1099 2.6860
5.9430 9.2258 2.6860
6.0677 8.8780 2.6860
5.8981 9.3415 2.6860
6.0278 8.9940 2.6860
5.8515 9.4571 2.6860
5.8032 9.5725 2.6860
5.5927 10.0308 2.6860
5.7532 9.6876 2.6860
5.5357 10.1444 2.6860
5.4769 10.2574 2.6860
5.7015 9.8024 2.6860
5.4163 10.3698 2.6860
5.6480 9.9168 2.6860
5.3539 10.4816 2.6860
5.2897 10.5928 2.6860
5.2237 10.7031 2.6860
4.4289 -0.3093 2.8384
4.4597 -0.2676 2.8384
4.4904 -0.2254 2.8384
4.5512 -0.1395 2.8384
4.5209 -0.1827 2.8384
4.6713 0.0380 2.8384
4.5815 -0.0959 2.8384
4.7009 0.0837 2.8384
4.6116 -0.0517 2.8384
4.7211 0.1296 2.8329
4.7271 0.2208 2.8019
4.7384 0.4034 2.7430
4.7241 0.1752 2.8172
4.6415 -0.0071 2.8384
4.7559 0.5878 2.6919
4.7300 0.2664 2.7867
4.8475 0.7862 2.6860
4.7412 0.4492 2.7289
4.9457 0.9943 2.6860
4.8724 0.8374 2.6860
4.7713 0.6357 2.6860
4.7328 0.3120 2.7719
4.7438 0.4951 2.7150
4.8971 0.8892 2.6860
4.9697 1.0477 2.6860
4.7357 0.3577 2.7573
4.7969 0.6853 2.6860
4.9216 0.9415 2.6860
4.7465 0.5410 2.7014
5.0398 1.2110 2.6860
4.9933 1.1016 2.6860
4.8223 0.7355 2.6860
5.1293 1.4365 2.6860
5.2137 1.6709 2.6860
5.0626 1.2665 2.6860
5.1509 1.4942 2.6860
5.2924 1.9142 2.6860
5.0167 1.1560 2.6860
5.2339 1.7309 2.6860
5.1721 1.5525 2.6860
5.0852 1.3226 2.6860
5.3111 1.9765 2.6860
5.3649 2.1668 2.6860
5.2538 1.7914 2.6860
5.1931 1.6114 2.6860
5.1074 1.3793 2.6860
5.3295 2.0394 2.6860
5.4307 2.4285 2.6860
5.3820 2.2314 2.6860
5.4890 2.6994 2.6860
5.2733 1.8526 2.6860
5.4460 2.4954 2.6860
5.3474 2.1028 2.6860
5.5023 2.7686 2.6860
5.3987 2.2965 2.6860
5.5391 2.9795 2.6860
5.4608 2.5628 2.6860
5.5151 2.8383 2.6860
5.5804 3.2687 2.6860
5.4751 2.6308 2.6860
5.4149 2.3622 2.6860
5.5503 3.0510 2.6860
5.5274 2.9086 2.6860
5.6121 3.5667 2.6860
5.5893 3.3424 2.6860
5.6333 3.8734 2.6860
5.6433 4.1883 2.6860
5.5609 3.1230 2.6860
5.6184 3.6426 2.6860
5.5975 3.4166 2.6860
5.6241 3.7189 2.6860
5.6439 4.2683 2.6860
5.5710 3.1955 2.6860
5.6369 3.9513 2.6860
5.6051 3.4913 2.6860
5.6291 3.7959 2.6860
5.6438 4.3488 2.6860
5.6411 4.5112 2.6860
5.6398 4.0298 2.6860
5.5966 5.1782 2.6860
5.6258 4.8414 2.6860
5.6428 4.4297 2.6860
5.6385 4.5930 2.6860
5.6419 4.1088 2.6860
5.5870 5.2633 2.6860
5.5525 5.5209 2.6860
5.6199 4.9250 2.6860
5.5764 5.3489 2.6860
5.6351 4.6754 2.6860
5.5390 5.6074 2.6860
5.4925 5.8685 2.6860
5.5649 5.4347 2.6860
5.6130 5.0090 2.6860
5.5245 5.6941 2.6860
5.6309 4.7582 2.6860
5.4158 6.2200 2.6860
5.4749 5.9561 2.6860
5.5090 5.7812 2.6860
5.6053 5.0934 2.6860
5.3940 6.3083 2.6860
5.3216 6.5739 2.6860
5.4563 6.0438 2.6860
5.2089 6.9291 2.6860
5.3710 6.3967 2.6860
5.0771 7.2837 2.6860
5.2952 6.6627 2.6860
5.3468 6.4853 2.6860
5.1778 7.0179 2.6860
5.4366 6.1318 2.6860
5.0411 7.3721 2.6860
5.2676 6.7515 2.6860
4.9255 7.6361 2.6860
5.1454 7.1066 2.6860
5.2389 6.8403 2.6860
5.0038 7.4603 2.6860
4.7710 8.0138 2.6959
5.1119 7.1952 2.6860
4.8844 7.7236 2.6860
4.9653 7.5484 2.6860
4.8421 7.8109 2.6860
4.7630 8.1660 2.7178
4.7984 7.8978 2.6860
4.7588 8.3295 2.7431
4.7496 8.6710 2.7972
4.7543 8.4978 2.7695
4.7447 8.8495 2.8262
4.7095 8.9762 2.8384
4.6523 9.0640 2.8384
4.5938 9.1511 2.8384
4.5339 9.2375 2.8384
4.4726 9.3231 2.8384
