ply
format ascii 1.0
element vertex 2112
property float32 x
property float32 y
property float32 z
end_header
-14.0394 -30.0217 2.8384
-13.5531 -29.7418 2.8384
-13.0824 -29.4752 2.8384
-12.6263 -29.2213 2.8384
-12.1840 -28.9793 2.8384
-11.7546 -28.7487 2.8384
-11.3372 -28.5288 2.8384
-7.4272 -19.2410 1.9285
-7.2105 -19.2436 1.9425
-10.1513 -27.9286 2.8384
-9.2509 -26.2571 2.6860
-8.9040 -26.0931 2.6860
-8.5652 -25.9368 2.6860
-8.2339 -25.7878 2.6860
-7.9097 -25.6459 2.6860
-7.5922 -25.5108 2.6860
-7.2810 -25.3822 2.6860
-6.9758 -25.2598 2.6860
-6.6762 -25.1436 2.6860
-6.3819 -25.0331 2.6860
-6.0926 -24.9283 2.6860
-5.8120 -24.8465 2.6879
-5.7936 -25.9248 2.8152
-5.5496 -26.0445 2.8384
-5.2619 -25.9558 2.8384
-4.9780 -25.8722 2.8384
-4.6976 -25.7927 2.8383
-4.4206 -25.7179 2.8382
-4.1466 -25.6480 2.8380
-3.8756 -25.5826 2.8379
-3.6074 -25.5219 2.8378
-3.3416 -25.4657 2.8377
-3.0781 -25.4134 2.8375
-2.8157 -25.3581 2.8366
-2.5554 -25.3041 2.8353
-2.2967 -25.2522 2.8337
-1.0273 -25.0642 2.8272
-2.0398 -25.2031 2.8320
-0.7771 -25.0450 2.8266
-1.7842 -25.1550 2.8300
-0.5273 -25.0296 2.8260
-1.5304 -25.1146 2.8283
-0.2781 -25.0181 2.8254
-1.2784 -25.0875 2.8277
-0.0292 -25.0106 2.8248
0.9670 -25.0189 2.8224
0.2196 -25.0068 2.8242
1.2169 -25.0307 2.8219
1.4676 -25.0463 2.8213
0.4685 -25.0070 2.8236
1.7191 -25.0659 2.8207
0.7176 -25.0110 2.8230
1.9716 -25.0895 2.8201
2.9955 -25.2241 2.8177
2.2254 -25.1170 2.8195
3.2557 -25.2681 2.8170
2.4805 -25.1486 2.8189
3.5181 -25.3164 2.8164
2.7371 -25.1843 2.8183
3.7828 -25.3689 2.8158
4.0499 -25.4259 2.8152
5.1507 -25.7149 2.8142
4.3198 -25.4874 2.8145
5.4370 -25.8110 2.8152
4.5925 -25.5535 2.8139
5.7278 -25.9135 2.8164
4.8686 -25.6251 2.8133
6.0231 -26.0218 2.8176
6.3143 -26.0985 2.8148
7.3081 -25.7017 2.7229
6.5968 -26.1299 2.8065
7.5532 -25.5973 2.6983
6.8314 -25.9713 2.7773
7.8014 -25.5050 2.6746
8.0530 -25.4249 2.6517
7.0683 -25.8288 2.7495
8.3117 -25.3669 2.6306
8.5751 -25.3214 2.6103
8.8438 -25.2887 2.5908
9.1211 -25.2770 2.5729
9.4034 -25.2742 2.5553
10.5618 -25.2848 2.4813
10.8578 -25.2891 2.4613
11.1603 -25.3024 2.4416
9.6891 -25.2750 2.5376
11.4757 -25.3381 2.4233
11.7966 -25.3783 2.4047
12.1233 -25.4230 2.3858
9.9768 -25.2758 2.5192
12.4455 -25.4509 2.3646
12.7721 -25.4802 2.3427
13.1046 -25.5141 2.3204
10.2680 -25.2798 2.5005
13.4434 -25.5524 2.2977
13.7821 -25.5829 2.2734
14.4644 -25.6307 2.2212
14.1200 -25.6047 2.2476
15.8761 -25.7205 2.1056
16.2401 -25.7426 2.0744
16.6078 -25.7630 2.0420
14.8155 -25.6612 2.1944
16.9704 -25.7682 2.0074
17.3402 -25.7774 1.9721
17.7179 -25.7907 1.9360
18.0977 -25.7997 1.8986
15.1694 -25.6889 2.1664
18.4735 -25.7958 1.8592
18.8571 -25.7957 1.8190
19.2489 -25.7996 1.7779
19.6389 -25.7937 1.7350
15.5193 -25.7026 2.1363
20.0286 -25.7802 1.6904
22.0493 -25.6964 1.4482
22.4651 -25.6718 1.3955
20.4267 -25.7704 1.6449
22.8760 -25.6345 1.3407
23.2958 -25.6003 1.2847
23.7252 -25.5692 1.2275
20.8336 -25.7643 1.5984
24.1455 -25.5212 1.1681
24.5722 -25.4728 1.1071
25.0087 -25.4276 1.0449
25.4449 -25.3747 0.9807
21.2316 -25.7400 1.5495
25.8794 -25.3131 0.9148
26.3580 -25.2868 0.8484
26.8637 -25.2775 0.7807
21.6360 -25.7165 1.4994
27.3866 -25.2748 0.7113
7.5684 -6.8505 0.1734
7.1725 -6.3672 0.1426
7.0009 -6.0951 0.1182
-8.6991 -18.3282 2.6860
-8.4377 -18.2449 2.6860
-8.1817 -18.1649 2.6860
-7.9309 -18.0880 2.6860
-7.6849 -18.0139 2.6860
-7.4436 -17.9430 2.6860
-7.2068 -17.8747 2.6860
-6.9742 -17.8091 2.6860
-6.7456 -17.7461 2.6860
-6.5208 -17.6857 2.6860
-6.2997 -17.6276 2.6860
-6.0820 -17.5720 2.6860
-5.8677 -17.5186 2.6860
-5.7843 -17.8622 2.7467
-5.7573 -18.4065 2.8384
-5.5393 -18.3536 2.8378
-4.4906 -18.1212 2.8354
-5.3243 -18.3029 2.8373
-4.2882 -18.0808 2.8349
-5.1120 -18.2544 2.8368
-4.0880 -18.0423 2.8344
-4.9024 -18.2080 2.8363
-3.8898 -18.0057 2.8340
-4.6953 -18.1636 2.8359
-2.9253 -17.8490 2.8317
-3.6935 -17.9708 2.8335
-2.7370 -17.8228 2.8312
-3.4990 -17.9378 2.8330
-2.5501 -17.7982 2.8308
-3.3062 -17.9065 2.8326
-2.3643 -17.7753 2.8304
-3.1150 -17.8769 2.8321
-2.1797 -17.7539 2.8299
-1.4506 -17.6838 2.8282
-1.9961 -17.7340 2.8295
-1.2703 -17.6701 2.8278
-1.8134 -17.7158 2.8291
-1.0906 -17.6579 2.8273
-1.6317 -17.6990 2.8286
-0.9115 -17.6471 2.8269
-0.7328 -17.6378 2.8265
-0.0208 -17.6151 2.8248
-0.5544 -17.6299 2.8261
0.1568 -17.6130 2.8244
-0.3764 -17.6236 2.8257
0.3344 -17.6124 2.8240
-0.1985 -17.6186 2.8252
0.5122 -17.6132 2.8236
0.6901 -17.6154 2.8231
1.4049 -17.6387 2.8214
0.8682 -17.6190 2.8227
1.5849 -17.6482 2.8210
1.0467 -17.6241 2.8223
1.7655 -17.6591 2.8206
1.2256 -17.6307 2.8218
1.9468 -17.6716 2.8201
2.1289 -17.6855 2.8197
2.3119 -17.7010 2.8192
2.8671 -17.7567 2.8179
2.4959 -17.7180 2.8188
3.0546 -17.7784 2.8175
2.6809 -17.7366 2.8184
3.2434 -17.8018 2.8170
3.6254 -17.8534 2.8161
3.4336 -17.8267 2.8166
3.8188 -17.8818 2.8156
4.4100 -17.9773 2.8142
4.0140 -17.9118 2.8152
4.6110 -18.0127 2.8137
4.2110 -17.9436 2.8147
4.8143 -18.0501 2.8133
5.2278 -18.1306 2.8123
5.0198 -18.0893 2.8128
5.4384 -18.1738 2.8118
6.0869 -18.3161 2.8102
5.6517 -18.2191 2.8113
6.3092 -18.3679 2.8097
5.8678 -18.2665 2.8107
6.5289 -18.4055 2.8066
6.9524 -18.4205 2.7903
6.7405 -18.4149 2.7989
7.1667 -18.4280 2.7817
7.8182 -18.4463 2.7530
7.3819 -18.4336 2.7724
8.0412 -18.4571 2.7435
7.5994 -18.4406 2.7630
8.2660 -18.4675 2.7335
8.7261 -18.4968 2.7136
8.4946 -18.4815 2.7237
8.9607 -18.5135 2.7034
9.6407 -18.4888 2.6595
9.1986 -18.5320 2.6930
9.8618 -18.4626 2.6415
9.4218 -18.5163 2.6773
10.0854 -18.4377 2.6233
10.5403 -18.3917 2.5863
10.3115 -18.4141 2.6049
10.7719 -18.3707 2.5674
11.4850 -18.3154 2.5094
11.0065 -18.3510 2.5483
11.7292 -18.2997 2.4895
11.2441 -18.3325 2.5290
11.9770 -18.2853 2.4693
12.4840 -18.2606 2.4281
12.2285 -18.2722 2.4489
12.7435 -18.2503 2.4069
13.5483 -18.2283 2.3414
13.0072 -18.2415 2.3855
13.8261 -18.2239 2.3188
13.2754 -18.2342 2.3636
14.0745 -18.1765 2.2902
14.5330 -18.0238 2.2242
14.3078 -18.1064 2.2582
14.7563 -17.9367 2.1892
15.5534 -17.8086 2.0971
14.9689 -17.8347 2.1519
15.8733 -17.8188 2.0714
15.2404 -17.8001 2.1223
16.2004 -17.8306 2.0450
16.8775 -17.8596 1.9903
16.5350 -17.8442 2.0180
17.2284 -17.8768 1.9619
18.3350 -17.9404 1.8721
17.5879 -17.8960 1.9327
18.7234 -17.9658 1.8405
17.9566 -17.9172 1.9028
19.1226 -17.9934 1.8080
19.5329 -18.0233 1.7746
7.5592 -6.8397 0.6592
7.1674 -6.3592 0.5992
6.9946 -6.0851 0.5599
6.8328 -5.8284 0.5230
-6.4864 -13.4648 2.6860
-6.3060 -13.4353 2.6860
-6.1282 -13.4069 2.6860
-5.9531 -13.3794 2.6860
-5.7827 -13.3585 2.6871
-5.7709 -13.7100 2.7631
-5.7505 -14.0575 2.8384
-5.5742 -14.0303 2.8380
-5.4002 -14.0041 2.8375
-5.2284 -13.9788 2.8371
-5.0587 -13.9544 2.8367
-4.8909 -13.9309 2.8363
-4.7249 -13.9082 2.8359
-4.5608 -13.8863 2.8356
-4.3984 -13.8653 2.8352
-4.2377 -13.8450 2.8348
-4.0785 -13.8255 2.8344
-3.9209 -13.8068 2.8341
-3.7647 -13.7889 2.8337
-3.6098 -13.7717 2.8333
-3.4563 -13.7551 2.8330
-3.3039 -13.7393 2.8326
-3.1528 -13.7242 2.8322
-3.0028 -13.7097 2.8319
-2.8538 -13.6960 2.8315
-2.7059 -13.6828 2.8312
-2.5588 -13.6703 2.8308
-2.4127 -13.6585 2.8305
-2.2674 -13.6472 2.8301
-0.9191 -5.9038 1.2251
-0.8569 -5.9002 1.2251
-0.7951 -5.8969 1.2251
-0.7335 -5.8938 1.2251
-0.6721 -5.8909 1.2251
-0.6110 -5.8884 1.2251
-0.5500 -5.8860 1.2251
-0.4892 -5.8839 1.2251
-0.4286 -5.8821 1.2251
-0.3681 -5.8805 1.2251
-0.3078 -5.8791 1.2251
-0.2475 -5.8780 1.2251
-0.1873 -5.8772 1.2251
-0.1272 -5.8765 1.2251
-0.0671 -5.8761 1.2251
-0.0070 -5.8760 1.2251
0.0530 -5.8761 1.2251
0.1131 -5.8764 1.2251
0.1732 -5.8770 1.2251
0.2334 -5.8778 1.2251
0.2936 -5.8789 1.2251
0.3540 -5.8802 1.2251
0.4144 -5.8817 1.2251
0.4750 -5.8835 1.2251
0.5357 -5.8855 1.2251
0.5966 -5.8878 1.2251
0.6577 -5.8903 1.2251
0.7191 -5.8931 1.2251
0.7806 -5.8961 1.2251
0.8424 -5.8994 1.2251
0.9045 -5.9030 1.2251
2.2250 -13.5932 2.8194
2.3690 -13.6009 2.8190
2.5137 -13.6092 2.8187
2.6592 -13.6182 2.8183
2.8056 -13.6277 2.8180
3.4007 -13.6722 2.8166
2.9529 -13.6379 2.8176
3.5522 -13.6849 2.8162
3.1011 -13.6487 2.8173
3.7048 -13.6983 2.8158
3.2504 -13.6601 2.8169
3.8587 -13.7124 2.8155
4.0140 -13.7273 2.8151
4.6494 -13.7937 2.8136
4.1706 -13.7428 2.8147
4.8123 -13.8122 2.8132
4.3287 -13.7590 2.8143
4.9769 -13.8315 2.8128
4.4882 -13.7760 2.8140
5.1433 -13.8516 2.8124
5.3116 -13.8725 2.8120
6.0058 -13.9648 2.8103
5.4820 -13.8942 2.8116
6.1850 -13.9901 2.8099
5.6544 -13.9169 2.8112
6.3667 -14.0164 2.8095
5.8290 -13.9404 2.8107
6.5463 -14.0335 2.8070
6.7175 -14.0292 2.8000
7.4173 -14.0111 2.7702
6.8888 -14.0221 2.7924
7.5970 -14.0079 2.7625
7.0641 -14.0200 2.7855
7.7781 -14.0038 2.7544
7.2396 -14.0151 2.7778
7.9624 -14.0020 2.7466
8.1485 -14.0001 2.7385
8.9184 -13.9992 2.7052
8.3372 -13.9991 2.7304
9.1176 -14.0003 2.6966
8.5283 -13.9986 2.7221
9.3139 -13.9934 2.6861
8.7220 -13.9985 2.7137
9.4894 -13.9525 2.6689
9.6773 -13.9273 2.6545
10.4146 -13.7802 2.5856
9.8323 -13.8529 2.6305
10.6138 -13.7565 2.5703
10.0240 -13.8284 2.6157
10.8542 -13.7822 2.5638
10.2181 -13.8041 2.6008
11.0596 -13.7590 2.5480
11.2679 -13.7361 2.5319
12.1326 -13.6471 2.4649
11.4792 -13.7134 2.5155
12.3574 -13.6255 2.4474
11.6937 -13.6911 2.4989
12.5859 -13.6042 2.4297
11.9114 -13.6689 2.4820
12.8183 -13.5831 2.4116
13.0547 -13.5623 2.3932
14.0443 -13.4817 2.3160
13.2953 -13.5418 2.3745
14.3036 -13.4622 2.2958
13.5403 -13.5215 2.3554
14.5682 -13.4430 2.2751
13.7899 -13.5015 2.3359
7.5560 -6.8359 1.1478
7.1646 -6.3547 1.0583
6.9904 -6.0784 1.0036
6.8274 -5.8198 0.9524
6.7297 -5.6234 0.9118
-5.4717 -11.1895 2.8377
-5.3261 -11.1797 2.8374
-5.1821 -11.1701 2.8370
-5.0398 -11.1608 2.8367
-4.8990 -11.1518 2.8364
-4.7597 -11.1431 2.8360
-4.6217 -11.1346 2.8357
-4.4852 -11.1264 2.8354
-4.3500 -11.1184 2.8351
-4.2160 -11.1106 2.8347
-4.0833 -11.1032 2.8344
-3.9517 -11.0959 2.8341
-3.8213 -11.0888 2.8338
-3.6920 -11.0820 2.8335
-3.5636 -11.0754 2.8332
-3.4363 -11.0691 2.8329
-3.3099 -11.0629 2.8326
-3.1844 -11.0570 2.8323
-3.0598 -11.0513 2.8320
-2.9361 -11.0457 2.8317
-2.8131 -11.0404 2.8314
-2.6909 -11.0353 2.8311
-2.5694 -11.0303 2.8308
-2.4486 -11.0256 2.8305
-2.3284 -11.0210 2.8302
-2.2089 -11.0166 2.8299
-0.9050 -4.7687 1.2253
-0.8538 -4.7675 1.2253
-0.8028 -4.7663 1.2253
-0.7521 -4.7652 1.2253
-0.7015 -4.7642 1.2253
-0.6511 -4.7632 1.2253
-0.6008 -4.7623 1.2253
-0.5507 -4.7615 1.2253
-0.5007 -4.7608 1.2253
-0.4509 -4.7601 1.2253
-0.4012 -4.7595 1.2253
-0.3515 -4.7590 1.2253
-0.3020 -4.7585 1.2253
-0.2525 -4.7581 1.2253
-0.2031 -4.7578 1.2253
-0.1537 -4.7575 1.2253
-0.1044 -4.7574 1.2253
-0.0551 -4.7573 1.2253
-0.0058 -4.7572 1.2253
0.0435 -4.7572 1.2253
0.0928 -4.7573 1.2253
0.1421 -4.7575 1.2253
0.1915 -4.7577 1.2253
0.2409 -4.7580 1.2253
0.2904 -4.7584 1.2253
0.3399 -4.7589 1.2253
0.3895 -4.7594 1.2253
0.4392 -4.7599 1.2253
0.4890 -4.7606 1.2253
0.5390 -4.7613 1.2253
0.5890 -4.7621 1.2253
0.6393 -4.7630 1.2253
0.6896 -4.7639 1.2253
0.7402 -4.7650 1.2253
0.7909 -4.7660 1.2253
0.8418 -4.7672 1.2253
0.8930 -4.7684 1.2253
2.1729 -10.9751 2.8194
2.2914 -10.9772 2.8192
2.4104 -10.9794 2.8189
2.5301 -10.9819 2.8186
2.6503 -10.9845 2.8183
2.7713 -10.9873 2.8180
2.8929 -10.9903 2.8177
3.0152 -10.9935 2.8174
3.1383 -10.9968 2.8171
3.2622 -11.0003 2.8168
3.3870 -11.0041 2.8165
3.5126 -11.0080 2.8162
3.6391 -11.0121 2.8159
3.7666 -11.0164 2.8156
3.8951 -11.0209 2.8153
4.0247 -11.0257 2.8150
4.1553 -11.0306 2.8147
4.2870 -11.0357 2.8144
4.4200 -11.0411 2.8141
4.5541 -11.0467 2.8137
4.6896 -11.0525 2.8134
4.8263 -11.0585 2.8131
4.9645 -11.0648 2.8128
5.1041 -11.0713 2.8124
5.2451 -11.0781 2.8121
5.3877 -11.0851 2.8117
5.5320 -11.0923 2.8114
5.6779 -11.0998 2.8111
5.8255 -11.1076 2.8107
5.9749 -11.1157 2.8103
6.1262 -11.1241 2.8100
6.2795 -11.1327 2.8096
6.4347 -11.1416 2.8092
6.5851 -11.1390 2.8059
6.7302 -11.1250 2.7996
6.8762 -11.1102 2.7930
7.0247 -11.0970 2.7867
7.1742 -11.0829 2.7802
7.3255 -11.0693 2.7737
7.4785 -11.0558 2.7671
7.6334 -11.0425 2.7605
7.7898 -11.0288 2.7537
7.9485 -11.0156 2.7470
8.1090 -11.0024 2.7401
8.2715 -10.9890 2.7331
8.4360 -10.9757 2.7261
8.6026 -10.9622 2.7189
8.7713 -10.9486 2.7116
8.9425 -10.9351 2.7041
9.1161 -10.9216 2.6966
9.2917 -10.9075 2.6889
9.4676 -10.8908 2.6803
9.6461 -10.8740 2.6717
9.8272 -10.8572 2.6629
10.0111 -10.8403 2.6540
10.1979 -10.8234 2.6449
10.3867 -10.8054 2.6355
10.5739 -10.7825 2.6247
10.7641 -10.7596 2.6138
10.9573 -10.7364 2.6027
11.1536 -10.7131 2.5914
11.3532 -10.6896 2.5799
11.5559 -10.6656 2.5682
7.5564 -6.8364 1.6422
7.1631 -6.3523 1.5221
6.9874 -6.0737 1.4517
6.8232 -5.8132 1.3857
6.7267 -5.6169 1.3352
6.6461 -5.4387 1.2892
-4.5574 -9.1797 2.8384
-4.4407 -9.1816 2.8384
-4.3250 -9.1835 2.8384
-4.2102 -9.1854 2.8384
-4.0964 -9.1872 2.8384
-3.9835 -9.1889 2.8384
-3.8715 -9.1906 2.8384
-3.7604 -9.1922 2.8384
-3.6501 -9.1938 2.8384
-3.5405 -9.1953 2.8384
-3.4317 -9.1968 2.8384
-3.3237 -9.1982 2.8384
-3.2163 -9.1996 2.8384
-3.1097 -9.2009 2.8384
-3.0036 -9.2021 2.8384
-2.8982 -9.2034 2.8384
-2.7934 -9.2045 2.8384
-2.6892 -9.2057 2.8384
-2.5855 -9.2066 2.8383
-2.4823 -9.2074 2.8383
-2.3796 -9.2082 2.8382
-2.2774 -9.2090 2.8381
-2.1755 -9.2094 2.8380
-0.8957 -3.9771 1.2255
-0.8521 -3.9774 1.2255
-0.8088 -3.9778 1.2255
-0.7655 -3.9781 1.2255
-0.7225 -3.9784 1.2255
-0.6795 -3.9787 1.2255
-0.6367 -3.9789 1.2255
-0.5941 -3.9792 1.2255
-0.5515 -3.9794 1.2255
-0.5090 -3.9796 1.2255
-0.4667 -3.9798 1.2255
-0.4244 -3.9800 1.2255
-0.3822 -3.9802 1.2255
-0.3401 -3.9803 1.2255
-0.2981 -3.9804 1.2255
-0.2561 -3.9805 1.2255
-0.2142 -3.9806 1.2255
-0.1723 -3.9807 1.2255
-0.1304 -3.9808 1.2255
-0.0885 -3.9808 1.2255
-0.0467 -3.9808 1.2255
-0.0049 -3.9809 1.2255
0.0369 -3.9808 1.2255
0.0787 -3.9808 1.2255
0.1206 -3.9808 1.2255
0.1624 -3.9807 1.2255
0.2043 -3.9807 1.2255
0.2462 -3.9806 1.2255
0.2882 -3.9805 1.2255
0.3303 -3.9803 1.2255
0.3724 -3.9802 1.2255
0.4145 -3.9800 1.2255
0.4568 -3.9799 1.2255
0.4991 -3.9797 1.2255
0.5415 -3.9795 1.2255
0.5841 -3.9792 1.2255
0.6267 -3.9790 1.2255
0.6695 -3.9787 1.2255
0.7124 -3.9785 1.2255
0.7554 -3.9782 1.2255
0.7986 -3.9779 1.2255
0.8420 -3.9775 1.2255
0.8855 -3.9772 1.2255
2.1402 -9.1603 2.8228
2.2409 -9.1579 2.8224
2.3420 -9.1556 2.8219
2.4436 -9.1531 2.8215
2.5456 -9.1506 2.8210
2.6481 -9.1481 2.8206
2.7511 -9.1455 2.8201
2.8546 -9.1429 2.8197
2.9587 -9.1403 2.8192
3.0634 -9.1375 2.8188
3.1687 -9.1348 2.8183
3.2746 -9.1320 2.8178
3.3811 -9.1291 2.8174
3.4884 -9.1262 2.8169
3.5963 -9.1232 2.8165
3.7050 -9.1201 2.8160
3.8145 -9.1170 2.8156
3.9248 -9.1143 2.8152
4.0363 -9.1117 2.8149
4.1485 -9.1091 2.8147
4.2616 -9.1064 2.8144
4.3757 -9.1036 2.8141
4.4908 -9.1008 2.8139
4.6067 -9.0979 2.8136
4.7239 -9.0949 2.8133
4.8421 -9.0919 2.8130
4.9614 -9.0888 2.8127
5.0819 -9.0856 2.8124
5.2035 -9.0824 2.8121
5.3264 -9.0791 2.8119
5.4506 -9.0757 2.8116
5.5761 -9.0721 2.8113
5.7030 -9.0686 2.8110
5.8313 -9.0649 2.8106
5.9610 -9.0612 2.8103
6.0923 -9.0574 2.8100
6.2252 -9.0534 2.8097
6.3596 -9.0495 2.8094
6.4958 -9.0453 2.8091
6.6231 -9.0267 2.8043
6.7535 -9.0103 2.8002
6.8857 -8.9943 2.7962
7.0188 -8.9772 2.7920
6.8153 -8.5365 2.6559
6.9454 -8.5204 2.6520
7.0764 -8.5033 2.6477
7.2083 -8.4852 2.6432
7.3417 -8.4667 2.6386
7.4732 -8.4440 2.6327
7.6088 -8.4239 2.6277
7.7460 -8.4033 2.6225
7.8806 -8.3780 2.6158
8.0181 -8.3535 2.6095
8.1592 -8.3307 2.6037
8.2956 -8.3009 2.5958
8.4361 -8.2731 2.5885
8.5813 -8.2478 2.5821
8.7153 -8.2097 2.5717
8.8631 -8.1825 2.5647
7.5586 -6.8390 2.1449
7.1621 -6.3508 1.9931
6.9850 -6.0699 1.9061
6.8194 -5.8072 1.8249
6.7241 -5.6110 1.7645
6.6428 -5.4315 1.7092
6.5648 -5.2592 1.6563
-3.9037 -7.7427 2.8384
-3.8061 -7.7499 2.8384
-3.7093 -7.7569 2.8384
-3.6131 -7.7638 2.8384
-3.5175 -7.7703 2.8384
-3.4225 -7.7768 2.8384
-3.3281 -7.7830 2.8384
-3.2343 -7.7890 2.8384
-3.1410 -7.7948 2.8384
-3.0483 -7.8004 2.8384
-2.9561 -7.8059 2.8384
-2.8643 -7.8112 2.8384
-2.7731 -7.8162 2.8384
-2.6823 -7.8212 2.8384
-2.5919 -7.8259 2.8384
-2.5020 -7.8305 2.8384
-2.4124 -7.8348 2.8384
-2.3233 -7.8391 2.8384
-2.2345 -7.8431 2.8384
-2.1461 -7.8470 2.8384
-0.9196 -3.5078 1.2682
-0.8800 -3.5078 1.2677
-0.8406 -3.5078 1.2671
-0.8013 -3.5078 1.2666
-0.7623 -3.5078 1.2661
-0.7234 -3.5078 1.2656
-0.6847 -3.5078 1.2652
-0.6461 -3.5078 1.2648
-0.6076 -3.5078 1.2644
-0.5693 -3.5078 1.2640
-0.5311 -3.5078 1.2636
-0.4930 -3.5078 1.2633
-0.4550 -3.5078 1.2630
-0.4171 -3.5078 1.2628
-0.3793 -3.5078 1.2625
-0.3416 -3.5078 1.2623
-0.3040 -3.5078 1.2621
-0.2664 -3.5078 1.2619
-0.2288 -3.5078 1.2618
-0.1914 -3.5078 1.2616
-0.1539 -3.5078 1.2615
-0.1165 -3.5078 1.2614
-0.0791 -3.5078 1.2614
-0.0417 -3.5078 1.2613
-0.0044 -3.5078 1.2613
0.0330 -3.5078 1.2613
0.0703 -3.5078 1.2614
0.1077 -3.5078 1.2614
0.1451 -3.5078 1.2615
0.1826 -3.5078 1.2616
0.2200 -3.5078 1.2617
0.2576 -3.5078 1.2619
0.2951 -3.5078 1.2620
0.3328 -3.5078 1.2622
0.3705 -3.5078 1.2625
0.4083 -3.5078 1.2627
0.4461 -3.5078 1.2630
0.4841 -3.5078 1.2633
0.5221 -3.5078 1.2636
0.5603 -3.5078 1.2639
0.5986 -3.5078 1.2643
0.6370 -3.5078 1.2647
0.6756 -3.5078 1.2651
0.7143 -3.5078 1.2655
0.7531 -3.5078 1.2660
0.7921 -3.5078 1.2665
0.8313 -3.5078 1.2670
0.8707 -3.5078 1.2675
0.9102 -3.5078 1.2681
2.1254 -7.8479 2.8384
2.2138 -7.8440 2.8384
2.3024 -7.8400 2.8384
2.3915 -7.8359 2.8384
2.4809 -7.8315 2.8384
2.5708 -7.8270 2.8384
2.6610 -7.8223 2.8384
2.7517 -7.8174 2.8384
2.8429 -7.8124 2.8384
2.9345 -7.8071 2.8384
3.0266 -7.8017 2.8384
3.1192 -7.7961 2.8384
3.2124 -7.7904 2.8384
3.3060 -7.7844 2.8384
3.4003 -7.7782 2.8384
3.4951 -7.7719 2.8384
3.5906 -7.7653 2.8384
3.6866 -7.7586 2.8384
3.7833 -7.7516 2.8384
3.8807 -7.7444 2.8384
3.9788 -7.7370 2.8384
4.0776 -7.7294 2.8384
4.1771 -7.7216 2.8384
4.2773 -7.7136 2.8384
4.3784 -7.7053 2.8384
4.4803 -7.6968 2.8384
4.5830 -7.6881 2.8384
4.6865 -7.6791 2.8384
4.7910 -7.6699 2.8384
4.8963 -7.6604 2.8384
5.0027 -7.6507 2.8384
5.1099 -7.6408 2.8384
5.2182 -7.6305 2.8384
5.3276 -7.6200 2.8384
5.4378 -7.6090 2.8383
5.5490 -7.5975 2.8382
5.6612 -7.5856 2.8380
5.4658 -7.1684 2.6860
5.5746 -7.1571 2.6860
5.6846 -7.1455 2.6860
5.7959 -7.1336 2.6860
5.9084 -7.1213 2.6860
6.0222 -7.1088 2.6860
6.1370 -7.0956 2.6858
6.2530 -7.0819 2.6856
6.3705 -7.0678 2.6854
6.4879 -7.0519 2.6847
6.6068 -7.0355 2.6838
6.7274 -7.0190 2.6831
6.8493 -7.0020 2.6823
6.9724 -6.9842 2.6813
7.0970 -6.9659 2.6804
7.2227 -6.9466 2.6791
7.3501 -6.9268 2.6779
7.4782 -6.9058 2.6763
7.5602 -6.8409 2.6579
7.1610 -6.3491 2.4732
6.9823 -6.0657 2.3691
6.8154 -5.8009 2.2719
6.7212 -5.6047 2.2013
6.6393 -5.4239 2.1365
6.5608 -5.2504 2.0744
6.4956 -5.0919 2.0180
-3.4116 -6.6612 2.8384
-3.3280 -6.6711 2.8384
-3.2448 -6.6808 2.8384
-3.1621 -6.6902 2.8384
-3.0798 -6.6993 2.8384
-2.9980 -6.7082 2.8384
-2.9165 -6.7168 2.8384
-2.8354 -6.7251 2.8384
-2.7548 -6.7332 2.8384
-2.6745 -6.7411 2.8384
-2.5945 -6.7486 2.8384
-2.5149 -6.7560 2.8384
-2.4356 -6.7630 2.8384
-2.3566 -6.7699 2.8384
-2.2780 -6.7765 2.8384
-2.1996 -6.7828 2.8384
-2.1215 -6.7890 2.8384
-2.0437 -6.7948 2.8384
-1.9662 -6.8005 2.8384
-1.8889 -6.8059 2.8384
-1.8118 -6.8111 2.8384
-0.8929 -3.5078 1.4608
-0.8529 -3.5078 1.4597
-0.8130 -3.5078 1.4588
-0.7734 -3.5079 1.4578
-0.7339 -3.5078 1.4570
-0.6946 -3.5079 1.4561
-0.6554 -3.5078 1.4554
-0.6164 -3.5078 1.4546
-0.5775 -3.5079 1.4539
-0.5388 -3.5078 1.4533
-0.5001 -3.5078 1.4527
-0.4616 -3.5078 1.4522
-0.4231 -3.5078 1.4517
-0.3848 -3.5078 1.4512
-0.3465 -3.5078 1.4508
-0.3083 -3.5078 1.4504
-0.2702 -3.5078 1.4501
-0.2321 -3.5078 1.4498
-0.1941 -3.5078 1.4495
-0.1561 -3.5078 1.4493
-0.1182 -3.5078 1.4492
-0.0802 -3.5078 1.4491
-0.0423 -3.5078 1.4490
-0.0044 -3.5078 1.4490
0.0334 -3.5078 1.4490
0.0714 -3.5078 1.4491
0.1093 -3.5078 1.4492
0.1472 -3.5078 1.4493
0.1852 -3.5078 1.4495
0.2232 -3.5078 1.4497
0.2613 -3.5078 1.4500
0.2994 -3.5078 1.4503
0.3375 -3.5078 1.4507
0.3758 -3.5078 1.4511
0.4141 -3.5078 1.4515
0.4525 -3.5078 1.4520
0.4911 -3.5078 1.4526
0.5297 -3.5078 1.4532
0.5684 -3.5078 1.4538
0.6073 -3.5078 1.4545
0.6463 -3.5078 1.4552
0.6854 -3.5078 1.4560
0.7247 -3.5078 1.4568
0.7641 -3.5078 1.4576
0.8037 -3.5078 1.4585
0.8435 -3.5078 1.4595
0.8835 -3.5078 1.4605
1.7938 -6.8123 2.8384
1.8708 -6.8072 2.8384
1.9480 -6.8018 2.8384
2.0255 -6.7962 2.8384
2.1032 -6.7903 2.8384
2.1812 -6.7843 2.8384
2.2596 -6.7780 2.8384
2.3381 -6.7714 2.8384
2.4170 -6.7647 2.8384
2.4962 -6.7576 2.8384
2.5758 -6.7504 2.8384
2.6557 -6.7429 2.8384
2.7359 -6.7351 2.8384
2.8165 -6.7271 2.8384
2.8975 -6.7188 2.8384
2.9788 -6.7102 2.8384
3.0606 -6.7014 2.8384
3.1428 -6.6924 2.8384
3.2254 -6.6830 2.8384
3.3084 -6.6734 2.8384
3.3920 -6.6635 2.8384
3.4759 -6.6534 2.8384
3.5604 -6.6429 2.8384
3.6454 -6.6322 2.8384
3.7309 -6.6211 2.8384
3.8169 -6.6098 2.8384
3.9035 -6.5981 2.8384
3.9906 -6.5862 2.8384
4.0784 -6.5739 2.8384
4.1667 -6.5613 2.8384
4.2556 -6.5484 2.8384
4.3452 -6.5352 2.8384
4.4354 -6.5216 2.8384
4.5263 -6.5077 2.8384
4.6179 -6.4934 2.8384
4.7102 -6.4788 2.8384
4.8032 -6.4638 2.8384
4.8970 -6.4485 2.8384
4.9916 -6.4327 2.8384
4.9819 -6.2841 2.7798
4.9319 -6.0899 2.7008
4.9966 -6.0405 2.6860
5.0893 -6.0241 2.6860
5.1827 -6.0074 2.6860
5.2771 -5.9902 2.6860
5.3723 -5.9726 2.6860
5.4684 -5.9547 2.6860
5.5655 -5.9362 2.6860
5.6636 -5.9174 2.6860
5.7626 -5.8981 2.6860
5.8627 -5.8783 2.6860
5.9639 -5.8581 2.6860
6.0661 -5.8374 2.6860
6.1694 -5.8162 2.6860
6.2739 -5.7945 2.6860
6.3796 -5.7723 2.6860
6.4865 -5.7496 2.6860
6.5946 -5.7263 2.6860
6.7041 -5.7025 2.6860
6.7179 -5.5973 2.6478
6.6354 -5.4152 2.5729
6.5563 -5.2405 2.5012
6.4940 -5.0835 2.4377
6.4704 -4.9601 2.3899
-3.0264 -5.8144 2.8384
-2.9533 -5.8258 2.8384
-2.8806 -5.8369 2.8384
-2.8082 -5.8476 2.8384
-2.7361 -5.8580 2.8384
-2.6642 -5.8682 2.8384
-2.5927 -5.8781 2.8384
-2.5214 -5.8876 2.8384
-2.4505 -5.8969 2.8384
-2.3797 -5.9059 2.8384
-2.3092 -5.9146 2.8384
-2.2390 -5.9230 2.8384
-2.1690 -5.9311 2.8384
-2.0992 -5.9390 2.8384
-2.0297 -5.9466 2.8384
-1.9603 -5.9539 2.8384
-1.8912 -5.9610 2.8384
-1.8222 -5.9678 2.8384
-1.7535 -5.9743 2.8384
-1.6849 -5.9805 2.8384
-1.6165 -5.9866 2.8384
-0.9063 -3.5079 1.6616
-0.8657 -3.5079 1.6601
-0.8252 -3.5079 1.6586
-0.7850 -3.5079 1.6572
-0.7449 -3.5079 1.6559
-0.7049 -3.5079 1.6547
-0.6652 -3.5079 1.6535
-0.6256 -3.5079 1.6524
-0.5861 -3.5079 1.6514
-0.5467 -3.5079 1.6505
-0.5075 -3.5079 1.6496
-0.4684 -3.5079 1.6488
-0.4294 -3.5079 1.6480
-0.3904 -3.5079 1.6473
-0.3516 -3.5079 1.6467
-0.3128 -3.5079 1.6461
-0.2742 -3.5079 1.6456
-0.2355 -3.5079 1.6452
-0.1969 -3.5079 1.6448
-0.1584 -3.5079 1.6445
-0.1199 -3.5079 1.6443
-0.0814 -3.5079 1.6441
-0.0430 -3.5079 1.6440
-0.0045 -3.5079 1.6440
0.0339 -3.5079 1.6440
0.0724 -3.5079 1.6441
0.1109 -3.5079 1.6443
0.1494 -3.5079 1.6445
0.1879 -3.5079 1.6448
0.2265 -3.5079 1.6451
0.2651 -3.5079 1.6455
0.3038 -3.5079 1.6460
0.3425 -3.5079 1.6465
0.3813 -3.5079 1.6472
0.4202 -3.5079 1.6478
0.4592 -3.5079 1.6486
0.4983 -3.5079 1.6494
0.5375 -3.5079 1.6502
0.5768 -3.5079 1.6512
0.6163 -3.5079 1.6522
0.6559 -3.5079 1.6533
0.6956 -3.5079 1.6544
0.7355 -3.5079 1.6556
0.7755 -3.5079 1.6569
0.8158 -3.5079 1.6583
0.8562 -3.5079 1.6597
0.8968 -3.5079 1.6612
1.6005 -5.9879 2.8384
1.6688 -5.9820 2.8384
1.7374 -5.9758 2.8384
1.8061 -5.9693 2.8384
1.8750 -5.9626 2.8384
1.9441 -5.9556 2.8384
2.0134 -5.9483 2.8384
2.0829 -5.9408 2.8384
2.1526 -5.9330 2.8384
2.2226 -5.9249 2.8384
2.2927 -5.9166 2.8384
2.3632 -5.9079 2.8384
2.4338 -5.8990 2.8384
2.5048 -5.8898 2.8384
2.5760 -5.8803 2.8384
2.6474 -5.8705 2.8384
2.7192 -5.8605 2.8384
2.7912 -5.8501 2.8384
2.8636 -5.8394 2.8384
2.9362 -5.8284 2.8384
3.0092 -5.8171 2.8384
3.0825 -5.8055 2.8384
3.1562 -5.7936 2.8384
3.2302 -5.7814 2.8384
3.3046 -5.7688 2.8384
3.3793 -5.7559 2.8384
3.4543 -5.7426 2.8384
3.5299 -5.7291 2.8384
3.6058 -5.7152 2.8384
3.6822 -5.7009 2.8384
3.7589 -5.6863 2.8384
3.8361 -5.6713 2.8384
3.9137 -5.6560 2.8384
3.9918 -5.6403 2.8384
4.0704 -5.6242 2.8384
4.1495 -5.6077 2.8384
4.2290 -5.5909 2.8384
4.3091 -5.5736 2.8384
4.3897 -5.5560 2.8384
4.4708 -5.5379 2.8384
4.5525 -5.5195 2.8384
4.6347 -5.5006 2.8384
4.7176 -5.4813 2.8384
4.7568 -5.4112 2.8122
4.7519 -5.2930 2.7610
4.7471 -5.1778 2.7112
4.7836 -5.1097 2.6860
4.8650 -5.0892 2.6860
4.9470 -5.0684 2.6860
5.0296 -5.0470 2.6860
5.1130 -5.0252 2.6860
5.1970 -5.0029 2.6860
5.2817 -4.9801 2.6860
5.3672 -4.9569 2.6860
5.4534 -4.9331 2.6860
5.5404 -4.9087 2.6860
5.6282 -4.8839 2.6860
5.7168 -4.8585 2.6860
5.8062 -4.8326 2.6860
5.8965 -4.8061 2.6860
5.9876 -4.7790 2.6860
6.0796 -4.7513 2.6860
6.1726 -4.7230 2.6860
6.2665 -4.6942 2.6860
-2.7154 -5.1308 2.8384
-2.6507 -5.1429 2.8384
-2.5862 -5.1546 2.8384
-2.5219 -5.1660 2.8384
-2.4578 -5.1771 2.8384
-2.3939 -5.1879 2.8384
-2.3303 -5.1983 2.8384
-2.2668 -5.2085 2.8384
-2.2036 -5.2183 2.8384
-2.1405 -5.2279 2.8384
-2.0776 -5.2371 2.8384
-2.0148 -5.2461 2.8384
-1.9523 -5.2548 2.8384
-1.8899 -5.2631 2.8384
-1.8276 -5.2712 2.8384
-1.7655 -5.2791 2.8384
-1.7036 -5.2866 2.8384
-1.6418 -5.2938 2.8384
-1.5801 -5.3008 2.8384
-1.5186 -5.3075 2.8384
-1.4572 -5.3139 2.8384
-0.9204 -3.5079 1.8716
-0.8791 -3.5079 1.8695
-0.8380 -3.5079 1.8675
-0.7970 -3.5079 1.8657
-0.7563 -3.5079 1.8639
-0.7158 -3.5079 1.8622
-0.6754 -3.5079 1.8607
-0.6351 -3.5079 1.8592
-0.5950 -3.5079 1.8578
-0.5551 -3.5079 1.8565
-0.5152 -3.5079 1.8553
-0.4755 -3.5079 1.8542
-0.4359 -3.5079 1.8531
-0.3964 -3.5079 1.8522
-0.3569 -3.5079 1.8514
-0.3176 -3.5079 1.8506
-0.2783 -3.5079 1.8499
-0.2391 -3.5079 1.8494
-0.1999 -3.5079 1.8489
-0.1608 -3.5079 1.8485
-0.1217 -3.5079 1.8482
-0.0827 -3.5079 1.8479
-0.0436 -3.5079 1.8478
-0.0046 -3.5079 1.8477
0.0345 -3.5079 1.8478
0.0735 -3.5079 1.8479
0.1125 -3.5079 1.8481
0.1516 -3.5079 1.8484
0.1907 -3.5079 1.8488
0.2299 -3.5079 1.8492
0.2691 -3.5079 1.8498
0.3084 -3.5079 1.8504
0.3477 -3.5079 1.8512
0.3871 -3.5079 1.8520
0.4266 -3.5079 1.8529
0.4662 -3.5079 1.8539
0.5059 -3.5079 1.8550
0.5457 -3.5079 1.8562
0.5856 -3.5079 1.8575
0.6257 -3.5079 1.8588
0.6659 -3.5079 1.8603
0.7063 -3.5079 1.8619
0.7468 -3.5079 1.8635
0.7875 -3.5079 1.8652
0.8283 -3.5079 1.8671
0.8694 -3.5079 1.8690
0.9107 -3.5079 1.8711
1.4428 -5.3154 2.8384
1.5041 -5.3090 2.8384
1.5657 -5.3024 2.8384
1.6273 -5.2955 2.8384
1.6891 -5.2883 2.8384
1.7510 -5.2808 2.8384
1.8131 -5.2731 2.8384
1.8753 -5.2651 2.8384
1.9376 -5.2568 2.8384
2.0001 -5.2481 2.8384
2.0628 -5.2393 2.8384
2.1257 -5.2301 2.8384
2.1887 -5.2206 2.8384
2.2520 -5.2108 2.8384
2.3154 -5.2007 2.8384
2.3790 -5.1903 2.8384
2.4428 -5.1796 2.8384
2.5068 -5.1686 2.8384
2.5711 -5.1573 2.8384
2.6355 -5.1457 2.8384
2.7002 -5.1337 2.8384
2.7651 -5.1214 2.8384
2.8303 -5.1088 2.8384
2.8957 -5.0959 2.8384
2.9613 -5.0826 2.8384
3.0272 -5.0690 2.8384
3.0934 -5.0550 2.8384
3.1599 -5.0407 2.8384
3.2266 -5.0261 2.8384
3.2937 -5.0111 2.8384
3.3610 -4.9957 2.8384
3.4286 -4.9800 2.8384
3.4966 -4.9639 2.8384
3.5648 -4.9474 2.8384
3.6334 -4.9305 2.8384
3.7024 -4.9133 2.8384
3.7716 -4.8956 2.8384
3.8413 -4.8776 2.8384
3.9113 -4.8592 2.8384
3.9816 -4.8403 2.8384
4.0524 -4.8211 2.8384
4.1235 -4.8014 2.8384
4.1950 -4.7813 2.8384
4.2669 -4.7608 2.8384
4.3393 -4.7399 2.8384
4.4121 -4.7184 2.8384
4.4853 -4.6965 2.8384
4.5589 -4.6742 2.8384
4.6330 -4.6514 2.8384
4.7070 -4.6275 2.8380
4.7146 -4.5389 2.7980
4.7221 -4.4518 2.7589
4.7294 -4.3663 2.7205
4.7460 -4.2906 2.6884
4.8148 -4.2625 2.6860
4.8965 -4.2447 2.6905
4.9622 -4.2122 2.6860
5.0367 -4.1863 2.6860
5.1118 -4.1598 2.6860
5.1874 -4.1328 2.6860
5.2636 -4.1053 2.6860
5.3404 -4.0772 2.6860
5.4177 -4.0485 2.6860
5.4957 -4.0193 2.6860
-2.4581 -4.5652 2.8384
-2.4001 -4.5775 2.8384
-2.3422 -4.5894 2.8384
-2.2846 -4.6010 2.8384
-2.2270 -4.6124 2.8384
-2.1697 -4.6233 2.8384
-2.1124 -4.6340 2.8384
-2.0554 -4.6444 2.8384
-1.9984 -4.6545 2.8384
-1.9416 -4.6643 2.8384
-1.8849 -4.6738 2.8384
-1.8283 -4.6829 2.8384
-1.7719 -4.6918 2.8384
-1.7156 -4.7004 2.8384
-1.6593 -4.7087 2.8384
-1.6032 -4.7167 2.8384
-1.5472 -4.7245 2.8384
-1.4913 -4.7319 2.8384
-1.4355 -4.7390 2.8384
-1.3798 -4.7459 2.8384
-1.3242 -4.7525 2.8384
-1.2686 -4.7588 2.8384
-0.8932 -3.5080 2.0897
-0.8514 -3.5080 2.0871
-0.8098 -3.5080 2.0848
-0.7683 -3.5080 2.0825
-0.7271 -3.5080 2.0803
-0.6861 -3.5080 2.0783
-0.6452 -3.5080 2.0764
-0.6044 -3.5080 2.0746
-0.5638 -3.5080 2.0730
-0.5233 -3.5080 2.0714
-0.4830 -3.5080 2.0700
-0.4427 -3.5080 2.0687
-0.4026 -3.5080 2.0675
-0.3625 -3.5080 2.0664
-0.3225 -3.5080 2.0654
-0.2827 -3.5080 2.0646
-0.2428 -3.5080 2.0638
-0.2030 -3.5080 2.0632
-0.1633 -3.5080 2.0627
-0.1236 -3.5080 2.0623
-0.0839 -3.5080 2.0620
-0.0443 -3.5080 2.0618
-0.0047 -3.5080 2.0617
0.0350 -3.5080 2.0618
0.0746 -3.5080 2.0619
0.1143 -3.5080 2.0622
0.1540 -3.5079 2.0626
0.1937 -3.5080 2.0631
0.2335 -3.5080 2.0637
0.2733 -3.5080 2.0644
0.3132 -3.5080 2.0652
0.3531 -3.5079 2.0661
0.3932 -3.5079 2.0672
0.4333 -3.5079 2.0684
0.4735 -3.5079 2.0697
0.5138 -3.5079 2.0711
0.5543 -3.5080 2.0726
0.5949 -3.5080 2.0742
0.6356 -3.5080 2.0760
0.6764 -3.5079 2.0778
0.7175 -3.5080 2.0798
0.7587 -3.5080 2.0820
0.8000 -3.5080 2.0842
0.8416 -3.5079 2.0866
0.8833 -3.5080 2.0891
1.0332 -3.9169 2.3355
1.3111 -4.7540 2.8384
1.3667 -4.7475 2.8384
1.4224 -4.7407 2.8384
1.4782 -4.7336 2.8384
1.5341 -4.7262 2.8384
1.5901 -4.7186 2.8384
1.6462 -4.7106 2.8384
1.7024 -4.7024 2.8384
1.7587 -4.6939 2.8384
1.8151 -4.6851 2.8384
1.8716 -4.6760 2.8384
1.9283 -4.6665 2.8384
1.9851 -4.6568 2.8384
2.0420 -4.6468 2.8384
2.0990 -4.6365 2.8384
2.1562 -4.6259 2.8384
2.2136 -4.6150 2.8384
2.2711 -4.6037 2.8384
2.3287 -4.5922 2.8384
2.3865 -4.5803 2.8384
2.4444 -4.5681 2.8384
2.5026 -4.5556 2.8384
2.5608 -4.5427 2.8384
2.6193 -4.5295 2.8384
2.6779 -4.5160 2.8384
2.7368 -4.5022 2.8384
2.7958 -4.4880 2.8384
2.8550 -4.4735 2.8384
2.9144 -4.4586 2.8384
2.9740 -4.4434 2.8384
3.0338 -4.4278 2.8384
3.0938 -4.4118 2.8384
3.1541 -4.3955 2.8384
3.2145 -4.3789 2.8384
3.2752 -4.3618 2.8384
3.3361 -4.3444 2.8384
3.3973 -4.3266 2.8384
3.4587 -4.3084 2.8384
3.5204 -4.2898 2.8384
3.5823 -4.2709 2.8384
3.6445 -4.2515 2.8384
3.7069 -4.2317 2.8384
3.7696 -4.2115 2.8384
3.8326 -4.1909 2.8384
3.8959 -4.1699 2.8384
3.9594 -4.1484 2.8384
4.0233 -4.1265 2.8384
4.0874 -4.1042 2.8384
4.1519 -4.0814 2.8384
4.2167 -4.0581 2.8384
4.2818 -4.0344 2.8384
4.3472 -4.0103 2.8384
4.4130 -3.9856 2.8384
4.4791 -3.9605 2.8384
4.5456 -3.9349 2.8384
4.6124 -3.9088 2.8384
4.6796 -3.8822 2.8384
4.7128 -3.8271 2.8178
4.7196 -3.7515 2.7821
4.7263 -3.6770 2.7471
4.7328 -3.6035 2.7127
4.7517 -3.5404 2.6860
4.8175 -3.5121 2.6860
4.8837 -3.4834 2.6860
-2.2407 -4.0874 2.8384
-2.1883 -4.0997 2.8384
-2.1360 -4.1116 2.8384
-2.0839 -4.1232 2.8384
-2.0318 -4.1345 2.8384
-1.9798 -4.1455 2.8384
-1.9280 -4.1562 2.8384
-1.8762 -4.1666 2.8384
-1.8246 -4.1767 2.8384
-1.7730 -4.1865 2.8384
-1.7215 -4.1960 2.8384
-1.6701 -4.2052 2.8384
-1.6188 -4.2141 2.8384
-1.5676 -4.2227 2.8384
-1.5164 -4.2310 2.8384
-1.4654 -4.2390 2.8384
-1.4144 -4.2468 2.8384
-1.3634 -4.2542 2.8384
-1.3126 -4.2614 2.8384
-1.2618 -4.2683 2.8384
-1.2111 -4.2750 2.8384
-1.0390 -3.8333 2.5414
-0.9080 -3.5080 2.3224
-0.8655 -3.5080 2.3193
-0.8232 -3.5080 2.3163
-0.7811 -3.5080 2.3135
-0.7391 -3.5080 2.3108
-0.6974 -3.5080 2.3083
-0.6558 -3.5080 2.3060
-0.6143 -3.5080 2.3038
-0.5731 -3.5080 2.3017
-0.5319 -3.5080 2.2998
-0.4909 -3.5080 2.2980
-0.4500 -3.5080 2.2964
-0.4091 -3.5080 2.2949
-0.3684 -3.5080 2.2935
-0.3278 -3.5080 2.2923
-0.2872 -3.5080 2.2913
-0.2468 -3.5080 2.2904
-0.2063 -3.5080 2.2896
-0.1660 -3.5080 2.2889
-0.1256 -3.5080 2.2884
-0.0853 -3.5080 2.2881
-0.0450 -3.5080 2.2878
-0.0047 -3.5080 2.2878
0.0356 -3.5080 2.2878
0.0758 -3.5080 2.2880
0.1162 -3.5080 2.2883
0.1565 -3.5080 2.2888
0.1969 -3.5080 2.2894
0.2373 -3.5080 2.2902
0.2777 -3.5080 2.2910
0.3183 -3.5080 2.2921
0.3589 -3.5080 2.2932
0.3996 -3.5080 2.2946
0.4404 -3.5080 2.2960
0.4813 -3.5080 2.2976
0.5223 -3.5080 2.2993
0.5634 -3.5080 2.3012
0.6046 -3.5080 2.3033
0.6460 -3.5080 2.3054
0.6876 -3.5080 2.3078
0.7293 -3.5080 2.3102
0.7712 -3.5080 2.3129
0.8133 -3.5080 2.3156
0.8556 -3.5080 2.3186
0.8980 -3.5080 2.3217
1.0130 -3.7776 2.5036
1.1992 -4.2765 2.8384
1.2499 -4.2699 2.8384
1.3006 -4.2631 2.8384
1.3515 -4.2560 2.8384
1.4024 -4.2486 2.8384
1.4534 -4.2409 2.8384
1.5044 -4.2329 2.8384
1.5556 -4.2247 2.8384
1.6068 -4.2161 2.8384
1.6581 -4.2073 2.8384
1.7094 -4.1982 2.8384
1.7609 -4.1888 2.8384
1.8124 -4.1790 2.8384
1.8641 -4.1690 2.8384
1.9158 -4.1587 2.8384
1.9677 -4.1481 2.8384
2.0196 -4.1372 2.8384
2.0716 -4.1259 2.8384
2.1238 -4.1144 2.8384
2.1760 -4.1025 2.8384
2.2284 -4.0903 2.8384
2.2809 -4.0778 2.8384
2.3335 -4.0650 2.8384
2.3862 -4.0519 2.8384
2.4391 -4.0385 2.8384
2.4920 -4.0247 2.8384
2.5451 -4.0105 2.8384
2.5984 -3.9961 2.8384
2.6517 -3.9813 2.8384
2.7053 -3.9661 2.8384
2.7589 -3.9507 2.8384
2.8127 -3.9349 2.8384
2.8667 -3.9187 2.8384
2.9208 -3.9021 2.8384
2.9750 -3.8853 2.8384
3.0294 -3.8680 2.8384
3.0840 -3.8504 2.8384
3.1388 -3.8324 2.8384
3.1937 -3.8140 2.8384
3.2488 -3.7953 2.8384
3.3041 -3.7761 2.8384
3.3595 -3.7566 2.8384
3.4151 -3.7367 2.8384
3.4710 -3.7164 2.8384
3.5270 -3.6957 2.8384
3.5832 -3.6746 2.8384
3.6396 -3.6530 2.8384
3.6962 -3.6311 2.8384
3.7530 -3.6087 2.8384
3.8100 -3.5860 2.8384
3.8672 -3.5627 2.8384
3.9247 -3.5391 2.8384
3.9824 -3.5150 2.8384
4.0403 -3.4904 2.8384
4.0984 -3.4654 2.8384
4.1568 -3.4399 2.8384
4.2154 -3.4140 2.8384
4.2743 -3.3876 2.8384
4.3334 -3.3607 2.8384
4.3927 -3.3333 2.8384
4.4523 -3.3054 2.8384
4.5122 -3.2770 2.8384
4.5724 -3.2481 2.8384
4.6328 -3.2187 2.8384
-2.0540 -3.6769 2.8384
-2.0063 -3.6890 2.8384
-1.9587 -3.7007 2.8384
-1.9112 -3.7122 2.8384
-1.8638 -3.7233 2.8384
-1.8164 -3.7342 2.8384
-1.7691 -3.7447 2.8384
-1.7219 -3.7550 2.8384
-1.6747 -3.7650 2.8384
-1.6276 -3.7746 2.8384
-1.5806 -3.7840 2.8384
-1.5336 -3.7931 2.8384
-1.4867 -3.8019 2.8384
-1.4399 -3.8104 2.8384
-1.3931 -3.8186 2.8384
-1.3463 -3.8266 2.8384
-1.2996 -3.8342 2.8384
-1.2529 -3.8416 2.8384
-1.2063 -3.8487 2.8384
-1.1598 -3.8556 2.8384
-1.1133 -3.8621 2.8384
-1.0668 -3.8684 2.8384
-1.0204 -3.8744 2.8384
-0.8806 -3.5081 2.5662
-0.8375 -3.5081 2.5626
-0.7946 -3.5081 2.5592
-0.7519 -3.5081 2.5560
-0.7094 -3.5081 2.5529
-0.6671 -3.5081 2.5500
-0.6249 -3.5080 2.5474
-0.5829 -3.5081 2.5449
-0.5410 -3.5081 2.5425
-0.4993 -3.5080 2.5404
-0.4576 -3.5080 2.5384
-0.4161 -3.5080 2.5366
-0.3747 -3.5080 2.5350
-0.3334 -3.5080 2.5335
-0.2921 -3.5080 2.5322
-0.2510 -3.5080 2.5311
-0.2098 -3.5080 2.5302
-0.1688 -3.5080 2.5294
-0.1277 -3.5080 2.5288
-0.0867 -3.5080 2.5283
-0.0458 -3.5080 2.5281
-0.0048 -3.5080 2.5280
0.0362 -3.5080 2.5280
0.0771 -3.5080 2.5283
0.1181 -3.5080 2.5287
0.1591 -3.5080 2.5292
0.2002 -3.5080 2.5300
0.2413 -3.5080 2.5309
0.2825 -3.5080 2.5319
0.3237 -3.5080 2.5332
0.3650 -3.5080 2.5346
0.4064 -3.5080 2.5362
0.4479 -3.5080 2.5380
0.4895 -3.5080 2.5399
0.5312 -3.5080 2.5420
0.5730 -3.5080 2.5443
0.6150 -3.5080 2.5467
0.6571 -3.5080 2.5494
0.6994 -3.5080 2.5522
0.7419 -3.5080 2.5552
0.7845 -3.5080 2.5584
0.8274 -3.5080 2.5618
0.8704 -3.5080 2.5653
0.9137 -3.5080 2.5691
1.0559 -3.8698 2.8384
1.1024 -3.8636 2.8384
1.1489 -3.8571 2.8384
1.1954 -3.8504 2.8384
1.2420 -3.8433 2.8384
1.2886 -3.8360 2.8384
1.3353 -3.8284 2.8384
1.3821 -3.8205 2.8384
1.4289 -3.8124 2.8384
1.4757 -3.8039 2.8384
1.5226 -3.7952 2.8384
1.5696 -3.7862 2.8384
1.6166 -3.7769 2.8384
1.6637 -3.7673 2.8384
1.7108 -3.7574 2.8384
1.7580 -3.7472 2.8384
1.8053 -3.7367 2.8384
1.8527 -3.7259 2.8384
1.9001 -3.7148 2.8384
1.9476 -3.7035 2.8384
1.9951 -3.6918 2.8384
2.0428 -3.6798 2.8384
2.0905 -3.6675 2.8384
2.1383 -3.6549 2.8384
2.1862 -3.6420 2.8384
2.2341 -3.6287 2.8384
2.2822 -3.6152 2.8384
2.3303 -3.6013 2.8384
2.3785 -3.5871 2.8384
2.4268 -3.5726 2.8384
2.4753 -3.5577 2.8384
2.5238 -3.5425 2.8384
2.5724 -3.5270 2.8384
2.6211 -3.5112 2.8384
2.6699 -3.4950 2.8384
2.7188 -3.4785 2.8384
2.7678 -3.4616 2.8384
2.8169 -3.4443 2.8384
2.8661 -3.4268 2.8384
2.9155 -3.4088 2.8384
2.9650 -3.3905 2.8384
3.0145 -3.3718 2.8384
3.0642 -3.3528 2.8384
3.1140 -3.3334 2.8384
3.1640 -3.3136 2.8384
3.2140 -3.2934 2.8384
3.2642 -3.2729 2.8384
3.3145 -3.2520 2.8384
3.3650 -3.2307 2.8384
3.4155 -3.2089 2.8384
3.4663 -3.1868 2.8384
3.5171 -3.1643 2.8384
3.5681 -3.1414 2.8384
3.6192 -3.1181 2.8384
3.6705 -3.0943 2.8384
3.7219 -3.0701 2.8384
3.7735 -3.0455 2.8384
3.8252 -3.0204 2.8384
3.8771 -2.9950 2.8384
3.9292 -2.9690 2.8384
3.9813 -2.9427 2.8384
4.0337 -2.9158 2.8384
4.0862 -2.8885 2.8384
4.1389 -2.8608 2.8384
4.1917 -2.8325 2.8384
-1.8911 -3.3190 2.8384
-1.8475 -3.3308 2.8384
-1.8040 -3.3422 2.8384
-1.7605 -3.3534 2.8384
-1.7171 -3.3643 2.8384
-1.6737 -3.3749 2.8384
-1.6303 -3.3852 2.8384
-1.5870 -3.3953 2.8384
-1.5438 -3.4050 2.8384
-1.5005 -3.4145 2.8384
-1.4574 -3.4236 2.8384
-1.4142 -3.4326 2.8384
-1.3711 -3.4412 2.8384
-1.3281 -3.4495 2.8384
-1.2850 -3.4576 2.8384
-1.2420 -3.4653 2.8384
-1.1991 -3.4729 2.8384
-1.1561 -3.4801 2.8384
-1.1132 -3.4871 2.8384
-1.0704 -3.4938 2.8384
-1.0275 -3.5002 2.8384
-0.9847 -3.5064 2.8384
-0.9419 -3.5122 2.8384
-0.8992 -3.5179 2.8384
-0.8564 -3.5232 2.8384
-0.8137 -3.5283 2.8384
-0.7710 -3.5331 2.8384
-0.7284 -3.5377 2.8384
-0.6857 -3.5420 2.8384
-0.6431 -3.5461 2.8384
-0.6005 -3.5498 2.8384
-0.5579 -3.5533 2.8384
-0.5153 -3.5566 2.8384
-0.4727 -3.5596 2.8384
-0.4301 -3.5624 2.8384
-0.3876 -3.5648 2.8384
-0.3450 -3.5670 2.8384
-0.3025 -3.5690 2.8384
-0.2600 -3.5707 2.8384
-0.2175 -3.5721 2.8384
-0.1750 -3.5733 2.8384
-0.1325 -3.5743 2.8384
-0.0900 -3.5749 2.8384
-0.0475 -3.5754 2.8384
-0.0050 -3.5755 2.8384
0.0375 -3.5754 2.8384
0.0800 -3.5751 2.8384
0.1225 -3.5744 2.8384
0.1650 -3.5736 2.8384
0.2075 -3.5725 2.8384
0.2500 -3.5711 2.8384
0.2925 -3.5694 2.8384
0.3351 -3.5675 2.8384
0.3776 -3.5654 2.8384
0.4201 -3.5629 2.8384
0.4627 -3.5603 2.8384
0.5053 -3.5573 2.8384
0.5479 -3.5541 2.8384
0.5905 -3.5507 2.8384
0.6331 -3.5470 2.8384
0.6757 -3.5430 2.8384
0.7183 -3.5387 2.8384
0.7610 -3.5343 2.8384
0.8037 -3.5295 2.8384
0.8464 -3.5244 2.8384
0.8891 -3.5191 2.8384
0.9319 -3.5136 2.8384
0.9747 -3.5077 2.8384
1.0175 -3.5016 2.8384
1.1890 -3.4746 2.8384
1.0603 -3.4953 2.8384
1.2320 -3.4672 2.8384
1.1032 -3.4887 2.8384
1.2749 -3.4594 2.8384
1.1461 -3.4818 2.8384
1.3180 -3.4514 2.8384
1.3610 -3.4431 2.8384
1.5336 -3.4072 2.8384
1.4041 -3.4346 2.8384
1.5769 -3.3976 2.8384
1.4472 -3.4257 2.8384
1.6202 -3.3876 2.8384
1.4904 -3.4167 2.8384
1.6635 -3.3774 2.8384
1.7069 -3.3668 2.8384
1.8809 -3.3217 2.8384
1.7503 -3.3560 2.8384
1.9245 -3.3097 2.8384
1.7938 -3.3449 2.8384
1.9682 -3.2974 2.8384
1.8373 -3.3335 2.8384
2.0119 -3.2849 2.8384
2.0557 -3.2719 2.8384
2.2313 -3.2172 2.8384
2.0995 -3.2587 2.8384
2.2754 -3.2028 2.8384
2.1434 -3.2452 2.8384
2.3195 -3.1880 2.8384
2.1873 -3.2314 2.8384
2.3637 -3.1729 2.8384
2.4079 -3.1575 2.8384
2.5855 -3.0926 2.8384
2.4522 -3.1418 2.8384
2.6301 -3.0755 2.8384
2.4966 -3.1257 2.8384
2.6748 -3.0582 2.8384
2.5410 -3.1093 2.8384
2.7195 -3.0404 2.8384
2.7643 -3.0223 2.8384
2.9441 -2.9465 2.8384
2.8091 -3.0039 2.8384
2.9893 -2.9267 2.8384
2.8540 -2.9851 2.8384
3.0345 -2.9065 2.8384
2.8990 -2.9660 2.8384
3.0798 -2.8859 2.8384
3.1252 -2.8650 2.8384
3.3076 -2.7774 2.8384
3.1707 -2.8436 2.8384
3.3534 -2.7546 2.8384
3.2162 -2.8219 2.8384
3.3993 -2.7313 2.8384
3.2619 -2.7999 2.8384
3.4453 -2.7077 2.8384
3.4914 -2.6837 2.8384
3.5375 -2.6592 2.8384
3.5838 -2.6344 2.8384
3.6301 -2.6091 2.8384
3.6765 -2.5834 2.8384
3.7230 -2.5573 2.8384
3.7697 -2.5308 2.8384
3.8164 -2.5039 2.8384
-1.7472 -3.0028 2.8384
-1.7072 -3.0142 2.8384
-1.6672 -3.0253 2.8384
-1.6273 -3.0362 2.8384
-1.5873 -3.0468 2.8384
-1.5474 -3.0571 2.8384
-1.5075 -3.0671 2.8384
-1.4677 -3.0769 2.8384
-1.4278 -3.0864 2.8384
-1.3880 -3.0956 2.8384
-1.3482 -3.1045 2.8384
-1.3084 -3.1131 2.8384
-1.2687 -3.1215 2.8384
-1.2290 -3.1297 2.8384
-1.1893 -3.1375 2.8384
-1.1496 -3.1450 2.8384
-1.1099 -3.1524 2.8384
-1.0703 -3.1594 2.8384
-1.0307 -3.1662 2.8384
-0.9910 -3.1727 2.8384
-0.9515 -3.1790 2.8384
-0.9119 -3.1850 2.8384
-0.8723 -3.1907 2.8384
-0.8328 -3.1962 2.8384
-0.7932 -3.2015 2.8384
-0.7537 -3.2064 2.8384
-0.7142 -3.2111 2.8384
-0.6747 -3.2156 2.8384
-0.6353 -3.2198 2.8384
-0.5958 -3.2237 2.8384
-0.5563 -3.2274 2.8384
-0.5169 -3.2309 2.8384
-0.4774 -3.2340 2.8384
-0.4380 -3.2370 2.8384
-0.3986 -3.2396 2.8384
-0.3592 -3.2421 2.8384
-0.3198 -3.2442 2.8384
-0.2804 -3.2461 2.8384
-0.2410 -3.2478 2.8384
-0.2016 -3.2492 2.8384
-0.1622 -3.2503 2.8384
-0.1228 -3.2513 2.8384
-0.0834 -3.2519 2.8384
-0.0440 -3.2523 2.8384
-0.0046 -3.2525 2.8384
0.0348 -3.2524 2.8384
0.0741 -3.2520 2.8384
0.1135 -3.2514 2.8384
0.1529 -3.2506 2.8384
0.1923 -3.2495 2.8384
0.2317 -3.2481 2.8384
0.2711 -3.2466 2.8384
0.3105 -3.2447 2.8384
0.3499 -3.2426 2.8384
0.3893 -3.2402 2.8384
0.4288 -3.2376 2.8384
0.4682 -3.2347 2.8384
0.5076 -3.2316 2.8384
0.5471 -3.2282 2.8384
0.5865 -3.2246 2.8384
0.6260 -3.2207 2.8384
0.6655 -3.2166 2.8384
0.7050 -3.2122 2.8384
0.7445 -3.2076 2.8384
0.7840 -3.2027 2.8384
0.8235 -3.1975 2.8384
0.8630 -3.1921 2.8384
0.9026 -3.1864 2.8384
0.9422 -3.1804 2.8384
0.9818 -3.1743 2.8384
1.0214 -3.1678 2.8384
1.0610 -3.1611 2.8384
1.1006 -3.1541 2.8384
1.1403 -3.1468 2.8384
1.1800 -3.1393 2.8384
1.2197 -3.1315 2.8384
1.2594 -3.1235 2.8384
1.2991 -3.1151 2.8384
1.3389 -3.1065 2.8384
1.3787 -3.0977 2.8384
1.4185 -3.0885 2.8384
1.4583 -3.0791 2.8384
1.4982 -3.0694 2.8384
1.5380 -3.0595 2.8384
1.5780 -3.0492 2.8384
1.6179 -3.0387 2.8384
1.6579 -3.0279 2.8384
1.6978 -3.0169 2.8384
1.7379 -3.0055 2.8384
1.7779 -2.9938 2.8384
1.8180 -2.9819 2.8384
1.8581 -2.9697 2.8384
1.8982 -2.9572 2.8384
1.9384 -2.9444 2.8384
1.9786 -2.9313 2.8384
2.0188 -2.9179 2.8384
2.0591 -2.9042 2.8384
2.0993 -2.8902 2.8384
2.1397 -2.8759 2.8384
2.1800 -2.8613 2.8384
2.2204 -2.8464 2.8384
2.2609 -2.8312 2.8384
2.3013 -2.8157 2.8384
2.3418 -2.7999 2.8384
2.3824 -2.7837 2.8384
2.4229 -2.7673 2.8384
2.4635 -2.7505 2.8384
2.5042 -2.7334 2.8384
2.5449 -2.7160 2.8384
2.5856 -2.6982 2.8384
2.6264 -2.6802 2.8384
2.6672 -2.6617 2.8384
2.7080 -2.6430 2.8384
2.7489 -2.6239 2.8384
2.7898 -2.6045 2.8384
2.8307 -2.5848 2.8384
2.8717 -2.5646 2.8384
2.9128 -2.5442 2.8384
2.9539 -2.5234 2.8384
2.9950 -2.5022 2.8384
3.0361 -2.4807 2.8384
3.0773 -2.4588 2.8384
3.1186 -2.4366 2.8384
3.1599 -2.4140 2.8384
3.2012 -2.3910 2.8384
3.2426 -2.3677 2.8384
3.2840 -2.3440 2.8384
3.3254 -2.3199 2.8384
3.3670 -2.2954 2.8384
3.4085 -2.2705 2.8384
3.4501 -2.2452 2.8384
3.4917 -2.2196 2.8384
-1.6187 -2.7203 2.8384
-1.5819 -2.7313 2.8384
-1.5450 -2.7421 2.8384
-1.5081 -2.7526 2.8384
-1.4713 -2.7628 2.8384
-1.4345 -2.7728 2.8384
-1.3976 -2.7825 2.8384
-1.3608 -2.7919 2.8384
-1.3240 -2.8011 2.8384
-1.2872 -2.8100 2.8384
-1.2505 -2.8187 2.8384
-1.2137 -2.8270 2.8384
-1.1769 -2.8351 2.8384
-1.1402 -2.8430 2.8384
-1.1035 -2.8506 2.8384
-1.0667 -2.8580 2.8384
-1.0300 -2.8651 2.8384
-0.9933 -2.8719 2.8384
-0.9566 -2.8785 2.8384
-0.9199 -2.8848 2.8384
-0.8832 -2.8909 2.8384
-0.8465 -2.8967 2.8384
-0.8099 -2.9023 2.8384
-0.7732 -2.9076 2.8384
-0.7365 -2.9127 2.8384
-0.6999 -2.9175 2.8384
-0.6632 -2.9221 2.8384
-0.6266 -2.9264 2.8384
-0.5900 -2.9305 2.8384
-0.5533 -2.9343 2.8384
-0.5167 -2.9379 2.8384
-0.4801 -2.9412 2.8384
-0.4435 -2.9443 2.8384
-0.2970 -2.9542 2.8384
-0.4069 -2.9471 2.8384
-0.2604 -2.9560 2.8384
-0.3702 -2.9497 2.8384
-0.2238 -2.9576 2.8384
-0.3336 -2.9521 2.8384
-0.1872 -2.9590 2.8384
-0.1507 -2.9601 2.8384
-0.0043 -2.9622 2.8384
-0.1141 -2.9610 2.8384
0.0323 -2.9621 2.8384
-0.0775 -2.9616 2.8384
0.0689 -2.9618 2.8384
-0.0409 -2.9620 2.8384
0.1055 -2.9612 2.8384
0.1421 -2.9603 2.8384
0.2884 -2.9546 2.8384
0.1787 -2.9593 2.8384
0.3251 -2.9526 2.8384
0.2153 -2.9580 2.8384
0.3617 -2.9503 2.8384
0.2519 -2.9564 2.8384
0.3983 -2.9477 2.8384
0.4349 -2.9450 2.8384
0.5814 -2.9314 2.8384
0.4715 -2.9419 2.8384
0.6180 -2.9274 2.8384
0.5081 -2.9386 2.8384
0.6546 -2.9231 2.8384
0.5447 -2.9351 2.8384
0.6913 -2.9186 2.8384
0.7279 -2.9138 2.8384
0.8746 -2.8923 2.8384
0.7646 -2.9088 2.8384
0.9113 -2.8863 2.8384
0.8012 -2.9036 2.8384
0.9480 -2.8800 2.8384
0.8379 -2.8980 2.8384
0.9847 -2.8735 2.8384
1.0214 -2.8667 2.8384
1.1683 -2.8370 2.8384
1.0581 -2.8597 2.8384
1.2051 -2.8290 2.8384
1.0948 -2.8524 2.8384
1.2418 -2.8207 2.8384
1.1316 -2.8448 2.8384
1.2786 -2.8121 2.8384
1.3154 -2.8032 2.8384
1.4626 -2.7652 2.8384
1.6101 -2.7229 2.8384
1.3522 -2.7941 2.8384
1.4995 -2.7550 2.8384
1.6470 -2.7117 2.8384
1.3890 -2.7848 2.8384
1.5363 -2.7446 2.8384
1.6839 -2.7001 2.8384
1.4258 -2.7751 2.8384
1.5732 -2.7339 2.8384
1.7208 -2.6883 2.8384
1.7577 -2.6763 2.8384
1.9055 -2.6252 2.8384
2.0535 -2.5695 2.8384
1.7946 -2.6639 2.8384
1.9425 -2.6117 2.8384
2.0906 -2.5549 2.8384
1.8316 -2.6513 2.8384
1.9795 -2.5979 2.8384
2.1276 -2.5400 2.8384
1.8685 -2.6384 2.8384
2.0165 -2.5839 2.8384
2.1647 -2.5247 2.8384
2.3502 -2.4441 2.8384
2.2018 -2.5092 2.8384
2.4988 -2.3741 2.8384
2.6476 -2.2991 2.8384
2.2389 -2.4934 2.8384
2.3873 -2.4271 2.8384
2.5360 -2.3559 2.8384
2.6848 -2.2796 2.8384
2.2760 -2.4773 2.8384
2.5732 -2.3373 2.8384
2.4245 -2.4098 2.8384
2.7221 -2.2597 2.8384
2.3131 -2.4609 2.8384
2.6104 -2.3184 2.8384
2.4616 -2.3921 2.8384
2.7593 -2.2394 2.8384
2.7966 -2.2189 2.8384
2.9457 -2.1333 2.8384
2.8339 -2.1980 2.8384
2.9830 -2.1111 2.8384
3.0203 -2.0885 2.8384
2.8711 -2.1768 2.8384
3.0576 -2.0656 2.8384
2.9084 -2.1553 2.8384
3.0950 -2.0423 2.8384
3.1323 -2.0186 2.8384
3.1696 -1.9946 2.8384
3.2069 -1.9702 2.8384
-1.5028 -2.4654 2.8384
-1.4687 -2.4760 2.8384
-1.4346 -2.4864 2.8384
-1.4005 -2.4965 2.8384
-1.3665 -2.5063 2.8384
-1.3324 -2.5159 2.8384
-1.2983 -2.5253 2.8384
-1.2643 -2.5344 2.8384
-1.2302 -2.5432 2.8384
-1.1961 -2.5518 2.8384
-1.1621 -2.5601 2.8384
-1.1280 -2.5682 2.8384
-1.0939 -2.5761 2.8384
-1.0598 -2.5837 2.8384
-1.0258 -2.5910 2.8384
-0.9917 -2.5981 2.8384
-0.9576 -2.6049 2.8384
-0.9236 -2.6115 2.8384
-0.8895 -2.6179 2.8384
-0.8554 -2.6240 2.8384
-0.8214 -2.6299 2.8384
-0.7873 -2.6355 2.8384
-0.7533 -2.6409 2.8384
-0.7192 -2.6460 2.8384
-0.6851 -2.6509 2.8384
-0.6511 -2.6556 2.8384
-0.6170 -2.6600 2.8384
-0.5829 -2.6642 2.8384
-0.5489 -2.6681 2.8384
-0.5148 -2.6718 2.8384
-0.4808 -2.6753 2.8384
-0.4467 -2.6785 2.8384
-0.4127 -2.6815 2.8384
-0.3786 -2.6842 2.8384
-0.3445 -2.6867 2.8384
-0.3105 -2.6890 2.8384
-0.2764 -2.6910 2.8384
-0.2424 -2.6928 2.8384
-0.2083 -2.6944 2.8384
-0.1743 -2.6957 2.8384
-0.1402 -2.6968 2.8384
-0.1062 -2.6977 2.8384
-0.0721 -2.6983 2.8384
-0.0380 -2.6987 2.8384
-0.0040 -2.6988 2.8384
0.0301 -2.6987 2.8384
0.0641 -2.6984 2.8384
0.0982 -2.6978 2.8384
0.1322 -2.6970 2.8384
0.1663 -2.6960 2.8384
0.2003 -2.6947 2.8384
0.2344 -2.6932 2.8384
0.2684 -2.6915 2.8384
0.3025 -2.6895 2.8384
0.3365 -2.6873 2.8384
0.3706 -2.6848 2.8384
0.4047 -2.6821 2.8384
0.4387 -2.6792 2.8384
0.4728 -2.6760 2.8384
0.5068 -2.6726 2.8384
0.5409 -2.6690 2.8384
0.5749 -2.6651 2.8384
0.6090 -2.6610 2.8384
0.6431 -2.6566 2.8384
0.6771 -2.6520 2.8384
0.7112 -2.6472 2.8384
0.7453 -2.6421 2.8384
0.7793 -2.6368 2.8384
0.8134 -2.6312 2.8384
0.8475 -2.6254 2.8384
0.8815 -2.6193 2.8384
0.9156 -2.6130 2.8384
0.9496 -2.6065 2.8384
0.9837 -2.5997 2.8384
1.0178 -2.5927 2.8384
1.0519 -2.5854 2.8384
1.0859 -2.5779 2.8384
1.1200 -2.5701 2.8384
1.1541 -2.5621 2.8384
1.1881 -2.5538 2.8384
1.2222 -2.5453 2.8384
1.2563 -2.5365 2.8384
1.2903 -2.5274 2.8384
1.3244 -2.5182 2.8384
1.3585 -2.5086 2.8384
1.3926 -2.4988 2.8384
1.4266 -2.4888 2.8384
1.4607 -2.4784 2.8384
1.4948 -2.4679 2.8384
1.5288 -2.4570 2.8384
1.5629 -2.4460 2.8384
1.5970 -2.4346 2.8384
1.6310 -2.4230 2.8384
1.6651 -2.4111 2.8384
1.6991 -2.3990 2.8384
1.7332 -2.3866 2.8384
1.7672 -2.3739 2.8384
1.8013 -2.3609 2.8384
1.8353 -2.3477 2.8384
1.8694 -2.3342 2.8384
1.9034 -2.3204 2.8384
1.9375 -2.3064 2.8384
1.9715 -2.2921 2.8384
2.0055 -2.2775 2.8384
2.0395 -2.2626 2.8384
2.0735 -2.2474 2.8384
2.1076 -2.2320 2.8384
2.1416 -2.2163 2.8384
2.1756 -2.2003 2.8384
2.2095 -2.1840 2.8384
2.2435 -2.1674 2.8384
2.2775 -2.1505 2.8384
2.3115 -2.1333 2.8384
2.3454 -2.1158 2.8384
2.3794 -2.0981 2.8384
2.4133 -2.0800 2.8384
2.4472 -2.0616 2.8384
2.4811 -2.0430 2.8384
2.5150 -2.0240 2.8384
2.5489 -2.0048 2.8384
2.5828 -1.9852 2.8384
2.6166 -1.9653 2.8384
2.6504 -1.9451 2.8384
2.6843 -1.9246 2.8384
2.7181 -1.9037 2.8384
2.7519 -1.8826 2.8384
2.7856 -1.8611 2.8384
2.8194 -1.8393 2.8384
2.8531 -1.8172 2.8384
2.8868 -1.7948 2.8384
2.9205 -1.7720 2.8384
2.9541 -1.7489 2.8384
