ply
format ascii 1.0
element vertex 2054
property float32 x
property float32 y
property float32 z
end_header
6.5021 5.2499 -3.1676
6.4997 4.0431 -2.6606
6.5008 4.6178 -2.8991
6.5023 5.3618 -3.2158
6.4999 4.1354 -2.6985
6.5010 4.7188 -2.9416
6.5001 4.2290 -2.7371
6.5025 5.4758 -3.2650
6.5012 4.8214 -2.9850
6.5003 4.3240 -2.7765
6.5014 4.9258 -3.0292
6.5027 5.5920 -3.3153
6.5005 4.4204 -2.8166
6.5016 5.0319 -3.0744
6.5030 5.7104 -3.3667
6.5006 4.5183 -2.8575
6.5018 5.1400 -3.1205
6.5047 5.8324 -3.4202
6.5050 5.9557 -3.4741
6.5072 6.7528 -3.8269
6.5098 7.6687 -4.2399
6.5054 6.0815 -3.5294
6.5076 6.8963 -3.8912
6.5102 7.8354 -4.3157
6.5057 6.2100 -3.5859
6.5080 7.0433 -3.9571
6.5107 8.0066 -4.3939
6.5061 6.3413 -3.6439
6.5084 7.1939 -4.0249
6.5112 8.1825 -4.4744
6.5065 6.4754 -3.7034
6.5089 7.3481 -4.0945
6.5117 8.3634 -4.5574
6.5068 6.6125 -3.7644
6.5093 7.5064 -4.1662
6.5122 8.5495 -4.6431
6.5180 8.7484 -4.7354
6.5193 10.0296 -5.3314
6.5208 11.6032 -6.0735
6.5182 8.9456 -4.8265
6.5195 10.2688 -5.4436
6.5184 9.1488 -4.9207
6.5197 10.5165 -5.5600
6.5132 11.8877 -6.2080
6.5186 9.3584 -5.0181
6.5200 10.7732 -5.6809
6.5188 9.5749 -5.1189
6.5202 11.0395 -5.8066
17.6133 32.9860 -17.1870
6.5190 9.7985 -5.2233
6.5205 11.3159 -5.9373
17.1962 33.0586 -17.1870
-6.6095 15.2498 -7.8272
-6.2292 15.7624 -8.0494
-7.5547 14.7274 -7.6480
-6.0922 14.9380 -7.6408
-6.8729 15.3972 -7.9171
-7.5740 14.3804 -7.4840
-6.3714 15.1493 -7.7620
-7.0911 15.4340 -7.9508
-7.6233 14.1030 -7.3560
-7.6712 13.8332 -7.2319
-7.2287 15.2944 -7.8940
-7.2900 15.0014 -7.7581
-7.4738 14.9657 -7.7555
-7.3105 6.6275 -3.8755
6.4997 4.1507 -2.2960
6.4999 4.2438 -2.3313
6.5001 4.3382 -2.3672
6.5003 4.4340 -2.4037
6.5005 4.5313 -2.4409
6.5007 4.6301 -2.4788
6.5008 4.7304 -2.5174
6.5010 4.8324 -2.5568
6.5012 4.9360 -2.5969
6.5014 5.0414 -2.6378
6.5017 5.1485 -2.6795
6.5019 5.2576 -2.7221
6.5021 5.3686 -2.7655
6.5023 5.4816 -2.8099
6.5025 5.5967 -2.8553
6.5027 5.7141 -2.9016
6.5044 5.8349 -2.9496
6.5047 5.9570 -2.9980
6.5051 6.0816 -3.0476
6.5054 6.2088 -3.0984
6.5058 6.3386 -3.1503
6.5061 6.4713 -3.2035
6.5065 6.6068 -3.2581
6.5069 6.7455 -3.3139
6.5072 6.8873 -3.3713
6.5076 7.0324 -3.4300
6.5080 7.1811 -3.4904
6.5085 7.3333 -3.5524
6.5089 7.4894 -3.6160
6.5093 7.6495 -3.6815
6.5098 7.8137 -3.7487
6.5102 7.9823 -3.8180
6.5107 8.1555 -3.8893
6.5112 8.3335 -3.9627
6.5117 8.5166 -4.0383
6.5122 8.7050 -4.1164
6.5171 8.9051 -4.1997
6.5173 9.1046 -4.2826
6.5175 9.3103 -4.3683
6.5177 9.5225 -4.4569
6.5179 9.7416 -4.5485
6.5181 9.9680 -4.6433
6.5183 10.2020 -4.7415
6.5185 10.4442 -4.8433
6.5187 10.6950 -4.9489
6.5189 10.9549 -5.0586
6.5192 11.2245 -5.1725
6.5194 11.5045 -5.2910
6.5128 11.7830 -5.4087
6.5135 12.0862 -5.5375
6.9028 14.6256 -6.6436
6.5143 12.4020 -5.6718
17.3925 37.8958 -17.1870
6.5151 12.7312 -5.8121
6.5159 13.0749 -5.9588
6.5168 13.4340 -6.1122
-5.9078 15.6823 -7.0481
-5.9455 15.2824 -6.8771
-6.1439 15.3037 -6.8957
-6.3489 14.8827 -6.7245
-6.3443 15.3251 -6.9148
-6.6594 15.1584 -6.8590
-7.3236 14.5116 -6.6188
-6.7605 14.9517 -6.7757
-7.4935 14.4627 -6.6080
-7.4300 13.9737 -6.3961
-7.0298 15.1145 -6.8600
-7.9178 14.5164 -6.6567
-7.2432 15.1478 -6.8861
-7.9825 14.2719 -6.5571
-8.0457 14.0328 -6.4598
-7.3197 14.8968 -6.7831
-7.3074 6.6271 -3.3422
6.4998 4.2571 -1.9357
6.4999 4.3509 -1.9684
6.5001 4.4461 -2.0016
6.5003 4.5428 -2.0353
6.5005 4.6409 -2.0697
6.5007 4.7405 -2.1046
6.5009 4.8418 -2.1402
6.5011 4.9446 -2.1765
6.5013 5.0492 -2.2134
6.5015 5.1555 -2.2510
6.5017 5.2637 -2.2893
6.5019 5.3738 -2.3284
6.5021 5.4859 -2.3683
6.5023 5.6000 -2.4089
6.5037 5.7173 -2.4509
6.5041 5.8359 -2.4933
6.5044 5.9568 -2.5367
6.5047 6.0801 -2.5810
6.5051 6.2060 -2.6262
6.5054 6.3345 -2.6725
6.5058 6.4657 -2.7199
6.5061 6.5997 -2.7684
6.5065 6.7367 -2.8180
6.5069 6.8768 -2.8689
6.5073 7.0202 -2.9210
6.5076 7.1669 -2.9744
6.5081 7.3172 -3.0292
6.5085 7.4712 -3.0855
6.5089 7.6290 -3.1432
6.5093 7.7908 -3.2025
6.5098 7.9569 -3.2635
6.5102 8.1275 -3.3262
6.5107 8.3027 -3.3907
6.5112 8.4828 -3.4571
6.5117 8.6680 -3.5254
6.5161 8.8640 -3.5981
6.5163 9.0599 -3.6706
6.5164 9.2618 -3.7454
6.5166 9.4699 -3.8227
6.5168 9.6846 -3.9025
6.5169 9.9063 -3.9850
6.5171 10.1354 -4.0704
6.5173 10.3723 -4.1588
6.5175 10.6174 -4.2503
6.5177 10.8713 -4.3453
6.5179 11.1344 -4.4439
6.5181 11.4074 -4.5462
6.5124 11.6800 -4.6483
6.5131 11.9752 -4.7593
6.5138 12.2824 -4.8749
6.5146 12.6023 -4.9954
6.5154 12.9358 -5.1212
6.5162 13.2840 -5.2527
6.5171 13.6479 -5.3901
6.5180 14.0285 -5.5342
6.5190 14.4273 -5.6852
6.5300 14.8684 -5.8527
6.5307 15.3077 -6.0194
6.5315 15.7698 -6.1948
-5.6155 15.6416 -6.1189
-5.8090 15.6561 -6.1299
-6.0041 15.6703 -6.1409
-6.1921 15.6620 -6.1434
-6.3196 15.5020 -6.0864
-6.3604 15.1417 -5.9509
-6.5527 15.1487 -5.9597
-6.7469 15.1557 -5.9688
-6.9868 15.2588 -6.0159
-7.1152 15.1157 -5.9663
-7.1676 14.8194 -5.8561
-7.2079 14.5105 -5.7409
-7.7174 15.1341 -5.9950
-7.8793 15.0580 -5.9725
-7.4258 13.8352 -5.4946
-7.9635 14.4702 -5.7546
-8.0270 14.2298 -5.6668
-8.0890 13.9948 -5.5812
-7.3057 6.6262 -2.8261
6.4998 4.3626 -1.5782
6.4999 4.4572 -1.6083
6.5001 4.5532 -1.6388
6.5003 4.6507 -1.6698
6.5005 4.7496 -1.7013
6.5007 4.8501 -1.7333
6.5009 4.9523 -1.7659
6.5011 5.0560 -1.7991
6.5013 5.1615 -1.8328
6.5015 5.2688 -1.8671
6.5017 5.3780 -1.9021
6.5019 5.4891 -1.9377
6.5021 5.6022 -1.9740
6.5034 5.7184 -2.0113
6.5038 5.8359 -2.0491
6.5041 5.9557 -2.0876
6.5044 6.0778 -2.1269
6.5047 6.2023 -2.1671
6.5051 6.3294 -2.2081
6.5054 6.4592 -2.2499
6.5058 6.5918 -2.2928
6.5061 6.7272 -2.3365
6.5065 6.8656 -2.3813
6.5069 7.0072 -2.4272
6.5073 7.1521 -2.4741
6.5077 7.3004 -2.5222
6.5081 7.4523 -2.5715
6.5085 7.6079 -2.6221
6.5089 7.7675 -2.6740
6.5093 7.9312 -2.7272
6.5098 8.0991 -2.7819
6.5103 8.2716 -2.8381
6.5107 8.4488 -2.8958
6.5112 8.6309 -2.9553
6.5151 8.8229 -3.0180
6.5153 9.0154 -3.0809
6.5154 9.2135 -3.1456
6.5155 9.4177 -3.2124
6.5157 9.6282 -3.2813
6.5159 9.8455 -3.3525
6.5160 10.0698 -3.4260
6.5162 10.3016 -3.5020
6.5164 10.5412 -3.5806
6.5165 10.7893 -3.6621
6.5167 11.0462 -3.7465
6.5169 11.3125 -3.8340
6.5171 11.5888 -3.9248
6.5126 11.8671 -4.0164
6.5134 12.1660 -4.1148
6.5141 12.4771 -4.2173
6.5149 12.8011 -4.3241
6.5157 13.1389 -4.4355
6.5165 13.4916 -4.5518
6.5174 13.8601 -4.6735
6.5184 14.2457 -4.8008
6.5193 14.6497 -4.9343
6.5290 15.0935 -5.0812
6.5297 15.5384 -5.2283
6.5304 16.0064 -5.3832
6.5312 16.4995 -5.5464
6.5321 17.0198 -5.7186
6.5329 17.5697 -5.9008
6.5293 18.1396 -6.0895
6.9394 19.9318 -6.6885
-6.8319 31.4596 -10.5177
-5.3503 15.1253 -5.0765
-5.5689 15.2336 -5.1150
-6.3747 15.4064 -5.1825
-5.7920 15.3440 -5.1543
-6.5374 15.3440 -5.1641
-6.0492 15.5313 -5.2196
-5.7429 14.3008 -4.8083
-6.7002 15.2816 -5.1457
-7.2806 14.8857 -5.0236
-6.8629 15.2190 -5.1274
-7.4471 14.8330 -5.0088
-7.1547 15.4347 -5.2029
-7.2843 14.1404 -4.7779
-7.1942 15.1054 -5.0948
-8.1908 14.3990 -4.8782
-7.2521 13.7257 -4.6407
-7.9415 14.6599 -4.9598
-8.1202 14.6256 -4.9516
-7.3048 6.6251 -2.3241
6.4998 4.4678 -1.2219
6.5000 4.5632 -1.2493
6.5001 4.6600 -1.2772
6.5003 4.7583 -1.3054
6.5005 4.8580 -1.3341
6.5007 4.9594 -1.3632
6.5009 5.0624 -1.3928
6.5011 5.1671 -1.4229
6.5013 5.2735 -1.4534
6.5015 5.3818 -1.4845
6.5017 5.4920 -1.5161
6.5019 5.6041 -1.5482
6.5032 5.7192 -1.5812
6.5035 5.8355 -1.6146
6.5038 5.9541 -1.6486
6.5041 6.0750 -1.6832
6.5044 6.1983 -1.7185
6.5047 6.3241 -1.7545
6.5051 6.4525 -1.7912
6.5054 6.5836 -1.8287
6.5058 6.7174 -1.8670
6.5061 6.8543 -1.9061
6.5065 6.9941 -1.9461
6.5069 7.1372 -1.9869
6.5073 7.2836 -2.0287
6.5077 7.4335 -2.0715
6.5081 7.5870 -2.1154
6.5085 7.7443 -2.1602
6.5089 7.9056 -2.2063
6.5094 8.0710 -2.2534
6.5098 8.2408 -2.3019
6.5103 8.4152 -2.3516
6.5107 8.5943 -2.4026
6.5141 8.7826 -2.4562
6.5143 8.9716 -2.5101
6.5144 9.1662 -2.5655
6.5145 9.3666 -2.6225
6.5147 9.5731 -2.6813
6.5148 9.7860 -2.7419
6.5149 10.0057 -2.8044
6.5151 10.2326 -2.8689
6.5152 10.4671 -2.9356
6.5154 10.7096 -3.0045
6.5156 10.9605 -3.0759
6.5157 11.2204 -3.1497
6.5159 11.4899 -3.2263
6.5122 11.7625 -3.3037
6.5129 12.0536 -3.3864
6.5136 12.3562 -3.4723
6.5144 12.6712 -3.5617
6.5152 12.9992 -3.6548
6.5160 13.3413 -3.7519
6.5168 13.6985 -3.8532
6.5177 14.0717 -3.9591
6.5187 14.4623 -4.0698
6.5273 14.8889 -4.1908
6.5280 15.3178 -4.3124
6.5286 15.7683 -4.4401
6.5294 16.2423 -4.5744
6.5301 16.7416 -4.7159
6.5309 17.2684 -4.8652
6.5280 17.8151 -5.0200
6.5289 18.4046 -5.1870
6.5299 19.0300 -5.3641
6.5309 19.6948 -5.5523
6.5320 20.4030 -5.7528
6.5293 21.1467 -5.9634
6.5308 21.9565 -6.1926
-6.2859 32.6604 -9.2210
-6.5938 32.4378 -9.1574
-6.9532 32.4720 -9.1662
-7.1434 31.7444 -8.9599
-7.5308 31.9136 -9.0068
-7.9975 32.3820 -9.1380
-5.4503 15.1286 -4.2634
-5.6676 15.2358 -4.2929
-5.8895 15.3453 -4.3230
-6.3358 16.0119 -4.5099
-5.9297 14.5447 -4.0959
-6.3749 15.1868 -4.2759
-6.5525 15.1698 -4.2703
-6.7312 15.1526 -4.2646
-6.9110 15.1352 -4.2588
-7.0331 14.9924 -4.2177
-7.2963 15.1463 -4.2600
-7.4855 15.1391 -4.2570
-7.6764 15.1321 -4.2540
-7.2364 13.9089 -3.9092
-7.1540 13.4126 -3.7687
-7.9141 14.4783 -4.0671
-8.4038 15.0070 -4.2145
-8.4737 14.7748 -4.1481
-8.6019 14.6492 -4.1117
-8.7295 14.5243 -4.0754
-8.8563 14.4000 -4.0393
-7.3043 6.6238 -1.8333
6.4998 4.5731 -0.8651
6.5000 4.6692 -0.8900
6.5002 4.7668 -0.9151
6.5003 4.8659 -0.9406
6.5005 4.9665 -0.9665
6.5007 5.0688 -0.9927
6.5009 5.1726 -1.0193
6.5011 5.2782 -1.0463
6.5013 5.3856 -1.0736
6.5015 5.4949 -1.1015
6.5017 5.6060 -1.1297
6.5029 5.7200 -1.1585
6.5032 5.8353 -1.1877
6.5035 5.9528 -1.2174
6.5038 6.0725 -1.2476
6.5041 6.1945 -1.2783
6.5044 6.3190 -1.3096
6.5048 6.4460 -1.3415
6.5051 6.5757 -1.3739
6.5054 6.7080 -1.4070
6.5058 6.8432 -1.4407
6.5062 6.9815 -1.4752
6.5065 7.1227 -1.5103
6.5069 7.2673 -1.5462
6.5073 7.4152 -1.5829
6.5077 7.5666 -1.6203
6.5081 7.7218 -1.6587
6.5085 7.8808 -1.6979
6.5089 8.0438 -1.7380
6.5094 8.2110 -1.7792
6.5098 8.3826 -1.8213
6.5103 8.5589 -1.8645
6.5132 8.7435 -1.9096
6.5133 8.9293 -1.9550
6.5134 9.1204 -2.0017
6.5135 9.3171 -2.0496
6.5137 9.5197 -2.0990
6.5138 9.7285 -2.1497
6.5139 9.9439 -2.2020
6.5140 10.1661 -2.2559
6.5142 10.3956 -2.3114
6.5143 10.6328 -2.3688
6.5144 10.8780 -2.4280
6.5146 11.1319 -2.4892
6.5147 11.3949 -2.5525
6.5146 11.6670 -2.6180
6.5125 11.9456 -2.6850
6.5132 12.2403 -2.7557
6.5139 12.5467 -2.8291
6.5147 12.8655 -2.9054
6.5155 13.1976 -2.9848
6.5163 13.5440 -3.0675
6.5172 13.9056 -3.1538
6.5181 14.2835 -3.2438
6.5190 14.6791 -3.3380
6.5263 15.1081 -3.4399
6.5269 15.5423 -3.5430
6.5276 15.9984 -3.6513
6.5283 16.4783 -3.7651
6.5290 16.9838 -3.8848
6.5298 17.5173 -4.0111
6.5276 18.0729 -4.1425
6.5285 18.6699 -4.2835
6.5294 19.3033 -4.4331
6.5304 19.9767 -4.5919
6.5282 20.6834 -4.7586
6.5296 21.4500 -4.9391
6.5311 22.2706 -5.1322
6.5328 23.1513 -5.3393
6.5369 24.1079 -5.5640
6.5399 25.1359 -5.8054
6.5432 26.2497 -6.0668
-4.3427 22.8786 -5.3047
-4.5937 22.9142 -5.3102
-6.8294 32.3403 -7.4906
-7.1345 32.1497 -7.4421
-7.4553 32.0377 -7.4118
-5.5920 22.9611 -5.3086
-7.9222 31.1373 -7.1941
-8.6136 32.4590 -7.4942
-5.2720 15.3409 -3.5215
-5.4639 15.3864 -3.5286
-5.6583 15.4324 -3.5356
-5.8922 15.5765 -3.5649
-5.8281 14.9446 -3.4166
-6.0318 15.0130 -3.4284
-5.9055 14.2766 -3.2565
-6.2938 14.7870 -3.3689
-6.7162 15.3442 -3.4916
-6.8841 15.3021 -3.4776
-7.0038 15.1545 -3.4395
-7.1228 15.0095 -3.4019
-7.1976 14.7778 -3.3447
-7.4653 14.9403 -3.3766
-7.1845 14.0207 -3.1640
-7.1301 13.5738 -3.0585
-8.1520 15.1445 -3.4069
-8.2556 14.9718 -3.3626
-8.3412 14.7715 -3.3120
-8.4678 14.6478 -3.2785
-8.5938 14.5248 -3.2451
-8.7190 14.4025 -3.2118
-7.3036 6.6226 -1.3514
6.4998 4.6790 -0.5064
6.5000 4.7759 -0.5287
6.5002 4.8743 -0.5511
6.5004 4.9742 -0.5739
6.5005 5.0756 -0.5969
6.5007 5.1787 -0.6202
6.5009 5.2835 -0.6437
6.5011 5.3900 -0.6676
6.5013 5.4983 -0.6918
6.5015 5.6085 -0.7163
6.5026 5.7214 -0.7413
6.5029 5.8357 -0.7665
6.5032 5.9521 -0.7921
6.5035 6.0706 -0.8181
6.5038 6.1915 -0.8445
6.5041 6.3147 -0.8713
6.5044 6.4404 -0.8985
6.5048 6.5686 -0.9262
6.5051 6.6995 -0.9543
6.5055 6.8332 -0.9830
6.5058 6.9698 -1.0122
6.5062 7.1093 -1.0419
6.5065 7.2521 -1.0722
6.5069 7.3981 -1.1031
6.5073 7.5475 -1.1346
6.5077 7.7005 -1.1667
6.5081 7.8573 -1.1995
6.5085 8.0180 -1.2330
6.5089 8.1827 -1.2673
6.5094 8.3518 -1.3023
6.5098 8.5253 -1.3381
6.5103 8.7035 -1.3748
6.5124 8.8889 -1.4128
6.5125 9.0767 -1.4512
6.5126 9.2700 -1.4907
6.5127 9.4688 -1.5311
6.5128 9.6737 -1.5727
6.5129 9.8848 -1.6154
6.5130 10.1026 -1.6593
6.5131 10.3273 -1.7045
6.5132 10.5594 -1.7511
6.5134 10.7993 -1.7990
6.5135 11.0474 -1.8485
6.5136 11.3042 -1.8995
6.5137 11.5702 -1.9523
6.5121 11.8427 -2.0063
6.5128 12.1298 -2.0629
6.5135 12.4280 -2.1215
6.5142 12.7381 -2.1823
6.5150 13.0609 -2.2455
6.5158 13.3971 -2.3111
6.5166 13.7478 -2.3794
6.5175 14.1139 -2.4505
6.5184 14.4966 -2.5246
6.5247 14.9094 -2.6042
6.5253 15.3284 -2.6851
6.5259 15.7679 -2.7697
6.5266 16.2297 -2.8584
6.5272 16.7154 -2.9516
6.5279 17.2273 -3.0495
6.5263 17.7610 -3.1515
6.5271 18.3320 -3.2603
6.5280 18.9366 -3.3753
6.5290 19.5781 -3.4971
6.5300 20.2601 -3.6264
6.5284 20.9784 -3.7624
6.5299 21.7550 -3.9091
6.5314 22.5864 -4.0659
6.5331 23.4787 -4.2339
6.5372 24.4482 -4.4161
6.5403 25.4899 -4.6116
6.5436 26.6186 -4.8231
6.5276 27.7625 -5.0378
6.5291 29.0872 -5.2854
6.5358 30.5618 -5.5607
6.5408 32.1757 -5.8616
6.5501 33.9816 -6.1980
-7.0818 48.6573 -8.9150
-5.4413 32.7155 -5.9831
-5.7871 32.7407 -5.9816
-6.1313 32.7478 -5.9765
-6.3676 32.2029 -5.8703
-6.7085 32.2085 -5.8642
-7.0242 32.0926 -5.8356
-7.3719 32.1208 -5.8329
-7.7154 32.1229 -5.8250
-7.8965 31.4708 -5.6983
-8.5017 32.4872 -5.8731
-5.5415 15.3318 -2.7238
-5.7337 15.3771 -2.7254
-5.8934 15.3317 -2.7108
-6.0688 15.3255 -2.7029
-6.2453 15.3191 -2.6947
-6.4230 15.3124 -2.6862
-6.1578 14.2760 -2.4974
-6.7414 15.2071 -2.6526
-6.6883 14.6874 -2.5542
-7.1424 15.2760 -2.6483
-7.0803 14.7554 -2.5498
-7.0278 14.2771 -2.4590
-7.5929 15.0426 -2.5819
-7.7228 14.9265 -2.5529
-7.8522 14.8112 -2.5239
-7.9808 14.6964 -2.4948
-8.0877 14.5445 -2.4594
-8.1844 14.3780 -2.4214
-8.2434 14.1509 -2.3731
-8.3011 13.9284 -2.3257
-7.3025 6.6217 -0.8758
6.4998 4.7859 -0.1442
6.5000 4.8836 -0.1638
6.5002 4.9828 -0.1836
6.5004 5.0835 -0.2035
6.5006 5.1858 -0.2236
6.5007 5.2898 -0.2440
6.5009 5.3954 -0.2645
6.5011 5.5029 -0.2852
6.5013 5.6122 -0.3062
6.5023 5.7240 -0.3274
6.5026 5.8372 -0.3489
6.5029 5.9526 -0.3706
6.5032 6.0700 -0.3926
6.5035 6.1897 -0.4148
6.5038 6.3117 -0.4373
6.5041 6.4360 -0.4602
6.5044 6.5629 -0.4833
6.5048 6.6924 -0.5068
6.5051 6.8246 -0.5306
6.5055 6.9596 -0.5548
6.5058 7.0975 -0.5794
6.5062 7.2385 -0.6044
6.5066 7.3827 -0.6298
6.5069 7.5302 -0.6556
6.5073 7.6812 -0.6818
6.5077 7.8358 -0.7086
6.5081 7.9942 -0.7358
6.5085 8.1565 -0.7636
6.5090 8.3231 -0.7919
6.5094 8.4939 -0.8207
6.5098 8.6693 -0.8502
6.5115 8.8511 -0.8805
6.5116 9.0358 -0.9112
6.5116 9.2256 -0.9426
6.5117 9.4209 -0.9748
6.5118 9.6220 -1.0077
6.5119 9.8291 -1.0414
6.5120 10.0426 -1.0760
6.5121 10.2628 -1.1115
6.5122 10.4901 -1.1479
6.5123 10.7248 -1.1853
6.5124 10.9674 -1.2238
6.5125 11.2183 -1.2634
6.5126 11.4781 -1.3042
6.5117 11.7453 -1.3461
6.5124 12.0252 -1.3896
6.5130 12.3158 -1.4346
6.5138 12.6176 -1.4810
6.5145 12.9315 -1.5291
6.5153 13.2582 -1.5790
6.5161 13.5986 -1.6307
6.5169 13.9536 -1.6844
6.5178 14.3242 -1.7402
6.5187 14.7117 -1.7983
6.5238 15.1267 -1.8600
6.5243 15.5508 -1.9231
6.5249 15.9957 -1.9890
6.5255 16.4631 -2.0580
6.5261 16.9549 -2.1303
6.5268 17.4730 -2.2063
6.5259 18.0154 -2.2855
6.5267 18.5936 -2.3696
6.5276 19.2059 -2.4583
6.5285 19.8555 -2.5521
6.5295 20.5463 -2.6515
6.5287 21.2762 -2.7564
6.5302 22.0630 -2.8689
6.5317 22.9053 -2.9890
6.5348 23.8146 -3.1182
6.5376 24.7920 -3.2567
6.5407 25.8475 -3.4059
6.5285 26.9271 -3.5586
6.5299 28.1583 -3.7318
6.5315 29.5014 -3.9203
6.5388 30.9991 -4.1298
6.5440 32.6359 -4.3583
6.5519 34.4591 -4.6122
6.5471 36.4152 -4.8845
6.5526 38.6620 -5.1963
6.5614 41.2125 -5.5496
6.5549 44.0034 -5.9359
-6.0025 48.7202 -6.5980
-7.4018 48.1232 -6.4863
-5.2793 32.1769 -4.3291
-5.6412 32.3536 -4.3444
-5.8231 31.5303 -4.2250
-6.2980 32.2903 -4.3174
-6.6269 32.2566 -4.3028
-6.9672 32.2731 -4.2944
-7.2968 32.2351 -4.2782
-7.6324 32.2193 -4.2644
-7.8441 31.6981 -4.1834
-8.2889 32.1170 -4.2259
-8.5269 31.7268 -4.1614
-8.7951 31.4685 -4.1138
-5.5034 15.9453 -2.0368
-5.6850 15.9547 -2.0289
-5.6064 15.2525 -1.9307
-5.7863 15.2710 -1.9238
-5.9679 15.2897 -1.9165
-6.1513 15.3085 -1.9089
-6.3365 15.3273 -1.9010
-6.1401 14.4443 -1.7815
-6.7211 15.3851 -1.8865
-6.9775 15.5495 -1.8952
-6.6249 14.3801 -1.7418
-7.1543 15.1328 -1.8211
-7.2544 14.9590 -1.7880
-7.4492 14.9807 -1.7782
-7.5794 14.8715 -1.7525
-7.7089 14.7627 -1.7266
-7.8378 14.6544 -1.7006
-7.9661 14.5465 -1.6745
-8.0754 14.4063 -1.6444
-8.1350 14.1824 -1.6048
-8.1931 13.9625 -1.5657
-7.3005 6.6213 -0.4045
6.4998 4.8943 0.2232
6.5000 4.9928 0.2063
6.5002 5.0928 0.1893
6.5004 5.1944 0.1722
6.5006 5.2976 0.1549
6.5008 5.4024 0.1376
6.5010 5.5090 0.1202
6.5012 5.6174 0.1026
6.5020 5.7282 0.0849
6.5023 5.8405 0.0671
6.5026 5.9547 0.0491
6.5029 6.0711 0.0310
6.5032 6.1896 0.0127
6.5035 6.3104 -0.0058
6.5038 6.4335 -0.0244
6.5041 6.5591 -0.0432
6.5045 6.6872 -0.0622
6.5048 6.8179 -0.0815
6.5051 6.9514 -0.1009
6.5055 7.0878 -0.1205
6.5058 7.2271 -0.1404
6.5062 7.3695 -0.1606
6.5066 7.5151 -0.1810
6.5069 7.6642 -0.2017
6.5073 7.8167 -0.2226
6.5077 7.9730 -0.2439
6.5081 8.1330 -0.2655
6.5085 8.2971 -0.2874
6.5090 8.4654 -0.3097
6.5094 8.6381 -0.3323
6.5106 8.8164 -0.3553
6.5106 8.9980 -0.3788
6.5107 9.1847 -0.4026
6.5108 9.3766 -0.4269
6.5109 9.5741 -0.4516
6.5109 9.7773 -0.4769
6.5110 9.9868 -0.5027
6.5111 10.2026 -0.5290
6.5112 10.4253 -0.5559
6.5113 10.6551 -0.5835
6.5113 10.8925 -0.6117
6.5114 11.1378 -0.6406
6.5115 11.3917 -0.6702
6.5116 11.6544 -0.7006
6.5120 11.9270 -0.7319
6.5126 12.2104 -0.7641
6.5133 12.5044 -0.7972
6.5140 12.8100 -0.8313
6.5148 13.1277 -0.8665
6.5156 13.4584 -0.9029
6.5164 13.8029 -0.9405
6.5172 14.1623 -0.9794
6.5181 14.5376 -1.0197
6.5223 14.9373 -1.0620
6.5228 15.3470 -1.1054
6.5233 15.7763 -1.1505
6.5238 16.2267 -1.1975
6.5244 16.6998 -1.2465
6.5250 17.1977 -1.2977
6.5246 17.7196 -1.3510
6.5254 18.2734 -1.4072
6.5262 18.8589 -1.4662
6.5271 19.4790 -1.5283
6.5280 20.1369 -1.5937
6.5276 20.8321 -1.6626
6.5290 21.5784 -1.7359
6.5305 22.3755 -1.8137
6.5320 23.2288 -1.8966
6.5352 24.1504 -1.9855
6.5380 25.1407 -2.0806
6.5411 26.2102 -2.1828
6.5308 27.3117 -2.2881
6.5323 28.5600 -2.4063
6.5370 29.9358 -2.5358
6.5419 31.4431 -2.6770
6.5478 33.1060 -2.8322
6.5537 34.9438 -3.0030
6.5501 36.9329 -3.1875
6.5561 39.2145 -3.3980
6.5557 41.7418 -3.6305
6.5578 44.6259 -3.8950
6.5672 47.9796 -4.2013
-5.5117 49.4193 -4.3583
-5.9979 49.3478 -4.3406
-6.4944 49.3570 -4.3289
-6.9042 48.7443 -4.2619
-7.8687 48.6178 -4.2212
-5.5819 32.4541 -2.8069
-5.6564 31.0496 -2.6744
-6.0647 31.5230 -2.7033
-6.4171 31.6672 -2.7030
-6.8684 32.2565 -2.7398
-6.9741 31.2372 -2.6394
-7.5253 32.2093 -2.7066
-7.8054 31.9815 -2.6719
-8.0612 31.6713 -2.6299
-8.2302 31.0521 -2.5619
-7.0631 22.9573 -1.8399
-5.5580 15.8224 -1.2246
-5.7365 15.8311 -1.2135
-5.9163 15.8398 -1.2018
-6.0976 15.8486 -1.1898
-6.2770 15.8489 -1.1767
-6.4583 15.8506 -1.1632
-6.2958 15.0282 -1.0896
-6.4770 15.0451 -1.0771
-6.6076 14.9432 -1.0557
-6.5777 14.4901 -1.0096
-7.0679 15.1732 -1.0420
-7.2421 15.1577 -1.0253
-7.4295 15.1667 -1.0098
-7.5610 15.0602 -0.9862
-7.6473 14.8677 -0.9569
-7.7169 14.6492 -0.9258
-7.7896 14.4432 -0.8956
-7.8609 14.2407 -0.8655
-7.9308 14.0416 -0.8357
-7.2973 6.6216 0.0647
-21.5463 19.1767 0.2503
-21.5477 18.8099 0.3092
-21.5490 18.4491 0.3677
-21.5504 18.0944 0.4258
-21.5517 17.7454 0.4835
-21.4758 17.3397 0.5389
-21.4707 16.9979 0.5954
-21.5618 16.7361 0.6546
-21.5631 16.4082 0.7109
6.4999 5.0048 0.5975
6.5000 5.1041 0.5833
6.5002 5.2050 0.5691
6.5004 5.3074 0.5549
6.5006 5.4114 0.5407
6.5008 5.5172 0.5264
6.5010 5.6247 0.5121
6.5017 5.7345 0.4978
6.5020 5.8458 0.4834
6.5023 5.9591 0.4690
6.5026 6.0744 0.4546
6.5029 6.1918 0.4401
6.5032 6.3115 0.4256
6.5035 6.4334 0.4110
6.5038 6.5577 0.3963
6.5041 6.6845 0.3816
6.5045 6.8138 0.3668
6.5048 6.9459 0.3519
6.5051 7.0807 0.3370
6.5055 7.2184 0.3219
6.5058 7.3591 0.3068
6.5062 7.5030 0.2916
6.5066 7.6501 0.2762
6.5070 7.8007 0.2608
6.5073 7.9548 0.2452
6.5077 8.1127 0.2295
6.5081 8.2745 0.2137
6.5086 8.4403 0.1978
6.5090 8.6104 0.1816
6.5097 8.7854 0.1654
6.5097 8.9641 0.1489
6.5098 9.1477 0.1323
6.5099 9.3363 0.1155
6.5099 9.5304 0.0984
6.5100 9.7300 0.0812
6.5100 9.9356 0.0638
6.5101 10.1473 0.0461
6.5102 10.3656 0.0281
6.5102 10.5908 0.0099
6.5103 10.8232 -0.0086
6.5104 11.0633 -0.0274
6.5105 11.3115 -0.0465
6.5105 11.5682 -0.0660
6.5116 11.8358 -0.0858
6.5122 12.1123 -0.1060
6.5129 12.3990 -0.1267
6.5136 12.6967 -0.1478
6.5143 13.0060 -0.1693
6.5151 13.3276 -0.1914
6.5159 13.6623 -0.2140
6.5167 14.0112 -0.2372
6.5175 14.3751 -0.2611
6.5208 14.7604 -0.2856
6.5213 15.1567 -0.3108
6.5217 15.5714 -0.3367
6.5222 16.0060 -0.3635
6.5228 16.4619 -0.3912
6.5233 16.9409 -0.4199
6.5239 17.4450 -0.4495
6.5242 17.9754 -0.4804
6.5250 18.5362 -0.5125
6.5258 19.1291 -0.5459
6.5266 19.7572 -0.5809
6.5275 20.4236 -0.6174
6.5279 21.1302 -0.6557
6.5293 21.8863 -0.6960
6.5308 22.6939 -0.7386
6.5323 23.5585 -0.7835
6.5356 24.4925 -0.8314
6.5385 25.4960 -0.8822
6.5416 26.5798 -0.9365
6.5330 27.7038 -0.9927
6.5347 28.9696 -1.0548
6.5400 30.3671 -1.1223
6.5450 31.8958 -1.1955
6.5495 33.5744 -1.2751
6.5555 35.4379 -1.3625
6.5530 37.4608 -1.4569
6.5589 39.7728 -1.5635
6.5584 42.3352 -1.6809
6.5740 45.3524 -1.8174
6.5715 48.6714 -1.9672
-5.4412 49.4563 -2.0364
-5.8139 48.4904 -1.9830
-6.2956 48.5032 -1.9687
-7.3018 48.7870 -1.9467
-7.7953 48.8291 -1.9298
-5.5854 32.9232 -1.2878
-5.9190 32.9406 -1.2743
-6.1008 32.1506 -1.2291
-6.2728 31.3857 -1.1847
-6.7661 32.2187 -1.1997
-7.1022 32.2549 -1.1838
-7.3251 31.7910 -1.1489
-7.6950 31.9713 -1.1367
-7.8867 31.4211 -1.0977
-6.0280 15.4431 -0.3754
-6.1935 15.4240 -0.3589
-6.3597 15.4046 -0.3420
-6.4903 15.2991 -0.3228
-6.6362 15.2311 -0.3040
-6.7818 15.1629 -0.2849
-7.0449 15.3508 -0.2699
-7.0761 15.0336 -0.2456
-7.1544 14.8262 -0.2232
-7.2311 14.6223 -0.2008
-7.0970 14.0089 -0.1733
-7.6637 14.7719 -0.1621
-21.5329 32.5389 0.2383
-21.5032 31.8247 0.2953
-21.5056 31.1781 0.3519
-21.5080 30.5493 0.4079
-21.5103 29.9375 0.4632
-21.5126 29.3420 0.5179
-21.5148 28.7620 0.5721
-21.5170 28.1967 0.6258
-21.4357 27.5385 0.6763
-21.5249 27.1127 0.7317
-21.5269 26.5880 0.7839
-21.5288 26.0756 0.8358
-21.5307 25.5750 0.8872
-21.5326 25.0858 0.9383
-21.5344 24.6075 0.9890
-21.5362 24.1396 1.0394
-21.5379 23.6817 1.0894
-21.5396 23.2335 1.1392
-21.5413 22.7945 1.1888
-21.4499 22.2678 1.2327
-21.5350 21.9330 1.2865
-21.5366 21.5198 1.3353
-21.5381 21.1144 1.3840
-21.5396 20.7167 1.4324
-21.5411 20.3262 1.4806
-21.5425 19.9428 1.5287
-7.2921 6.6227 0.5337
-21.5454 19.1960 1.6245
-21.5467 18.8322 1.6722
-21.5481 18.4745 1.7198
-21.5494 18.1225 1.7673
-21.5507 17.7763 1.8148
-21.4748 17.3730 1.8555
-21.4697 17.0336 1.9020
-21.5608 16.7743 1.9573
6.4999 5.1179 0.9807
6.5000 5.2180 0.9693
6.5002 5.3197 0.9579
6.5004 5.4230 0.9467
6.5006 5.5280 0.9354
6.5008 5.6346 0.9243
6.5015 5.7435 0.9133
6.5018 5.8539 0.9023
6.5020 5.9662 0.8913
6.5023 6.0805 0.8804
6.5026 6.1969 0.8696
6.5029 6.3155 0.8589
6.5032 6.4362 0.8481
6.5035 6.5593 0.8375
6.5038 6.6848 0.8269
6.5042 6.8128 0.8164
6.5045 6.9435 0.8059
6.5048 7.0768 0.7955
6.5052 7.2130 0.7851
6.5055 7.3521 0.7748
6.5059 7.4942 0.7646
6.5062 7.6396 0.7544
6.5066 7.7883 0.7442
6.5070 7.9404 0.7341
6.5074 8.0962 0.7241
6.5077 8.2557 0.7141
6.5082 8.4192 0.7042
6.5086 8.5869 0.6943
6.5088 8.7586 0.6845
6.5088 8.9346 0.6747
6.5089 9.1152 0.6649
6.5089 9.3008 0.6552
6.5090 9.4916 0.6456
6.5090 9.6877 0.6360
6.5091 9.8896 0.6264
6.5091 10.0974 0.6170
6.5092 10.3116 0.6075
6.5092 10.5323 0.5982
6.5093 10.7601 0.5889
6.5093 10.9952 0.5796
6.5094 11.2381 0.5704
6.5094 11.4891 0.5613
6.5112 11.7520 0.5524
6.5119 12.0220 0.5434
6.5125 12.3019 0.5346
6.5132 12.5921 0.5257
6.5139 12.8935 0.5170
6.5146 13.2065 0.5083
6.5154 13.5322 0.4997
6.5162 13.8711 0.4911
6.5170 14.2243 0.4826
6.5179 14.5928 0.4743
6.5198 14.9800 0.4661
6.5202 15.3812 0.4578
6.5207 15.8010 0.4497
6.5212 16.2410 0.4416
6.5217 16.7026 0.4337
6.5222 17.1876 0.4259
6.5227 17.6980 0.4182
6.5238 18.2371 0.4106
6.5245 18.8052 0.4031
6.5253 19.4058 0.3958
6.5262 20.0419 0.3887
6.5269 20.7164 0.3817
6.5282 21.4353 0.3749
6.5296 22.2014 0.3683
6.5311 23.0198 0.3619
6.5333 23.8984 0.3558
6.5360 24.8428 0.3500
6.5389 25.8597 0.3445
6.5338 26.9243 0.3389
6.5354 28.1054 0.3340
6.5371 29.3891 0.3295
6.5431 30.8089 0.3257
6.5482 32.3596 0.3224
6.5513 34.0542 0.3195
6.5507 35.9078 0.3171
6.5561 38.0016 0.3159
6.5617 40.3449 0.3156
6.5612 42.9430 0.3162
6.5716 45.9662 0.3187
6.5760 49.3805 0.3225
-6.3016 49.2231 0.3117
-6.8003 49.3474 0.3315
-7.3261 41.3418 0.3537
-6.3354 32.1433 0.3102
-6.6506 32.1134 0.3290
-6.9815 32.1535 0.3495
-7.2258 31.8024 0.3666
-7.1068 22.9609 0.4116
-7.1649 15.0745 0.5445
-7.5500 15.5013 0.5838
-21.4664 43.0258 1.6885
-21.4710 42.0263 1.7177
-21.4747 41.0620 1.7472
-21.4783 40.1322 1.7769
-21.4818 39.2349 1.8068
-21.4019 38.2197 1.8298
-21.4892 37.5323 1.8673
-21.4923 36.7221 1.8978
-21.4953 35.9379 1.9285
-21.4982 35.1782 1.9594
-21.5010 34.4419 1.9905
-21.5038 33.7278 2.0218
-21.4141 32.8929 2.0445
-21.5000 32.3480 2.0841
-21.5025 31.6942 2.1159
-21.5049 31.0585 2.1479
-21.5073 30.4401 2.1801
-21.5096 29.8381 2.2125
-21.5119 29.2518 2.2451
-21.5140 28.6805 2.2778
-21.5162 28.1236 2.3107
-21.4349 27.4734 2.3348
-21.5241 27.0549 2.3775
-21.5260 26.5372 2.4110
-21.5280 26.0315 2.4446
-21.5299 25.5373 2.4785
-21.5317 25.0541 2.5125
-21.5335 24.5815 2.5467
-21.5353 24.1191 2.5810
-21.5370 23.6665 2.6156
-21.8289 23.5362 2.6861
-21.5465 22.7954 2.6861
-21.2699 22.0808 2.6861
-20.9989 21.3911 2.6861
-20.7332 20.7250 2.6861
-20.4728 20.0817 2.6861
-20.2175 19.4600 2.6861
-19.9671 18.8590 2.6861
-19.7215 18.2772 2.6861
-7.2846 6.6246 1.0044
-19.6386 17.5237 2.7411
-19.6334 17.1892 2.7738
-19.6282 16.8602 2.8067
-19.6138 16.5289 2.8385
-19.3817 16.0233 2.8385
-19.1538 15.5332 2.8385
-18.9299 15.0581 2.8385
6.4999 5.2342 1.3746
6.5001 5.3352 1.3661
6.5002 5.4377 1.3577
6.5004 5.5419 1.3495
6.5006 5.6478 1.3414
6.5012 5.7558 1.3335
6.5015 5.8653 1.3258
6.5018 5.9767 1.3182
6.5021 6.0900 1.3108
6.5023 6.2054 1.3035
6.5026 6.3229 1.2964
6.5029 6.4426 1.2895
6.5032 6.5645 1.2827
6.5035 6.6888 1.2761
6.5038 6.8155 1.2697
6.5042 6.9448 1.2635
6.5045 7.0768 1.2574
6.5048 7.2114 1.2516
6.5052 7.3490 1.2459
6.5055 7.4895 1.2405
6.5059 7.6332 1.2353
6.5062 7.7800 1.2302
6.5066 7.9303 1.2254
6.5070 8.0841 1.2208
6.5074 8.2415 1.2165
6.5078 8.4028 1.2124
6.5082 8.5681 1.2085
6.5079 8.7367 1.2048
6.5079 8.9101 1.2013
6.5080 9.0879 1.1982
6.5080 9.2706 1.1953
6.5080 9.4582 1.1928
6.5081 9.6511 1.1905
6.5081 9.8495 1.1886
6.5081 10.0536 1.1869
6.5082 10.2638 1.1857
6.5082 10.4804 1.1847
6.5083 10.7038 1.1842
6.5083 10.9341 1.1840
6.5083 11.1720 1.1843
6.5084 11.4177 1.1850
6.5084 11.6717 1.1861
6.5115 11.9402 1.1883
6.5122 12.2135 1.1906
6.5128 12.4969 1.1933
6.5135 12.7907 1.1967
6.5142 13.0958 1.2006
6.5149 13.4128 1.2051
6.5157 13.7426 1.2104
6.5165 14.0858 1.2163
6.5173 14.4435 1.2230
6.5184 14.8171 1.2305
6.5188 15.2057 1.2388
6.5192 15.6119 1.2479
6.5196 16.0370 1.2581
6.5201 16.4826 1.2693
6.5206 16.9500 1.2816
6.5210 17.4412 1.2952
6.5226 17.9611 1.3103
6.5233 18.5062 1.3266
6.5241 19.0817 1.3445
6.5249 19.6901 1.3641
6.5257 20.3346 1.3854
6.5272 21.0205 1.4090
6.5285 21.7491 1.4347
6.5299 22.5255 1.4629
6.5314 23.3549 1.4937
6.5337 24.2457 1.5277
6.5364 25.2029 1.5650
6.5393 26.2338 1.6061
6.5361 27.3207 1.6498
6.5378 28.5187 1.6993
6.5414 29.8287 1.7545
6.5462 31.2636 1.8160
6.5475 32.8169 1.8835
6.5531 34.5477 1.9600
6.5537 36.4338 2.0442
6.5592 38.5583 2.1405
6.5646 40.9336 2.2496
6.5641 43.5686 2.3716
6.5692 46.5969 2.5136
-7.1515 49.1310 2.6615
-7.6270 49.1251 2.6861
-8.0254 48.6448 2.6861
-8.4124 48.1446 2.6861
-8.7877 47.6258 2.6861
-10.3996 48.5792 2.8385
-7.1919 32.1064 1.8999
-11.0762 47.3403 2.8385
-11.3946 46.7029 2.8385
-11.6997 46.0552 2.8385
-11.9916 45.3986 2.8385
-12.2702 44.7340 2.8385
-12.5357 44.0630 2.8385
-12.7882 43.3865 2.8385
-7.0153 22.9963 1.5286
-13.2548 42.0212 2.8385
-13.4693 41.3346 2.8385
-13.6716 40.6468 2.8385
-13.8619 39.9584 2.8385
-14.0404 39.2704 2.8385
-14.2075 38.5836 2.8385
-14.3633 37.8988 2.8385
-14.5083 37.2166 2.8385
-14.6426 36.5378 2.8385
-14.7667 35.8630 2.8385
-14.8807 35.1927 2.8385
-14.9850 34.5274 2.8385
-15.0800 33.8677 2.8385
-15.1659 33.2139 2.8385
-7.0537 15.0702 1.3135
-7.2261 15.0667 1.3395
-15.3724 31.2924 2.8385
-15.4253 30.6663 2.8385
-15.4706 30.0477 2.8385
-15.5086 29.4370 2.8385
-15.5398 28.8345 2.8385
-15.5643 28.2401 2.8385
-15.5825 27.6542 2.8385
-15.5946 27.0767 2.8385
-15.6009 26.5079 2.8385
-15.6017 25.9478 2.8385
-15.5972 25.3963 2.8385
-15.5876 24.8538 2.8385
-15.5732 24.3200 2.8385
-15.5542 23.7951 2.8385
-15.5309 23.2790 2.8385
-15.5034 22.7716 2.8385
-15.4720 22.2730 2.8385
-15.4369 21.7832 2.8385
-15.3982 21.3020 2.8385
-15.3562 20.8294 2.8385
-15.3110 20.3653 2.8385
-15.2629 19.9098 2.8385
-15.2118 19.4626 2.8385
-15.1582 19.0237 2.8385
-15.1020 18.5929 2.8385
-14.6495 15.7975 2.8385
-15.0434 18.1702 2.8385
-14.5779 15.4282 2.8385
-14.9826 17.7554 2.8385
-14.5049 15.0660 2.8385
-14.9197 17.3486 2.8385
-14.4306 14.7109 2.8385
-14.8548 16.9494 2.8385
-14.3551 14.3627 2.8385
-14.7881 16.5580 2.8385
-14.2784 14.0212 2.8385
-14.7196 16.1740 2.8385
-14.2007 13.6865 2.8385
-14.1220 13.3583 2.8385
-14.0424 13.0366 2.8385
-7.2742 6.6277 1.4788
-13.8809 12.4117 2.8385
-13.7990 12.1084 2.8385
-13.7166 11.8111 2.8385
-13.6335 11.5196 2.8385
-13.5500 11.2338 2.8385
-13.4660 10.9536 2.8385
6.4999 5.3544 1.7817
6.5001 5.4562 1.7761
6.5003 5.5597 1.7708
6.5005 5.6648 1.7657
6.5010 5.7719 1.7609
6.5012 5.8806 1.7563
6.5015 5.9911 1.7520
6.5018 6.1035 1.7479
6.5021 6.2179 1.7441
6.5023 6.3344 1.7406
6.5026 6.4530 1.7373
6.5029 6.5739 1.7344
6.5032 6.6970 1.7317
6.5035 6.8226 1.7293
6.5039 6.9506 1.7272
6.5042 7.0812 1.7254
6.5045 7.2145 1.7240
6.5048 7.3505 1.7229
6.5052 7.4895 1.7221
6.5055 7.6316 1.7217
6.5059 7.7767 1.7216
6.5062 7.9252 1.7219
6.5066 8.0770 1.7226
6.5070 8.2325 1.7237
6.5074 8.3917 1.7252
6.5078 8.5548 1.7272
6.5070 8.7204 1.7293
6.5070 8.8912 1.7320
6.5070 9.0665 1.7353
6.5071 9.2463 1.7390
6.5071 9.4311 1.7432
6.5071 9.6208 1.7480
6.5071 9.8159 1.7534
6.5072 10.0166 1.7593
6.5072 10.2231 1.7659
6.5072 10.4357 1.7731
6.5072 10.6549 1.7809
6.5072 10.8808 1.7895
6.5073 11.1139 1.7988
6.5073 11.3546 1.8089
6.5073 11.6033 1.8198
6.5112 11.8674 1.8326
6.5118 12.1346 1.8454
6.5124 12.4114 1.8592
6.5131 12.6983 1.8740
6.5138 12.9959 1.8899
6.5145 13.3049 1.9070
6.5153 13.6260 1.9252
6.5160 13.9600 1.9447
6.5168 14.3077 1.9656
6.5177 14.6701 1.9879
6.5174 15.0454 2.0115
6.5177 15.4389 2.0369
6.5181 15.8502 2.0640
6.5185 16.2808 2.0931
6.5189 16.7321 2.1242
6.5194 17.2056 2.1575
6.5199 17.7031 2.1931
6.5222 18.2319 2.2319
6.5229 18.7843 2.2730
6.5236 19.3674 2.3170
6.5244 19.9839 2.3643
6.5252 20.6370 2.4153
6.5275 21.3348 2.4706
6.5288 22.0733 2.5299
6.5302 22.8604 2.5939
6.5316 23.7008 2.6631
6.4088 24.1329 2.6861
6.2252 24.3559 2.6861
6.0370 24.5737 2.6861
5.8442 24.7861 2.6861
5.6471 24.9928 2.6861
5.4455 25.1936 2.6861
5.2398 25.3880 2.6861
5.0299 25.5760 2.6861
4.8219 25.7896 2.6894
4.7948 27.0409 2.8010
4.6247 27.5789 2.8385
4.3867 27.7471 2.8385
4.1449 27.9072 2.8385
3.8997 28.0586 2.8385
3.6510 28.2014 2.8385
3.3992 28.3351 2.8385
3.1445 28.4597 2.8385
2.8870 28.5749 2.8385
2.6269 28.6805 2.8385
2.3645 28.7764 2.8385
2.0999 28.8623 2.8385
1.8335 28.9382 2.8385
1.5654 29.0039 2.8385
1.2959 29.0593 2.8385
1.0251 29.1043 2.8385
0.7535 29.1388 2.8385
0.4811 29.1628 2.8385
0.2084 29.1761 2.8385
-0.0646 29.1789 2.8385
-0.3375 29.1711 2.8385
-0.6102 29.1528 2.8385
-0.8822 29.1237 2.8385
-1.1534 29.0843 2.8385
-1.4236 29.0344 2.8385
-1.6925 28.9741 2.8385
-1.9599 28.9036 2.8385
-2.2254 28.8229 2.8385
-2.4890 28.7322 2.8385
-2.7504 28.6318 2.8385
-3.0092 28.5215 2.8385
-3.2655 28.4019 2.8385
-3.5188 28.2729 2.8385
-3.7691 28.1348 2.8385
-4.0162 27.9879 2.8385
-4.2598 27.8324 2.8385
-4.4999 27.6685 2.8385
-4.7361 27.4964 2.8385
-4.9685 27.3165 2.8385
-5.1967 27.1289 2.8385
-5.4208 26.9340 2.8385
-5.6406 26.7320 2.8385
-5.6724 25.6923 2.7495
-5.7410 24.8959 2.6861
-5.9360 24.6862 2.6861
-6.1266 24.4712 2.6861
-6.3127 24.2509 2.6861
-6.4942 24.0256 2.6861
-6.6710 23.7956 2.6861
-6.8431 23.5611 2.6861
-7.0105 23.3226 2.6861
-7.1731 23.0801 2.6861
-7.3309 22.8340 2.6861
-7.4840 22.5846 2.6861
-7.6322 22.3321 2.6861
-7.7756 22.0768 2.6861
-7.9142 21.8190 2.6861
-8.0481 21.5589 2.6861
-8.1772 21.2968 2.6861
-8.3016 21.0328 2.6861
-8.4212 20.7672 2.6861
-8.5363 20.5004 2.6861
-8.6467 20.2324 2.6861
-8.7525 19.9635 2.6861
-8.8538 19.6940 2.6861
-8.9507 19.4239 2.6861
-7.0870 15.0104 2.1050
-7.2555 15.0040 2.1343
-9.7381 19.6687 2.8385
-9.8223 19.3833 2.8385
-9.9021 19.0982 2.8385
-9.9777 18.8138 2.8385
-10.0490 18.5300 2.8385
-10.1163 18.2471 2.8385
-10.1795 17.9653 2.8385
-10.2387 17.6847 2.8385
-10.2940 17.4054 2.8385
-10.3456 17.1275 2.8385
-10.3935 16.8512 2.8385
-10.4377 16.5765 2.8385
-10.4785 16.3035 2.8385
-10.5158 16.0324 2.8385
-10.6537 14.7074 2.8385
-10.5497 15.7632 2.8385
-10.6721 14.4490 2.8385
-10.5804 15.4961 2.8385
-10.6878 14.1929 2.8385
-10.7006 13.9392 2.8385
-10.6079 15.2310 2.8385
-10.7108 13.6880 2.8385
-10.6323 14.9681 2.8385
-10.7184 13.4392 2.8385
-10.7235 13.1929 2.8385
-10.7052 11.7696 2.8385
-10.7261 12.9492 2.8385
-10.6947 11.5416 2.8385
-10.7264 12.7080 2.8385
-10.6823 11.3163 2.8385
-10.7243 12.4695 2.8385
-10.6680 11.0937 2.8385
-10.7201 12.2335 2.8385
-10.6519 10.8737 2.8385
-10.7137 12.0003 2.8385
-10.6341 10.6564 2.8385
-10.6146 10.4418 2.8385
-10.5934 10.2299 2.8385
-10.5707 10.0207 2.8385
-10.5465 9.8141 2.8385
-7.2645 6.6357 1.9599
-10.4938 9.4089 2.8385
-10.4654 9.2102 2.8385
-10.4357 9.0141 2.8385
-10.4048 8.8207 2.8385
-10.3727 8.6298 2.8385
6.4999 5.4791 2.2043
6.5001 5.5819 2.2019
6.5003 5.6863 2.1997
6.5007 5.7926 2.1979
6.5010 5.9004 2.1965
6.5012 6.0101 2.1953
6.5015 6.1217 2.1946
6.5018 6.2352 2.1942
6.5021 6.3508 2.1941
6.5024 6.4684 2.1945
6.5027 6.5882 2.1952
6.5029 6.7102 2.1963
6.5033 6.8346 2.1979
6.5036 6.9614 2.1998
6.5039 7.0908 2.2022
6.5042 7.2228 2.2051
6.5045 7.3575 2.2084
6.5049 7.4950 2.2122
6.5052 7.6355 2.2165
6.5055 7.7790 2.2213
6.5059 7.9258 2.2266
6.5063 8.0759 2.2325
6.5066 8.2295 2.2389
6.5070 8.3866 2.2459
6.5074 8.5476 2.2535
6.5061 8.7104 2.2612
6.5061 8.8788 2.2699
6.5061 9.0516 2.2794
6.5061 9.2289 2.2895
6.5061 9.4108 2.3004
6.5061 9.5976 2.3120
6.5062 9.7896 2.3244
6.5062 9.9870 2.3377
6.5062 10.1900 2.3518
6.5062 10.3990 2.3668
6.5062 10.6142 2.3828
6.5062 10.8359 2.3998
6.5062 11.0646 2.4178
6.5062 11.3006 2.4369
6.5062 11.5442 2.4572
6.5109 11.8043 2.4805
6.5115 12.0659 2.5035
6.5121 12.3366 2.5278
6.5128 12.6169 2.5536
6.5134 12.9075 2.5809
6.5141 13.2090 2.6099
6.5148 13.5220 2.6405
6.5156 13.8474 2.6730
6.4651 14.0743 2.6861
6.3801 14.2324 2.6861
6.2924 14.3894 2.6861
6.2020 14.5452 2.6861
6.1089 14.6998 2.6861
6.0131 14.8530 2.6861
5.9146 15.0046 2.6861
5.8133 15.1547 2.6861
5.7094 15.3031 2.6861
5.6028 15.4497 2.6861
5.4935 15.5943 2.6861
5.3815 15.7368 2.6861
5.2669 15.8772 2.6861
5.1497 16.0152 2.6861
5.0298 16.1509 2.6861
4.9074 16.2841 2.6861
4.7945 16.4559 2.6929
4.7771 16.9770 2.7566
4.7653 17.5529 2.8288
4.6416 17.7417 2.8385
4.4991 17.8672 2.8385
4.3541 17.9894 2.8385
4.2066 18.1080 2.8385
4.0568 18.2230 2.8385
3.9047 18.3342 2.8385
3.7503 18.4416 2.8385
3.5937 18.5450 2.8385
3.4351 18.6443 2.8385
3.2744 18.7394 2.8385
3.1117 18.8302 2.8385
2.9472 18.9167 2.8385
2.7808 18.9987 2.8385
2.6128 19.0761 2.8385
2.4432 19.1488 2.8385
2.2720 19.2168 2.8385
2.0995 19.2800 2.8385
1.9256 19.3384 2.8385
1.7505 19.3917 2.8385
1.5743 19.4400 2.8385
1.3972 19.4833 2.8385
1.2191 19.5215 2.8385
1.0402 19.5545 2.8385
0.8607 19.5822 2.8385
0.6806 19.6048 2.8385
0.5001 19.6221 2.8385
0.3193 19.6341 2.8385
0.1382 19.6408 2.8385
-0.0429 19.6422 2.8385
-0.2240 19.6383 2.8385
-0.4049 19.6291 2.8385
-0.5856 19.6145 2.8385
-0.7659 19.5948 2.8385
-0.9458 19.5698 2.8385
-1.1250 19.5395 2.8385
-1.3035 19.5040 2.8385
-1.4812 19.4635 2.8385
-1.6579 19.4178 2.8385
-1.8336 19.3671 2.8385
-2.0081 19.3113 2.8385
-2.1813 19.2507 2.8385
-2.3533 19.1853 2.8385
-2.5237 19.1150 2.8385
-2.6926 19.0400 2.8385
-2.8598 18.9604 2.8385
-3.0253 18.8763 2.8385
-3.1890 18.7878 2.8385
-3.3507 18.6949 2.8385
-3.5105 18.5978 2.8385
-3.6681 18.4965 2.8385
-3.8237 18.3912 2.8385
-3.9770 18.2820 2.8385
-4.1280 18.1690 2.8385
-4.2767 18.0523 2.8385
-4.4230 17.9320 2.8385
-4.5668 17.8082 2.8385
-4.7082 17.6811 2.8385
-4.8469 17.5508 2.8385
-4.9831 17.4174 2.8385
-5.1166 17.2810 2.8385
-5.2474 17.1416 2.8385
-5.3755 16.9997 2.8385
-5.5009 16.8552 2.8385
-5.6234 16.7081 2.8385
-5.6862 16.3941 2.8103
-5.6959 15.9470 2.7589
-5.7051 15.5205 2.7105
-5.7589 15.2331 2.6861
-5.8616 15.0839 2.6861
-5.9615 14.9330 2.6861
-6.0588 14.7806 2.6861
-6.1533 14.6268 2.6861
-6.2451 14.4716 2.6861
-6.3343 14.3152 2.6861
-6.4207 14.1576 2.6861
-6.5045 13.9991 2.6861
-6.5856 13.8396 2.6861
-6.6640 13.6793 2.6861
-6.7398 13.5183 2.6861
-6.8130 13.3566 2.6861
-6.8836 13.1945 2.6861
-7.0801 12.7055 2.6861
-6.9516 13.0318 2.6861
-7.1405 12.5420 2.6861
-7.0171 12.8688 2.6861
-7.1985 12.3783 2.6861
-7.4063 11.7241 2.6861
-7.2540 12.2147 2.6861
-7.4524 11.5610 2.6861
-7.3072 12.0510 2.6861
-7.4962 11.3982 2.6861
-7.3579 11.8875 2.6861
-7.5378 11.2358 2.6861
-7.6493 10.7512 2.6861
-7.5771 11.0737 2.6861
-7.6823 10.5907 2.6861
-7.6143 10.9122 2.6861
-7.7132 10.4310 2.6861
-7.8169 9.7991 2.6861
-7.8380 9.6432 2.6861
-7.7420 10.2718 2.6861
-7.8573 9.4881 2.6861
-7.7689 10.1135 2.6861
-7.8749 9.3339 2.6861
-7.7939 9.9559 2.6861
-7.9170 8.8775 2.6861
-7.8906 9.1808 2.6861
-7.9278 8.7273 2.6861
-7.9047 9.0286 2.6861
-7.9369 8.5783 2.6861
-7.9580 7.9931 2.6861
-7.9444 8.4303 2.6861
-7.9596 7.8498 2.6861
-7.9504 8.2834 2.6861
-7.9598 7.7075 2.6861
-7.9549 8.1377 2.6861
-7.9587 7.5666 2.6861
-7.9562 7.4267 2.6861
-7.2569 6.6507 2.4512
-7.9475 7.1508 2.6861
-7.9413 7.0148 2.6861
-7.9339 6.8799 2.6861
-7.9253 6.7464 2.6861
6.4999 5.6093 2.6455
6.5002 5.7131 2.6463
6.5005 5.8186 2.6474
6.5007 5.9257 2.6490
6.5010 6.0346 2.6511
6.5013 6.1454 2.6535
6.5015 6.2581 2.6565
6.5018 6.3727 2.6599
6.5021 6.4894 2.6638
6.5024 6.6082 2.6682
6.5027 6.7293 2.6731
6.5030 6.8526 2.6785
6.5033 6.9783 2.6845
6.4917 7.0935 2.6861
6.4750 7.2051 2.6861
6.4569 7.3170 2.6861
6.4375 7.4294 2.6861
6.4168 7.5423 2.6861
6.3947 7.6555 2.6861
6.3711 7.7691 2.6861
6.3462 7.8830 2.6861
6.3198 7.9972 2.6861
6.2919 8.1118 2.6861
6.2626 8.2265 2.6861
6.2317 8.3414 2.6861
6.1994 8.4566 2.6861
6.1654 8.5718 2.6861
6.1300 8.6872 2.6861
6.0929 8.8027 2.6861
6.0542 8.9181 2.6861
6.0139 9.0336 2.6861
5.9720 9.1490 2.6861
5.9285 9.2643 2.6861
5.8832 9.3794 2.6861
5.8363 9.4944 2.6861
5.7877 9.6092 2.6861
5.7374 9.7236 2.6861
5.6853 9.8378 2.6861
5.6315 9.9516 2.6861
5.5760 10.0649 2.6861
5.5187 10.1777 2.6861
5.4597 10.2901 2.6861
5.3988 10.4019 2.6861
5.3362 10.5130 2.6861
5.2719 10.6234 2.6861
5.2057 10.7331 2.6861
5.1377 10.8419 2.6861
5.0680 10.9499 2.6861
4.9964 11.0570 2.6861
4.9231 11.1631 2.6861
4.8479 11.2682 2.6861
4.7821 11.3992 2.6923
4.7685 11.6611 2.7296
4.7612 11.9513 2.7730
4.7535 12.2539 2.8188
4.6978 12.4438 2.8385
4.6072 12.5469 2.8385
4.5148 12.6483 2.8385
4.4205 12.7482 2.8385
4.3245 12.8464 2.8385
4.2266 12.9428 2.8385
4.1271 13.0374 2.8385
4.0257 13.1301 2.8385
3.9227 13.2208 2.8385
3.8180 13.3095 2.8385
3.7117 13.3962 2.8385
3.6037 13.4806 2.8385
3.4941 13.5629 2.8385
3.3830 13.6428 2.8385
3.2704 13.7205 2.8385
3.1563 13.7957 2.8385
3.0407 13.8685 2.8385
2.9238 13.9387 2.8385
2.8054 14.0064 2.8385
2.6858 14.0715 2.8385
2.5650 14.1339 2.8385
2.4429 14.1935 2.8385
2.3196 14.2504 2.8385
2.1953 14.3044 2.8385
2.0699 14.3555 2.8385
1.9435 14.4038 2.8385
1.8161 14.4490 2.8385
1.6879 14.4913 2.8385
1.5588 14.5306 2.8385
1.4290 14.5667 2.8385
1.2984 14.5998 2.8385
1.1672 14.6297 2.8385
1.0355 14.6564 2.8385
0.9032 14.6800 2.8385
0.7704 14.7004 2.8385
0.6373 14.7176 2.8385
0.5039 14.7315 2.8385
0.3702 14.7421 2.8385
0.2363 14.7495 2.8385
0.1023 14.7537 2.8385
-0.0317 14.7545 2.8385
-0.1658 14.7521 2.8385
-0.2997 14.7465 2.8385
-0.4335 14.7375 2.8385
-0.5671 14.7253 2.8385
-0.7004 14.7098 2.8385
-0.8333 14.6912 2.8385
-0.9659 14.6693 2.8385
-1.0979 14.6442 2.8385
-1.2294 14.6159 2.8385
-1.3603 14.5845 2.8385
-1.4905 14.5500 2.8385
-1.6200 14.5124 2.8385
-1.7487 14.4717 2.8385
-1.8765 14.4280 2.8385
-2.0034 14.3813 2.8385
-2.1294 14.3317 2.8385
-2.2543 14.2792 2.8385
-2.3781 14.2238 2.8385
-2.5008 14.1656 2.8385
-2.6223 14.1047 2.8385
-2.7426 14.0410 2.8385
-2.8616 13.9747 2.8385
-2.9793 13.9058 2.8385
-3.0956 13.8343 2.8385
-3.2105 13.7604 2.8385
-3.3239 13.6840 2.8385
-3.8678 13.2678 2.8385
-3.9717 13.1781 2.8385
-4.0739 13.0864 2.8385
-4.1744 12.9928 2.8385
-4.2732 12.8974 2.8385
-4.3702 12.8001 2.8385
-4.4654 12.7012 2.8385
-4.5588 12.6005 2.8385
-4.6503 12.4983 2.8385
-4.7401 12.3945 2.8385
-4.8280 12.2893 2.8385
-4.9140 12.1827 2.8385
-4.9981 12.0747 2.8385
-5.0804 11.9655 2.8385
-5.4635 11.4027 2.8385
-5.1608 11.8551 2.8385
-5.5344 11.2873 2.8385
-5.2393 11.7436 2.8385
-5.6034 11.1710 2.8385
-5.3159 11.6309 2.8385
-5.3906 11.5173 2.8385
-5.6706 11.0540 2.8385
-5.7091 10.4221 2.7650
-5.6988 10.8656 2.8201
-5.7139 10.2104 2.7395
-5.8587 9.4400 2.6861
-5.7041 10.6404 2.7919
-5.7185 10.0050 2.7152
-5.9048 9.3249 2.6861
-6.1106 8.7480 2.6861
-5.7229 9.8055 2.6920
-5.9493 9.2097 2.6861
-6.1470 8.6326 2.6861
-5.7614 9.6695 2.6861
-5.9921 9.0943 2.6861
-6.1817 8.5172 2.6861
-5.8109 9.5549 2.6861
-6.0332 8.9789 2.6861
-6.2149 8.4020 2.6861
-3.4358 13.6052 2.8385
-6.3053 8.0575 2.6861
-6.0727 8.8634 2.6861
-6.2465 8.2870 2.6861
-6.3325 7.9431 2.6861
-6.4469 7.3762 2.6861
-6.2767 8.1722 2.6861
-3.5462 13.5242 2.8385
-6.3582 7.8290 2.6861
-6.4656 7.2640 2.6861
-3.6550 13.4409 2.8385
-6.3824 7.7152 2.6861
-6.4831 7.1522 2.6861
-3.7622 13.3554 2.8385
-6.4053 7.6018 2.6861
-6.4992 7.0409 2.6861
-6.4268 7.4888 2.6861
-6.5399 6.7101 2.6861
-6.5140 6.9301 2.6861
-6.5511 6.6010 2.6861
-6.5276 6.8199 2.6861
-6.5610 6.4924 2.6861
-6.5698 6.3844 2.6861
-6.5774 6.2770 2.6861
-6.5838 6.1703 2.6861
-6.5892 6.0642 2.6861
-6.5935 5.9588 2.6861
-6.5967 5.8540 2.6861
-6.5989 5.7499 2.6861
5.6168 4.9653 2.6861
5.5595 5.4737 2.6861
5.6095 5.0492 2.6861
5.5467 5.5596 2.6861
5.6014 5.1333 2.6861
5.5328 5.6459 2.6861
5.5923 5.2179 2.6861
5.5180 5.7323 2.6861
5.5823 5.3028 2.6861
5.4673 5.9933 2.6861
5.5021 5.8191 2.6861
5.5714 5.3881 2.6861
5.4483 6.0808 2.6861
5.4852 5.9061 2.6861
5.3371 6.5205 2.6861
5.4282 6.1684 2.6861
5.1661 7.0506 2.6861
5.3115 6.6088 2.6861
4.9520 7.5784 2.6861
5.4071 6.2563 2.6861
5.1335 7.1389 2.6861
5.2847 6.6972 2.6861
5.3849 6.3442 2.6861
5.0996 7.2271 2.6861
4.9119 7.6656 2.6861
5.2568 6.7855 2.6861
5.3615 6.4323 2.6861
5.0646 7.3152 2.6861
4.8706 7.7527 2.6861
5.2278 6.8739 2.6861
5.0283 7.4031 2.6861
4.7605 8.2145 2.7249
5.1976 6.9623 2.6861
4.8281 7.8394 2.6861
4.9907 7.4908 2.6861
4.7562 8.3785 2.7504
4.7842 7.9258 2.6861
4.6359 9.0890 2.8385
4.7517 8.5475 2.7770
4.2635 9.5965 2.8385
4.7650 8.0556 2.7007
4.5773 9.1755 2.8385
4.7469 8.7214 2.8050
4.1967 9.6780 2.8385
4.7420 8.9006 2.8342
3.8424 10.0706 2.8385
4.5173 9.2613 2.8385
4.1285 9.7586 2.8385
4.6932 9.0018 2.8385
3.3746 10.5027 2.8385
4.4559 9.3463 2.8385
3.7676 10.1458 2.8385
4.0590 9.8382 2.8385
3.2924 10.5700 2.8385
2.8635 10.8838 2.8385
4.3931 9.4305 2.8385
3.6916 10.2198 2.8385
3.9881 9.9168 2.8385
3.2089 10.6358 2.8385
2.7744 10.9418 2.8385
4.3290 9.5139 2.8385
3.6142 10.2925 2.8385
3.9159 9.9943 2.8385
2.6843 10.9981 2.8385
3.1242 10.7002 2.8385
2.3138 11.2056 2.8385
3.5356 10.3639 2.8385
1.7317 11.4606 2.8385
2.5931 11.0526 2.8385
3.0384 10.7630 2.8385
2.2188 11.2529 2.8385
3.4557 10.4340 2.8385
1.6320 11.4961 2.8385
2.5010 11.1054 2.8385
2.9515 10.8242 2.8385
2.1230 11.2984 2.8385
1.5317 11.5296 2.8385
1.1246 11.6425 2.8385
2.4078 11.1564 2.8385
0.5009 11.7467 2.8385
1.4308 11.5610 2.8385
1.0216 11.6653 2.8385
-0.1302 11.7705 2.8385
2.0264 11.3419 2.8385
0.3960 11.7563 2.8385
1.3292 11.5903 2.8385
0.9181 11.6860 2.8385
-0.2355 11.7666 2.8385
1.9289 11.3834 2.8385
0.2909 11.7637 2.8385
1.2272 11.6175 2.8385
0.8143 11.7045 2.8385
-0.3407 11.7605 2.8385
1.8307 11.4230 2.8385
0.1857 11.7688 2.8385
-0.7595 11.7134 2.8385
0.7101 11.7208 2.8385
-0.4457 11.7520 2.8385
-1.3774 11.5767 2.8385
0.0804 11.7716 2.8385
-0.8635 11.6961 2.8385
0.6056 11.7349 2.8385
-0.5505 11.7414 2.8385
-1.4786 11.5464 2.8385
-0.0249 11.7722 2.8385
-0.9671 11.6765 2.8385
-0.6551 11.7285 2.8385
-1.9751 11.3640 2.8385
-1.5793 11.5140 2.8385
-2.5447 11.0807 2.8385
-1.0704 11.6548 2.8385
-3.0792 10.7334 2.8385
-2.0722 11.3215 2.8385
-2.6364 11.0270 2.8385
-1.6793 11.4796 2.8385
-1.1732 11.6309 2.8385
-3.1644 10.6699 2.8385
-2.1685 11.2771 2.8385
-1.2756 11.6049 2.8385
-1.7786 11.4430 2.8385
-2.7271 10.9717 2.8385
-3.2485 10.6049 2.8385
-2.2639 11.2308 2.8385
-3.5730 10.3302 2.8385
-1.8773 11.4045 2.8385
-3.3315 10.5383 2.8385
-2.8167 10.9146 2.8385
-2.3584 11.1826 2.8385
-3.6510 10.2582 2.8385
-3.4132 10.4703 2.8385
-4.0218 9.8798 2.8385
-2.9053 10.8558 2.8385
-2.4521 11.1325 2.8385
-3.7277 10.1849 2.8385
-3.4937 10.4010 2.8385
-2.9928 10.7954 2.8385
-4.0921 9.8007 2.8385
-4.4230 9.3907 2.8385
-5.0778 8.3323 2.8385
-3.8032 10.1104 2.8385
-4.7751 8.8721 2.8385
-4.1610 9.7206 2.8385
-5.1235 8.2409 2.8385
-3.8774 10.0346 2.8385
-4.4851 9.3061 2.8385
-4.8289 8.7834 2.8385
-4.2285 9.6395 2.8385
-5.1678 8.1490 2.8385
-3.9503 9.9577 2.8385
-4.5459 9.2207 2.8385
-4.8814 8.6942 2.8385
-5.2108 8.0570 2.8385
-4.2947 9.5575 2.8385
-5.3319 7.7791 2.8385
-4.6052 9.1346 2.8385
-4.9326 8.6044 2.8385
-5.2525 7.9646 2.8385
-4.3595 9.4746 2.8385
-5.3696 7.6862 2.8385
-4.6632 9.0478 2.8385
-5.2929 7.8720 2.8385
-4.9823 8.5141 2.8385
-5.5391 7.2197 2.8385
-4.7198 8.9603 2.8385
-5.4061 7.5931 2.8385
-5.7017 6.6602 2.8385
-5.0307 8.4234 2.8385
-5.5692 7.1263 2.8385
-5.7082 6.5484 2.8303
-5.4412 7.4998 2.8385
-5.7101 6.4337 2.8205
-5.5981 7.0329 2.8385
-5.4751 7.4065 2.8385
-5.7119 6.3210 2.8113
-5.6258 6.9396 2.8385
-5.7137 6.2105 2.8027
-5.5077 7.3131 2.8385
-5.6523 6.8463 2.8385
-5.7153 6.1019 2.7946
-5.7168 5.9952 2.7870
-5.6776 6.7531 2.8385
-5.7183 5.8904 2.7800
-5.7196 5.7873 2.7734
-5.7209 5.6859 2.7673
-5.7221 5.5863 2.7618
-5.7232 5.4882 2.7566
-5.7242 5.3917 2.7519
-5.7252 5.2967 2.7477
-5.7261 5.2031 2.7439
-5.7269 5.1109 2.7405
