ply
format ascii 1.0
element vertex 2010
property float32 x
property float32 y
property float32 z
end_header
6.4989 3.3497 -2.3809
6.5008 4.2343 -2.7394
6.4991 3.4332 -2.4140
6.4998 3.7775 -2.5524
6.5010 4.3296 -2.7789
6.4993 3.5177 -2.4478
6.5012 4.4263 -2.8192
6.4995 3.6032 -2.4821
6.5014 4.5246 -2.8602
6.4996 3.6898 -2.5169
6.5016 4.6243 -2.9020
6.5018 4.7257 -2.9447
6.5021 4.8287 -2.9882
6.5030 5.2588 -3.1716
6.5023 4.9335 -3.0326
6.5032 5.3712 -3.2199
6.5025 5.0400 -3.0780
6.5035 5.4856 -3.2693
6.5027 5.1485 -3.1243
6.5037 5.6023 -3.3199
6.5042 5.8424 -3.4244
6.5040 5.7212 -3.3716
6.5073 6.4894 -3.7097
6.5045 5.9661 -3.4786
6.5077 6.6271 -3.7710
6.5048 6.0924 -3.5340
6.5081 6.7681 -3.8339
6.5065 6.2227 -3.5916
6.5085 6.9123 -3.8984
6.5069 6.3546 -3.6499
6.5094 7.2114 -4.0329
6.5099 7.3666 -4.1030
6.5103 7.5257 -4.1750
6.5090 7.0601 -3.9648
6.5108 7.6889 -4.2491
6.5118 8.0287 -4.4041
6.5113 7.8565 -4.3255
6.5123 8.2057 -4.4852
6.5146 8.9668 -4.8360
6.5129 8.3877 -4.5687
6.5134 8.5751 -4.6550
6.5152 9.1718 -4.9310
6.5140 8.7680 -4.7440
6.5211 9.3909 -5.0334
6.5218 10.0672 -5.3493
6.5213 9.6089 -5.1350
6.5221 10.3083 -5.4624
6.5216 9.8342 -5.2402
6.5224 10.5580 -5.5798
6.5000 3.8664 -2.5885
6.5233 11.3643 -5.9605
6.5227 10.8168 -5.7017
6.5237 11.6542 -6.0980
6.5230 11.0854 -5.8286
6.5002 3.9565 -2.6252
6.5240 11.9559 -6.2413
6.5004 4.0478 -2.6626
6.5006 4.1404 -2.7007
17.5461 32.9980 -17.1870
17.1374 33.0878 -17.1961
-6.2696 16.2043 -8.2664
-6.9305 15.8256 -8.1278
-6.1867 15.4858 -7.9125
-7.5363 14.9448 -7.7504
-7.2374 16.0490 -8.2576
-6.4223 15.5801 -7.9739
-7.5984 14.6707 -7.6245
-7.3578 15.8538 -8.1726
-7.6491 14.3854 -7.4926
-6.6625 15.6759 -8.0367
-7.3073 15.3077 -7.9064
-7.4345 15.1492 -7.8402
-7.2880 7.1175 -4.0881
6.4990 3.4518 -2.0349
6.4991 3.5359 -2.0660
6.4993 3.6211 -2.0975
6.4995 3.7073 -2.1296
6.4997 3.7946 -2.1621
6.4999 3.8830 -2.1952
6.5001 3.9726 -2.2289
6.5002 4.0634 -2.2631
6.5004 4.1555 -2.2978
6.5006 4.2488 -2.3332
6.5008 4.3436 -2.3693
6.5010 4.4397 -2.4059
6.5012 4.5373 -2.4433
6.5015 4.6364 -2.4813
6.5017 4.7371 -2.5201
6.5019 4.8394 -2.5596
6.5021 4.9434 -2.5998
6.5023 5.0491 -2.6409
6.5026 5.1567 -2.6828
6.5028 5.2662 -2.7255
6.5030 5.3776 -2.7692
6.5033 5.4911 -2.8138
6.5035 5.6067 -2.8593
6.5038 5.7245 -2.9058
6.5040 5.8446 -2.9534
6.5043 5.9671 -3.0020
6.5045 6.0921 -3.0518
6.5062 6.2210 -3.1034
6.5066 6.3515 -3.1556
6.5069 6.4848 -3.2090
6.5073 6.6210 -3.2638
6.5077 6.7603 -3.3200
6.5082 6.9028 -3.3776
6.5086 7.0487 -3.4367
6.5090 7.1981 -3.4974
6.5095 7.3511 -3.5597
6.5099 7.5081 -3.6237
6.5104 7.6690 -3.6895
6.5109 7.8341 -3.7572
6.5114 8.0038 -3.8269
6.5119 8.1780 -3.8986
6.5124 8.3571 -3.9725
6.5129 8.5413 -4.0486
6.5135 8.7309 -4.1272
6.5140 8.9262 -4.2082
6.5146 9.1274 -4.2919
6.5199 9.3417 -4.3816
6.5202 9.5555 -4.4708
6.5204 9.7762 -4.5631
6.5206 10.0042 -4.6587
6.5209 10.2401 -4.7577
6.5212 10.4842 -4.8603
6.5214 10.7371 -4.9668
6.5217 10.9992 -5.0775
6.5220 11.2712 -5.1924
6.5223 11.5536 -5.3120
6.5226 11.8472 -5.4366
6.5188 12.1450 -5.5628
6.5164 12.4579 -5.6957
6.5173 12.7904 -5.8374
6.5182 13.1375 -5.9856
6.5191 13.5004 -6.1407
6.9039 14.6972 -6.6743
17.3125 37.9059 -17.1870
-5.7682 16.1842 -7.2591
-5.9503 16.1425 -7.2490
-5.9995 15.7508 -7.0819
-6.6860 15.5118 -7.0123
-6.2032 15.7727 -7.1009
-6.2623 15.4335 -6.9574
-6.9403 15.6378 -7.0797
-6.5830 15.7359 -7.1035
-7.1521 15.6598 -7.1003
-7.4255 14.9664 -6.8188
-7.2600 15.4554 -7.0186
-7.5668 14.8503 -6.7776
-7.3959 15.3162 -6.9666
-7.6038 14.5368 -6.6462
-7.9538 14.8188 -6.7874
-8.0203 14.5676 -6.6849
-7.2890 7.1154 -3.5351
6.4990 3.5527 -1.6931
6.4992 3.6375 -1.7221
6.4993 3.7232 -1.7515
6.4995 3.8101 -1.7813
6.4997 3.8980 -1.8116
6.4999 3.9872 -1.8423
6.5001 4.0775 -1.8735
6.5003 4.1690 -1.9052
6.5005 4.2618 -1.9374
6.5007 4.3560 -1.9702
6.5009 4.4515 -2.0035
6.5011 4.5485 -2.0374
6.5013 4.6469 -2.0719
6.5015 4.7469 -2.1069
6.5017 4.8485 -2.1427
6.5019 4.9517 -2.1790
6.5021 5.0567 -2.2161
6.5024 5.1634 -2.2538
6.5026 5.2720 -2.2923
6.5028 5.3825 -2.3315
6.5031 5.4950 -2.3716
6.5033 5.6096 -2.4124
6.5035 5.7263 -2.4541
6.5038 5.8453 -2.4967
6.5040 5.9666 -2.5402
6.5043 6.0904 -2.5846
6.5058 6.2179 -2.6306
6.5062 6.3469 -2.6771
6.5066 6.4787 -2.7247
6.5070 6.6134 -2.7734
6.5074 6.7511 -2.8233
6.5078 6.8918 -2.8744
6.5082 7.0359 -2.9268
6.5086 7.1834 -2.9805
6.5091 7.3344 -3.0356
6.5095 7.4892 -3.0921
6.5100 7.6479 -3.1502
6.5104 7.8106 -3.2098
6.5109 7.9777 -3.2711
6.5114 8.1492 -3.3342
6.5119 8.3255 -3.3991
6.5124 8.5066 -3.4659
6.5130 8.6930 -3.5347
6.5135 8.8849 -3.6057
6.5141 9.0825 -3.6789
6.5189 9.2921 -3.7568
6.5191 9.5017 -3.8346
6.5193 9.7180 -3.9150
6.5195 9.9414 -3.9982
6.5197 10.1722 -4.0842
6.5200 10.4109 -4.1733
6.5202 10.6580 -4.2656
6.5205 10.9139 -4.3614
6.5207 11.1793 -4.4608
6.5210 11.4546 -4.5641
6.5213 11.7406 -4.6714
6.5216 12.0379 -4.7832
6.5159 12.3360 -4.8951
6.5167 12.6590 -5.0168
6.5176 12.9958 -5.1439
6.5185 13.3475 -5.2767
6.5195 13.7152 -5.4157
6.5205 14.1000 -5.5613
6.5215 14.5033 -5.7140
6.5226 14.9265 -5.8744
6.5340 15.3952 -6.0527
6.5349 15.8630 -6.2303
-5.6634 16.1321 -6.3073
-5.8623 16.1468 -6.3183
-6.6623 15.6977 -6.1716
-6.0629 16.1614 -6.3296
-6.8357 15.6431 -6.1565
-6.2441 16.1213 -6.3196
-6.9148 15.3781 -6.0587
-6.2671 15.6840 -6.1540
-7.2086 15.5882 -6.1482
-6.4639 15.6910 -6.1627
-7.2330 15.2165 -6.0085
-8.0664 14.5226 -5.7784
-7.2749 14.8965 -5.8891
-7.8547 15.6621 -6.1993
-7.4331 14.4391 -5.7223
-7.9345 15.0219 -5.9610
-8.0013 14.7694 -5.8686
-7.2913 7.1129 -3.0001
6.4990 3.6529 -1.3539
6.4992 3.7382 -1.3808
6.4994 3.8246 -1.4080
6.4996 3.9121 -1.4356
6.4997 4.0008 -1.4636
6.4999 4.0906 -1.4920
6.5001 4.1816 -1.5208
6.5003 4.2739 -1.5501
6.5005 4.3674 -1.5798
6.5007 4.4624 -1.6099
6.5009 4.5587 -1.6405
6.5011 4.6565 -1.6717
6.5013 4.7558 -1.7033
6.5015 4.8566 -1.7354
6.5017 4.9591 -1.7681
6.5020 5.0632 -1.8014
6.5022 5.1691 -1.8352
6.5024 5.2768 -1.8697
6.5026 5.3864 -1.9048
6.5029 5.4979 -1.9405
6.5031 5.6115 -1.9770
6.5033 5.7272 -2.0141
6.5036 5.8450 -2.0520
6.5038 5.9652 -2.0907
6.5041 6.0877 -2.1301
6.5055 6.2138 -2.1708
6.5059 6.3415 -2.2119
6.5062 6.4718 -2.2540
6.5066 6.6050 -2.2970
6.5070 6.7410 -2.3410
6.5074 6.8801 -2.3860
6.5078 7.0224 -2.4321
6.5082 7.1680 -2.4793
6.5087 7.3171 -2.5277
6.5091 7.4697 -2.5772
6.5095 7.6262 -2.6281
6.5100 7.7866 -2.6802
6.5105 7.9512 -2.7338
6.5109 8.1201 -2.7887
6.5114 8.2936 -2.8453
6.5120 8.4718 -2.9034
6.5125 8.6551 -2.9632
6.5130 8.8436 -3.0247
6.5136 9.0377 -3.0882
6.5178 9.2429 -3.1553
6.5180 9.4485 -3.2225
6.5182 9.6605 -3.2919
6.5184 9.8793 -3.3636
6.5186 10.1053 -3.4377
6.5188 10.3388 -3.5143
6.5190 10.5804 -3.5935
6.5193 10.8304 -3.6756
6.5195 11.0894 -3.7607
6.5197 11.3580 -3.8490
6.5200 11.6367 -3.9407
6.5203 11.9261 -4.0359
6.5154 12.2175 -4.1318
6.5162 12.5314 -4.2352
6.5171 12.8586 -4.3430
6.5179 13.1997 -4.4556
6.5189 13.5560 -4.5731
6.5198 13.9285 -4.6961
6.5208 14.3183 -4.8248
6.5219 14.7268 -4.9598
6.5230 15.1555 -5.1016
6.5330 15.6271 -5.2577
6.5338 16.1010 -5.4145
6.5347 16.6004 -5.5798
6.5357 17.1277 -5.7544
6.5367 17.6853 -5.9391
6.5331 18.2631 -6.1305
-7.3578 31.7567 -10.6205
-5.4129 15.6482 -5.2506
-5.6374 15.7593 -5.2901
-5.8666 15.8727 -5.3304
-6.1205 16.0398 -5.3889
-5.9366 15.0813 -5.0692
-6.4565 15.9106 -5.3504
-6.6244 15.8460 -5.3313
-6.7873 15.7698 -5.3084
-6.9269 15.6415 -5.2679
-7.1352 15.6674 -5.2795
-7.2299 15.4455 -5.2076
-7.4264 15.4434 -5.2099
-7.4098 15.0060 -5.0653
-7.3285 14.4597 -4.8838
-7.1953 13.8375 -4.6766
-8.0966 15.1826 -5.1345
-8.1707 14.9450 -5.0575
-8.2431 14.7121 -4.9821
6.4991 3.7527 -1.0157
6.4992 3.8386 -1.0406
6.4994 3.9257 -1.0657
6.4996 4.0138 -1.0911
6.4998 4.1031 -1.1168
6.5000 4.1936 -1.1429
6.5002 4.2854 -1.1693
6.5003 4.3784 -1.1961
6.5005 4.4727 -1.2233
6.5007 4.5684 -1.2508
6.5009 4.6655 -1.2787
6.5011 4.7641 -1.3071
6.5014 4.8642 -1.3359
6.5016 4.9660 -1.3651
6.5018 5.0693 -1.3948
6.5020 5.1744 -1.4250
6.5022 5.2812 -1.4556
6.5024 5.3899 -1.4868
6.5027 5.5005 -1.5185
6.5029 5.6130 -1.5508
6.5031 5.7276 -1.5837
6.5034 5.8444 -1.6171
6.5036 5.9634 -1.6512
6.5039 6.0847 -1.6859
6.5052 6.2094 -1.7216
6.5055 6.3357 -1.7578
6.5059 6.4647 -1.7947
6.5063 6.5963 -1.8323
6.5067 6.7308 -1.8708
6.5070 6.8683 -1.9101
6.5074 7.0088 -1.9502
6.5079 7.1526 -1.9913
6.5083 7.2997 -2.0333
6.5087 7.4503 -2.0763
6.5091 7.6046 -2.1204
6.5096 7.7628 -2.1655
6.5100 7.9249 -2.2118
6.5105 8.0913 -2.2592
6.5110 8.2621 -2.3079
6.5115 8.4375 -2.3579
6.5120 8.6177 -2.4093
6.5125 8.8031 -2.4621
6.5131 8.9937 -2.5164
6.5136 9.1900 -2.5723
6.5170 9.3963 -2.6310
6.5171 9.6042 -2.6901
6.5173 9.8187 -2.7512
6.5175 10.0400 -2.8141
6.5177 10.2686 -2.8791
6.5179 10.5049 -2.9463
6.5181 10.7492 -3.0158
6.5183 11.0022 -3.0877
6.5185 11.2643 -3.1622
6.5188 11.5360 -3.2394
6.5190 11.8181 -3.3195
6.5192 12.1110 -3.4026
6.5157 12.4084 -3.4871
6.5165 12.7263 -3.5774
6.5174 13.0575 -3.6714
6.5183 13.4030 -3.7694
6.5192 13.7638 -3.8717
6.5202 14.1410 -3.9787
6.5212 14.5358 -4.0907
6.5223 14.9497 -4.2080
6.5312 15.4023 -4.3363
6.5320 15.8583 -4.4656
6.5328 16.3382 -4.6016
6.5337 16.8439 -4.7449
6.5346 17.3779 -4.8962
6.5355 17.9425 -5.0561
6.5327 18.5299 -5.2224
6.5338 19.1646 -5.4022
6.5350 19.8397 -5.5933
6.5362 20.5594 -5.7971
6.5335 21.3151 -6.0110
6.5352 22.1391 -6.2443
-6.4937 33.1717 -9.3651
-6.7251 32.5497 -9.1887
-7.1815 33.0179 -9.3200
-7.3946 32.3697 -9.1361
-7.7122 32.2105 -9.0902
-5.2996 15.5447 -4.3818
-5.5182 15.6526 -4.4115
-5.7415 15.7628 -4.4419
-5.9695 15.8752 -4.4728
-5.6995 14.6936 -4.1391
-6.2988 15.7530 -4.4368
-6.4813 15.7355 -4.4310
-6.6649 15.7179 -4.4252
-6.8495 15.6999 -4.4192
-7.1215 15.8739 -4.4673
-7.0732 15.3404 -4.3162
-7.2798 15.3698 -4.3235
-7.4914 15.4041 -4.3322
-7.8227 15.6728 -4.4067
-7.1800 14.0220 -3.9416
-7.9583 15.1557 -4.2592
-8.0292 14.9163 -4.1908
-8.4987 15.4071 -4.3276
-8.6303 15.2728 -4.2887
6.4991 3.8526 -0.6772
6.4993 3.9392 -0.7000
6.4994 4.0269 -0.7230
6.4996 4.1157 -0.7462
6.4998 4.2056 -0.7697
6.5000 4.2968 -0.7934
6.5002 4.3892 -0.8174
6.5004 4.4830 -0.8417
6.5006 4.5781 -0.8664
6.5008 4.6745 -0.8913
6.5010 4.7724 -0.9165
6.5012 4.8718 -0.9421
6.5014 4.9728 -0.9681
6.5016 5.0754 -0.9944
6.5018 5.1796 -1.0210
6.5020 5.2856 -1.0481
6.5022 5.3934 -1.0756
6.5025 5.5030 -1.1035
6.5027 5.6146 -1.1318
6.5029 5.7282 -1.1606
6.5032 5.8439 -1.1899
6.5034 5.9617 -1.2197
6.5037 6.0818 -1.2500
6.5049 6.2052 -1.2810
6.5052 6.3302 -1.3124
6.5056 6.4578 -1.3444
6.5059 6.5880 -1.3770
6.5063 6.7209 -1.4102
6.5067 6.8568 -1.4441
6.5071 6.9956 -1.4787
6.5075 7.1376 -1.5140
6.5079 7.2828 -1.5500
6.5083 7.4315 -1.5869
6.5087 7.5837 -1.6245
6.5092 7.7397 -1.6630
6.5096 7.8995 -1.7025
6.5101 8.0634 -1.7428
6.5105 8.2316 -1.7842
6.5110 8.4042 -1.8265
6.5115 8.5815 -1.8700
6.5120 8.7638 -1.9146
6.5126 8.9512 -1.9604
6.5131 9.1440 -2.0075
6.5160 9.3459 -2.0566
6.5161 9.5499 -2.1062
6.5163 9.7601 -2.1573
6.5165 9.9770 -2.2100
6.5166 10.2008 -2.2642
6.5168 10.4320 -2.3202
6.5170 10.6710 -2.3779
6.5172 10.9182 -2.4376
6.5174 11.1741 -2.4993
6.5176 11.4393 -2.5632
6.5178 11.7142 -2.6293
6.5180 11.9996 -2.6978
6.5152 12.2904 -2.7677
6.5160 12.5996 -2.8417
6.5169 12.9214 -2.9187
6.5177 13.2568 -2.9989
6.5186 13.6065 -3.0824
6.5196 13.9719 -3.1695
6.5205 14.3538 -3.2605
6.5216 14.7537 -3.3557
6.5226 15.1727 -3.4553
6.5302 15.6280 -3.5633
6.5310 16.0896 -3.6728
6.5318 16.5755 -3.7880
6.5326 17.0876 -3.9093
6.5335 17.6282 -4.0372
6.5312 18.1913 -4.1704
6.5323 18.7969 -4.3135
6.5334 19.4398 -4.4652
6.5345 20.1237 -4.6265
6.5358 20.8527 -4.7983
6.5338 21.6208 -4.9792
6.5355 22.4558 -5.1757
6.5374 23.3527 -5.3865
6.5414 24.3265 -5.6153
6.5447 25.3752 -5.8615
6.5483 26.5124 -6.1283
-4.2679 23.3969 -5.4267
-4.4873 23.2419 -5.3881
-4.7394 23.2593 -5.3893
-5.0010 23.3147 -5.3991
-5.2800 23.4374 -5.4244
-7.5063 31.7915 -7.3533
-8.0232 32.4845 -7.5088
-5.3255 15.8459 -3.6397
-5.5229 15.8927 -3.6470
-5.7229 15.9400 -3.6543
-5.7314 15.4644 -3.5417
-5.9386 15.5341 -3.5539
-5.7958 14.7081 -3.3612
-6.1698 15.2001 -3.4698
-6.6715 15.9661 -3.6404
-6.8328 15.8943 -3.6196
-6.9577 15.7404 -3.5801
-7.1212 15.6762 -3.5609
-7.2155 15.4635 -3.5079
-7.2932 15.2234 -3.4487
-7.5559 15.3685 -3.4766
-7.1641 14.2049 -3.2087
-8.1097 15.6812 -3.5368
-8.2417 15.5473 -3.5011
-8.3098 15.2984 -3.4395
-8.4408 15.1706 -3.4050
-8.5710 15.0435 -3.3707
-8.7004 14.9172 -3.3365
6.4991 3.9531 -0.3369
6.4993 4.0403 -0.3575
6.4995 4.1286 -0.3784
6.4997 4.2180 -0.3994
6.4998 4.3087 -0.4206
6.5000 4.4006 -0.4420
6.5002 4.4937 -0.4636
6.5004 4.5882 -0.4854
6.5006 4.6840 -0.5075
6.5008 4.7812 -0.5298
6.5010 4.8800 -0.5524
6.5012 4.9802 -0.5752
6.5014 5.0820 -0.5982
6.5016 5.1854 -0.6216
6.5018 5.2906 -0.6453
6.5021 5.3975 -0.6692
6.5023 5.5062 -0.6935
6.5025 5.6168 -0.7181
6.5027 5.7294 -0.7430
6.5030 5.8440 -0.7683
6.5032 5.9608 -0.7940
6.5034 6.0797 -0.8201
6.5046 6.2018 -0.8466
6.5049 6.3255 -0.8735
6.5053 6.4517 -0.9009
6.5056 6.5805 -0.9287
6.5060 6.7120 -0.9570
6.5064 6.8463 -0.9857
6.5067 6.9835 -1.0150
6.5071 7.1237 -1.0449
6.5075 7.2671 -1.0753
6.5079 7.4139 -1.1063
6.5083 7.5641 -1.1380
6.5088 7.7179 -1.1702
6.5092 7.8754 -1.2032
6.5097 8.0370 -1.2369
6.5101 8.2026 -1.2713
6.5106 8.3726 -1.3065
6.5111 8.5471 -1.3426
6.5116 8.7264 -1.3795
6.5121 8.9106 -1.4173
6.5126 9.1001 -1.4560
6.5150 9.2978 -1.4962
6.5151 9.4980 -1.5369
6.5153 9.7042 -1.5787
6.5154 9.9168 -1.6217
6.5156 10.1361 -1.6659
6.5157 10.3625 -1.7114
6.5159 10.5963 -1.7583
6.5161 10.8381 -1.8066
6.5162 11.0881 -1.8564
6.5164 11.3470 -1.9079
6.5166 11.6152 -1.9610
6.5168 11.8933 -2.0160
6.5148 12.1780 -2.0722
6.5156 12.4789 -2.1314
6.5164 12.7918 -2.1927
6.5172 13.1176 -2.2564
6.5181 13.4570 -2.3227
6.5190 13.8112 -2.3916
6.5199 14.1811 -2.4634
6.5209 14.5678 -2.5383
6.5219 14.9727 -2.6166
6.5286 15.4101 -2.7007
6.5292 15.8548 -2.7863
6.5300 16.3221 -2.8760
6.5307 16.8140 -2.9703
6.5315 17.3325 -3.0695
6.5324 17.8799 -3.1740
6.5309 18.4520 -3.2830
6.5319 19.0654 -3.3997
6.5330 19.7166 -3.5233
6.5341 20.4092 -3.6545
6.5353 21.1476 -3.7941
6.5342 21.9283 -3.9417
6.5359 22.7743 -4.1012
6.5377 23.6830 -4.2722
6.5419 24.6700 -4.4576
6.5452 25.7327 -4.6570
6.5488 26.8851 -4.8729
6.5333 28.0560 -5.0925
6.5350 29.4114 -5.3459
6.5418 30.9207 -5.6275
6.5473 32.5766 -5.9362
-5.6283 33.2133 -6.0723
-5.9806 33.2386 -6.0706
-6.2294 32.7114 -5.9678
-6.5755 32.7173 -5.9619
-6.9022 32.6251 -5.9377
-7.1336 32.1058 -5.8356
-7.3392 31.5176 -5.7208
-7.8335 32.1595 -5.8289
-8.1230 31.9362 -5.7797
-5.4100 15.7911 -2.8158
-5.6053 15.8372 -2.8178
-5.7971 15.8675 -2.8167
-5.9771 15.8613 -2.8089
-6.1581 15.8548 -2.8009
-5.9252 14.8107 -2.6097
-6.0016 14.5737 -2.5611
-6.4446 15.2122 -2.6660
-6.5821 15.1110 -2.6407
-6.9886 15.6127 -2.7204
-7.3144 15.9092 -2.7636
-7.0716 14.9822 -2.5944
-7.5701 15.6293 -2.6976
-7.7052 15.5089 -2.6678
-7.8395 15.3893 -2.6380
-7.9731 15.2704 -2.6082
-8.1293 15.1959 -2.5858
-8.1767 14.9228 -2.5295
-8.2386 14.6846 -2.4793
-8.2992 14.4514 -2.4299
6.4992 4.0546 0.0068
6.4993 4.1424 -0.0117
6.4995 4.2313 -0.0304
6.4997 4.3214 -0.0492
6.4999 4.4128 -0.0681
6.5001 4.5053 -0.0871
6.5003 4.5992 -0.1063
6.5005 4.6944 -0.1256
6.5006 4.7910 -0.1451
6.5008 4.8890 -0.1648
6.5010 4.9885 -0.1846
6.5013 5.0896 -0.2046
6.5015 5.1923 -0.2248
6.5017 5.2966 -0.2452
6.5019 5.4026 -0.2658
6.5021 5.5104 -0.2866
6.5023 5.6201 -0.3076
6.5025 5.7317 -0.3289
6.5028 5.8453 -0.3504
6.5030 5.9610 -0.3722
6.5032 6.0788 -0.3942
6.5043 6.1996 -0.4166
6.5046 6.3221 -0.4392
6.5049 6.4470 -0.4621
6.5053 6.5744 -0.4853
6.5056 6.7044 -0.5089
6.5060 6.8372 -0.5328
6.5064 6.9728 -0.5571
6.5068 7.1114 -0.5818
6.5072 7.2530 -0.6068
6.5076 7.3979 -0.6323
6.5080 7.5461 -0.6582
6.5084 7.6979 -0.6846
6.5088 7.8533 -0.7115
6.5092 8.0125 -0.7388
6.5097 8.1758 -0.7667
6.5102 8.3432 -0.7952
6.5106 8.5150 -0.8242
6.5111 8.6914 -0.8538
6.5116 8.8726 -0.8841
6.5121 9.0589 -0.9150
6.5141 9.2525 -0.9469
6.5142 9.4491 -0.9792
6.5143 9.6515 -1.0123
6.5144 9.8601 -1.0462
6.5146 10.0750 -1.0810
6.5147 10.2968 -1.1167
6.5149 10.5257 -1.1534
6.5150 10.7622 -1.1911
6.5151 11.0067 -1.2298
6.5153 11.2596 -1.2697
6.5155 11.5214 -1.3108
6.5156 11.7928 -1.3532
6.5158 12.0742 -1.3969
6.5151 12.3646 -1.4419
6.5159 12.6691 -1.4888
6.5167 12.9859 -1.5373
6.5175 13.3157 -1.5876
6.5184 13.6593 -1.6397
6.5193 14.0179 -1.6939
6.5203 14.3924 -1.7503
6.5213 14.7840 -1.8089
6.5223 15.1939 -1.8701
6.5276 15.6336 -1.9352
6.5282 16.0837 -2.0019
6.5289 16.5569 -2.0717
6.5297 17.0548 -2.1448
6.5305 17.5797 -2.2216
6.5313 18.1339 -2.3025
6.5305 18.7153 -2.3870
6.5315 19.3365 -2.4770
6.5325 19.9959 -2.5722
6.5337 20.6975 -2.6731
6.5329 21.4388 -2.7795
6.5345 22.2388 -2.8938
6.5363 23.0959 -3.0159
6.5381 24.0166 -3.1467
6.5424 25.0170 -3.2884
6.5457 26.0937 -3.4405
6.5340 27.1978 -3.5966
6.5357 28.4562 -3.7735
6.5375 29.8305 -3.9662
6.5450 31.3635 -4.1805
6.5506 33.0430 -4.4149
6.5591 34.9167 -4.6757
6.5548 36.9305 -4.9559
6.5608 39.2474 -5.2773
6.5705 41.8838 -5.6423
6.5641 44.7718 -6.0419
-5.4765 32.7613 -4.4052
-5.6039 31.5735 -4.2370
-6.1651 32.8197 -4.3949
-6.4995 32.7858 -4.3805
-6.8344 32.7512 -4.3655
-7.1788 32.7571 -4.3553
-7.5184 32.7354 -4.3409
-7.7973 32.4566 -4.2920
-8.0012 31.8966 -4.2056
-8.4763 32.4126 -4.2605
-5.3677 16.4304 -2.1135
-5.5531 16.4401 -2.1060
-5.4911 15.7367 -2.0071
-5.6792 15.7682 -2.0021
-5.8646 15.7875 -1.9952
-6.0518 15.8068 -1.9879
-6.2408 15.8263 -1.9802
-5.9701 14.7089 -1.8307
-6.6259 15.8692 -1.9644
-6.7388 15.6983 -1.9322
-6.7852 15.3823 -1.8822
-7.1398 15.7600 -1.9166
-7.2461 15.5808 -1.8828
-7.3497 15.4013 -1.8489
-7.5455 15.4160 -1.8380
-7.6797 15.3036 -1.8117
-7.8132 15.1917 -1.7852
-7.9460 15.0803 -1.7586
-8.0658 14.9466 -1.7293
-8.1284 14.7119 -1.6882
-8.1894 14.4817 -1.6476
6.4992 4.1575 0.3554
6.4994 4.2459 0.3390
6.4996 4.3355 0.3226
6.4997 4.4263 0.3061
6.4999 4.5183 0.2895
6.5001 4.6116 0.2728
6.5003 4.7062 0.2561
6.5005 4.8021 0.2393
6.5007 4.8995 0.2225
6.5009 4.9983 0.2055
6.5011 5.0986 0.1884
6.5013 5.2005 0.1713
6.5015 5.3041 0.1540
6.5017 5.4093 0.1366
6.5019 5.5163 0.1191
6.5021 5.6250 0.1015
6.5024 5.7357 0.0838
6.5026 5.8483 0.0659
6.5028 5.9629 0.0479
6.5030 6.0796 0.0297
6.5040 6.1992 0.0113
6.5043 6.3205 -0.0072
6.5046 6.4441 -0.0259
6.5050 6.5702 -0.0448
6.5053 6.6988 -0.0638
6.5057 6.8301 -0.0831
6.5060 6.9642 -0.1026
6.5064 7.1012 -0.1223
6.5068 7.2411 -0.1423
6.5072 7.3842 -0.1625
6.5076 7.5306 -0.1830
6.5080 7.6803 -0.2038
6.5084 7.8337 -0.2248
6.5088 7.9907 -0.2462
6.5093 8.1516 -0.2678
6.5097 8.3166 -0.2898
6.5102 8.4858 -0.3122
6.5107 8.6595 -0.3349
6.5111 8.8378 -0.3581
6.5116 9.0210 -0.3816
6.5131 9.2107 -0.4056
6.5132 9.4039 -0.4300
6.5133 9.6026 -0.4549
6.5135 9.8073 -0.4803
6.5136 10.0181 -0.5062
6.5137 10.2355 -0.5327
6.5138 10.4597 -0.5598
6.5139 10.6912 -0.5875
6.5141 10.9304 -0.6159
6.5142 11.1777 -0.6450
6.5144 11.4335 -0.6748
6.5145 11.6984 -0.7054
6.5146 11.9729 -0.7368
6.5147 12.2573 -0.7692
6.5154 12.5539 -0.8026
6.5162 12.8622 -0.8369
6.5170 13.1828 -0.8724
6.5179 13.5167 -0.9091
6.5187 13.8646 -0.9470
6.5197 14.2275 -0.9862
6.5206 14.6067 -1.0269
6.5216 15.0032 -1.0690
6.5260 15.4260 -1.1135
6.5266 15.8602 -1.1590
6.5272 16.3159 -1.2065
6.5279 16.7949 -1.2560
6.5286 17.2990 -1.3078
6.5294 17.8304 -1.3620
6.5291 18.3887 -1.4186
6.5301 18.9823 -1.4783
6.5311 19.6114 -1.5412
6.5321 20.2793 -1.6076
6.5333 20.9898 -1.6777
6.5333 21.7433 -1.7518
6.5349 22.5538 -1.8309
6.5366 23.4222 -1.9151
6.5397 24.3596 -2.0054
6.5428 25.3689 -2.1022
6.5462 26.4600 -2.2063
6.5364 27.5865 -2.3139
6.5381 28.8624 -2.4346
6.5429 30.2688 -2.5668
6.5482 31.8131 -2.7114
6.5546 33.5196 -2.8705
6.5610 35.4082 -3.0458
6.5579 37.4561 -3.2356
6.5646 39.8095 -3.4525
6.5644 42.4193 -3.6925
6.5858 45.5347 -3.9774
6.5783 48.8946 -4.2845
-5.5877 48.8322 -4.3034
-7.1065 49.1360 -4.2919
-5.4258 32.9042 -2.8537
-5.7717 32.9664 -2.8478
-5.8850 31.7609 -2.7321
-6.2576 32.0016 -2.7405
-6.6790 32.4495 -2.7656
-7.1285 32.9785 -2.7966
-7.4291 32.7962 -2.7664
-7.7167 32.5687 -2.7318
-8.0004 32.3383 -2.6965
-8.1797 31.7161 -2.6282
-7.0442 23.4442 -1.8888
-5.6121 16.3139 -1.2705
-5.7956 16.3230 -1.2592
-5.9806 16.3320 -1.2475
-6.1670 16.3411 -1.2354
-6.3598 16.3625 -1.2237
-6.2090 15.5205 -1.1477
-6.3939 15.5380 -1.1355
-6.5165 15.4039 -1.1119
-6.4180 14.7650 -1.0521
-6.9599 15.5909 -1.0960
-7.1258 15.5504 -1.0779
-7.3705 15.6762 -1.0707
-7.3256 15.1918 -1.0218
-7.6453 15.4652 -1.0235
-7.7143 15.2271 -0.9908
-7.7907 15.0113 -0.9597
-7.8657 14.7994 -0.9287
-7.9392 14.5911 -0.8980
6.4992 4.2623 0.7106
6.4994 4.3514 0.6964
6.4996 4.4417 0.6822
6.4998 4.5331 0.6680
6.5000 4.6259 0.6538
6.5001 4.7198 0.6396
6.5003 4.8152 0.6254
6.5005 4.9119 0.6112
6.5007 5.0100 0.5970
6.5009 5.1097 0.5827
6.5011 5.2108 0.5685
6.5013 5.3136 0.5542
6.5015 5.4180 0.5399
6.5017 5.5241 0.5256
6.5020 5.6320 0.5113
6.5022 5.7418 0.4969
6.5024 5.8534 0.4825
6.5026 5.9670 0.4681
6.5029 6.0827 0.4536
6.5037 6.2011 0.4391
6.5040 6.3212 0.4245
6.5043 6.4436 0.4099
6.5047 6.5684 0.3952
6.5050 6.6957 0.3804
6.5054 6.8256 0.3656
6.5057 6.9582 0.3507
6.5061 7.0936 0.3357
6.5065 7.2319 0.3206
6.5068 7.3733 0.3054
6.5072 7.5179 0.2902
6.5076 7.6657 0.2748
6.5080 7.8171 0.2593
6.5085 7.9720 0.2437
6.5089 8.1307 0.2279
6.5093 8.2933 0.2121
6.5098 8.4600 0.1961
6.5102 8.6311 0.1799
6.5107 8.8066 0.1635
6.5112 8.9869 0.1471
6.5117 9.1722 0.1303
6.5123 9.3627 0.1135
6.5124 9.5580 0.0964
6.5125 9.7590 0.0791
6.5126 9.9659 0.0616
6.5127 10.1791 0.0438
6.5128 10.3989 0.0258
6.5129 10.6257 0.0075
6.5130 10.8598 -0.0111
6.5131 11.1017 -0.0300
6.5133 11.3518 -0.0492
6.5134 11.6106 -0.0688
6.5135 11.8786 -0.0887
6.5136 12.1562 -0.1091
6.5150 12.4466 -0.1298
6.5157 12.7469 -0.1511
6.5165 13.0589 -0.1728
6.5174 13.3835 -0.1950
6.5182 13.7214 -0.2177
6.5191 14.0737 -0.2411
6.5200 14.4412 -0.2651
6.5210 14.8251 -0.2897
6.5244 15.2322 -0.3152
6.5250 15.6515 -0.3414
6.5256 16.0911 -0.3684
6.5262 16.5524 -0.3964
6.5269 17.0373 -0.4253
6.5275 17.5477 -0.4553
6.5283 18.0857 -0.4864
6.5287 18.6531 -0.5188
6.5297 19.2544 -0.5526
6.5307 19.8915 -0.5880
6.5317 20.5680 -0.6250
6.5321 21.2852 -0.6637
6.5336 22.0535 -0.7046
6.5352 22.8747 -0.7477
6.5370 23.7546 -0.7934
6.5402 24.7048 -0.8419
6.5433 25.7276 -0.8936
6.5467 26.8333 -0.9487
6.5387 27.9827 -1.0062
6.5406 29.2766 -1.0694
6.5460 30.7052 -1.1383
6.5514 32.2716 -1.2131
6.5564 33.9943 -1.2946
6.5629 35.9092 -1.3842
6.5610 37.9921 -1.4812
6.5675 40.3771 -1.5909
6.5673 43.0231 -1.7119
6.5835 46.1457 -1.8530
-6.5608 49.4359 -2.0018
-5.4326 33.4000 -1.3160
-5.7709 33.4178 -1.3029
-6.0767 33.2498 -1.2817
-6.2992 32.6614 -1.2438
-6.5693 32.3604 -1.2164
-7.0120 32.8920 -1.2194
-7.2282 32.3551 -1.1819
-7.6292 32.6500 -1.1740
-7.8259 32.0767 -1.1342
-8.0265 31.5599 -1.0962
-5.9332 15.9500 -0.4138
-6.1029 15.9308 -0.3977
-6.2734 15.9113 -0.3810
-6.4209 15.8330 -0.3625
-6.5715 15.7633 -0.3438
-6.7219 15.6934 -0.3248
-6.8720 15.6233 -0.3053
-7.0583 15.6336 -0.2870
-7.1352 15.4038 -0.2639
-7.2160 15.1904 -0.2410
-7.2248 14.8363 -0.2161
-7.3729 14.7751 -0.1955
-7.7525 15.1664 -0.1797
-21.5801 33.0231 0.2040
-21.4968 32.2131 0.2611
-21.4994 31.5542 0.3182
-21.5020 30.9137 0.3747
-21.5045 30.2908 0.4305
-21.5069 29.6848 0.4857
-21.5092 29.0946 0.5403
-21.5115 28.5197 0.5944
-21.4304 27.8511 0.6454
-21.5197 27.4178 0.7011
-21.5219 26.8846 0.7537
-21.5239 26.3641 0.8059
-21.5260 25.8559 0.8576
-21.5279 25.3593 0.9090
-21.5299 24.8739 0.9600
-21.5318 24.3993 1.0107
-21.5336 23.9349 1.0611
6.4993 4.3697 1.0741
6.4994 4.4594 1.0622
6.4996 4.5503 1.0502
6.4998 4.6425 1.0384
6.5000 4.7359 1.0266
6.5002 4.8307 1.0149
6.5004 4.9267 1.0033
6.5006 5.0243 0.9918
6.5008 5.1232 0.9803
6.5010 5.2237 0.9688
6.5012 5.3257 0.9575
6.5014 5.4293 0.9462
6.5016 5.5347 0.9350
6.5018 5.6417 0.9238
6.5020 5.7505 0.9127
6.5022 5.8613 0.9017
6.5024 5.9739 0.8907
6.5027 6.0886 0.8798
6.5034 6.2058 0.8690
6.5037 6.3248 0.8582
6.5040 6.4460 0.8475
6.5044 6.5696 0.8368
6.5047 6.6956 0.8262
6.5050 6.8242 0.8156
6.5054 6.9554 0.8051
6.5058 7.0893 0.7947
6.5061 7.2261 0.7843
6.5065 7.3658 0.7740
6.5069 7.5086 0.7637
6.5073 7.6547 0.7535
6.5077 7.8041 0.7433
6.5081 7.9570 0.7332
6.5085 8.1135 0.7232
6.5089 8.2739 0.7132
6.5094 8.4383 0.7033
6.5098 8.6069 0.6934
6.5103 8.7798 0.6835
6.5107 8.9573 0.6737
6.5112 9.1396 0.6640
6.5113 9.3264 0.6543
6.5114 9.5183 0.6447
6.5115 9.7157 0.6351
6.5116 9.9189 0.6255
6.5117 10.1282 0.6160
6.5118 10.3438 0.6066
6.5119 10.5661 0.5972
6.5120 10.7955 0.5879
6.5121 11.0323 0.5786
6.5122 11.2770 0.5694
6.5123 11.5300 0.5603
6.5124 11.7918 0.5512
6.5125 12.0629 0.5422
6.5146 12.3476 0.5334
6.5153 12.6404 0.5246
6.5161 12.9443 0.5158
6.5169 13.2602 0.5071
6.5177 13.5888 0.4985
6.5186 13.9310 0.4900
6.5195 14.2877 0.4815
6.5204 14.6599 0.4731
6.5214 15.0487 0.4648
6.5235 15.4577 0.4567
6.5240 15.8822 0.4485
6.5246 16.3273 0.4405
6.5252 16.7944 0.4325
6.5258 17.2853 0.4247
6.5264 17.8021 0.4170
6.5275 18.3480 0.4094
6.5283 18.9237 0.4020
6.5293 19.5328 0.3947
6.5302 20.1781 0.3876
6.5313 20.8634 0.3806
6.5324 21.5925 0.3738
6.5340 22.3711 0.3673
6.5356 23.2033 0.3609
6.5374 24.0949 0.3549
6.5407 25.0582 0.3491
6.5438 26.0947 0.3437
6.5393 27.1826 0.3381
6.5412 28.3886 0.3333
6.5432 29.7008 0.3289
6.5492 31.1522 0.3252
6.5548 32.7413 0.3220
6.5583 34.4804 0.3192
6.5583 36.3860 0.3171
6.5642 38.5413 0.3161
6.5705 40.9586 0.3161
6.5703 43.6416 0.3170
6.5812 46.7706 0.3198
-6.5276 32.6064 0.3206
-6.8821 32.7365 0.3417
-7.1341 32.3836 0.3586
-7.0904 23.4373 0.4056
-6.5232 15.4574 0.4567
-6.8596 15.0333 0.5066
-7.4339 15.8874 0.5587
-21.4541 44.7302 1.6409
-21.3831 43.5095 1.6639
-21.4618 42.6346 1.6989
-21.4658 41.6461 1.7283
-21.4697 40.6935 1.7579
-21.4734 39.7748 1.7877
-21.3946 38.7389 1.8108
-21.4813 38.0328 1.8481
-21.4846 37.2046 1.8786
-21.4878 36.4033 1.9093
-21.4910 35.6276 1.9401
-21.4940 34.8760 1.9712
-21.4969 34.1473 2.0024
-21.4075 33.2969 2.0252
-21.4935 32.7405 2.0647
-21.4962 32.0743 2.0965
-21.4988 31.4268 2.1284
-21.5013 30.7971 2.1606
-21.5038 30.1844 2.1930
-21.5062 29.5879 2.2255
-21.5085 29.0068 2.2582
-21.4312 28.3353 2.2826
-21.4296 27.7803 2.3152
-21.5189 27.3545 2.3579
-21.5210 26.8286 2.3913
-21.5231 26.3151 2.4249
-21.5251 25.8134 2.4587
-21.5271 25.3231 2.4927
-21.5290 24.8437 2.5269
-21.5309 24.3747 2.5612
6.4993 4.4800 1.4480
6.4995 4.5704 1.4383
6.4997 4.6621 1.4287
6.4998 4.7549 1.4193
6.5000 4.8491 1.4100
6.5002 4.9446 1.4009
6.5004 5.0415 1.3919
6.5006 5.1398 1.3831
6.5008 5.2396 1.3744
6.5010 5.3409 1.3659
6.5012 5.4438 1.3575
6.5014 5.5483 1.3492
6.5016 5.6546 1.3412
6.5018 5.7626 1.3332
6.5020 5.8724 1.3254
6.5023 5.9841 1.3178
6.5025 6.0978 1.3104
6.5031 6.2139 1.3032
6.5034 6.3319 1.2961
6.5037 6.4520 1.2891
6.5041 6.5744 1.2824
6.5044 6.6992 1.2758
6.5047 6.8265 1.2694
6.5051 6.9563 1.2631
6.5054 7.0888 1.2571
6.5058 7.2241 1.2513
6.5062 7.3623 1.2456
6.5065 7.5034 1.2402
6.5069 7.6478 1.2350
6.5073 7.7954 1.2300
6.5077 7.9463 1.2252
6.5081 8.1009 1.2206
6.5085 8.2591 1.2163
6.5090 8.4213 1.2122
6.5094 8.5874 1.2083
6.5099 8.7579 1.2047
6.5103 8.9327 1.2014
6.5108 9.1122 1.1984
6.5104 9.2953 1.1955
6.5105 9.4841 1.1929
6.5106 9.6782 1.1907
6.5106 9.8779 1.1888
6.5107 10.0834 1.1872
6.5108 10.2950 1.1860
6.5109 10.5131 1.1851
6.5109 10.7380 1.1846
6.5110 10.9700 1.1846
6.5111 11.2096 1.1849
6.5112 11.4572 1.1856
6.5113 11.7132 1.1869
6.5114 11.9781 1.1886
6.5142 12.2576 1.1913
6.5149 12.5433 1.1941
6.5156 12.8397 1.1976
6.5164 13.1474 1.2016
6.5172 13.4673 1.2063
6.5180 13.8001 1.2116
6.5189 14.1466 1.2177
6.5198 14.5078 1.2246
6.5208 14.8848 1.2322
6.5220 15.2790 1.2408
6.5224 15.6896 1.2502
6.5230 16.1194 1.2606
6.5235 16.5701 1.2720
6.5241 17.0431 1.2846
6.5247 17.5403 1.2984
6.5253 18.0637 1.3136
6.5271 18.6187 1.3305
6.5279 19.2020 1.3487
6.5288 19.8190 1.3687
6.5298 20.4728 1.3906
6.5308 21.1671 1.4145
6.5328 21.9086 1.4409
6.5343 22.6977 1.4696
6.5360 23.5411 1.5011
6.5382 24.4466 1.5358
6.5412 25.4215 1.5740
6.5443 26.4723 1.6161
6.5417 27.5830 1.6610
6.5437 28.8063 1.7117
6.5458 30.1373 1.7679
6.5524 31.6124 1.8315
6.5542 33.2043 1.9009
6.5602 34.9805 1.9797
6.5614 36.9194 2.0665
6.5674 39.1065 2.1660
6.5736 41.5570 2.2788
6.5734 44.2782 2.4052
6.5788 47.4127 2.5525
-7.7479 48.9818 2.6860
-8.1438 48.4942 2.6860
-8.5282 47.9870 2.6860
-8.9007 47.4616 2.6860
-7.0779 32.5880 1.9116
-10.8509 47.7682 2.8384
-11.1791 47.1370 2.8384
-11.4940 46.4947 2.8384
-11.7955 45.8424 2.8384
-12.0837 45.1817 2.8384
-12.3586 44.5134 2.8384
-12.6204 43.8389 2.8384
-12.8692 43.1593 2.8384
-13.1051 42.4756 2.8384
-13.3284 41.7888 2.8384
-13.5392 41.1002 2.8384
-13.7378 40.4103 2.8384
-13.9245 39.7205 2.8384
-14.0994 39.0313 2.8384
-14.2629 38.3436 2.8384
-14.9191 34.9516 2.8384
-14.4152 37.6580 2.8384
-15.0203 34.2867 2.8384
-14.5567 36.9754 2.8384
-15.1121 33.6276 2.8384
-14.6877 36.2965 2.8384
-7.1649 15.5485 1.3384
-14.8084 35.6217 2.8384
-15.2692 32.3283 2.8384
-15.3350 31.6889 2.8384
-15.5497 28.6050 2.8384
-15.3928 31.0565 2.8384
-15.5718 28.0125 2.8384
-15.4429 30.4318 2.8384
-15.5877 27.4286 2.8384
-15.4855 29.8149 2.8384
-15.5975 26.8531 2.8384
-15.5210 29.2059 2.8384
-15.6016 26.2864 2.8384
-15.6003 25.7285 2.8384
-15.5199 23.0713 2.8384
-15.5937 25.1793 2.8384
-15.4907 22.5664 2.8384
-15.5821 24.6390 2.8384
-15.4577 22.0703 2.8384
-15.5658 24.1075 2.8384
-15.4211 21.5829 2.8384
-15.5450 23.5850 2.8384
-15.3809 21.1042 2.8384
-15.3374 20.6341 2.8384
-15.2909 20.1726 2.8384
-15.2414 19.7195 2.8384
-15.1891 19.2747 2.8384
-15.1342 18.8383 2.8384
-15.0768 18.4100 2.8384
-15.0171 17.9898 2.8384
-14.9553 17.5776 2.8384
-14.8914 17.1732 2.8384
6.4993 4.5940 1.8342
6.4995 4.6852 1.8269
6.4997 4.7775 1.8198
6.4999 4.8711 1.8129
6.5001 4.9661 1.8062
6.5003 5.0623 1.7997
6.5004 5.1600 1.7935
6.5006 5.2592 1.7875
6.5008 5.3598 1.7817
6.5010 5.4620 1.7761
6.5012 5.5658 1.7708
6.5014 5.6713 1.7657
6.5017 5.7785 1.7608
6.5019 5.8875 1.7562
6.5021 5.9983 1.7519
6.5023 6.1111 1.7478
6.5028 6.2261 1.7441
6.5031 6.3431 1.7406
6.5035 6.4622 1.7373
6.5038 6.5835 1.7344
6.5041 6.7071 1.7317
6.5044 6.8331 1.7293
6.5048 6.9617 1.7273
6.5051 7.0928 1.7255
6.5055 7.2267 1.7241
6.5058 7.3634 1.7230
6.5062 7.5030 1.7223
6.5066 7.6457 1.7219
6.5070 7.7915 1.7219
6.5073 7.9407 1.7222
6.5077 8.0933 1.7230
6.5082 8.2496 1.7241
6.5086 8.4096 1.7257
6.5090 8.5735 1.7277
6.5094 8.7415 1.7302
6.5099 8.9139 1.7331
6.5104 9.0907 1.7365
6.5095 9.2703 1.7401
6.5095 9.4561 1.7444
6.5096 9.6471 1.7493
6.5097 9.8434 1.7547
6.5097 10.0454 1.7608
6.5098 10.2532 1.7674
6.5098 10.4673 1.7747
6.5099 10.6880 1.7827
6.5100 10.9155 1.7914
6.5100 11.1503 1.8009
6.5101 11.3928 1.8111
6.5102 11.6433 1.8222
6.5102 11.9024 1.8341
6.5103 12.1705 1.8469
6.5145 12.4562 1.8619
6.5152 12.7454 1.8769
6.5160 13.0456 1.8930
6.5168 13.3573 1.9103
6.5176 13.6813 1.9288
6.5184 14.0183 1.9486
6.5193 14.3694 1.9698
6.5202 14.7353 1.9924
6.5212 15.1172 2.0167
6.5209 15.5132 2.0422
6.5214 15.9290 2.0698
6.5219 16.3644 2.0993
6.5224 16.8209 2.1309
6.5230 17.3000 2.1647
6.5235 17.8036 2.2009
6.5259 18.3388 2.2403
6.5267 18.8984 2.2820
6.5275 19.4894 2.3268
6.5284 20.1147 2.3750
6.5293 20.7773 2.4268
6.5317 21.4851 2.4831
6.5331 22.2353 2.5435
6.5347 23.0352 2.6087
6.5364 23.8903 2.6793
6.3724 24.1775 2.6860
6.1874 24.3999 2.6860
5.9978 24.6172 2.6860
5.8037 24.8289 2.6860
5.6052 25.0349 2.6860
5.4023 25.2348 2.6860
5.1952 25.4283 2.6860
4.9839 25.6153 2.6860
4.8132 26.0368 2.7112
4.7947 27.3687 2.8309
4.5719 27.6166 2.8384
4.3325 27.7834 2.8384
4.0893 27.9418 2.8384
3.8427 28.0917 2.8384
3.5928 28.2327 2.8384
3.3397 28.3647 2.8384
3.0837 28.4873 2.8384
2.8250 28.6005 2.8384
2.5637 28.7040 2.8384
2.3002 28.7978 2.8384
2.0346 28.8814 2.8384
1.7671 28.9550 2.8384
1.4980 29.0183 2.8384
1.2275 29.0711 2.8384
0.9559 29.1136 2.8384
0.6834 29.1454 2.8384
0.4103 29.1668 2.8384
0.1369 29.1774 2.8384
-0.1368 29.1774 2.8384
-0.4102 29.1668 2.8384
-0.6834 29.1454 2.8384
-0.9558 29.1134 2.8384
-1.2274 29.0711 2.8384
-1.4979 29.0183 2.8384
-1.7670 28.9550 2.8384
-2.0345 28.8815 2.8384
-2.3001 28.7978 2.8384
-2.5637 28.7041 2.8384
-2.8249 28.6006 2.8384
-3.0836 28.4874 2.8384
-3.3396 28.3647 2.8384
-3.5927 28.2328 2.8384
-3.8426 28.0917 2.8384
-4.0893 27.9419 2.8384
-4.3324 27.7834 2.8384
-4.5718 27.6166 2.8384
-4.8074 27.4418 2.8384
-5.0391 27.2590 2.8384
-5.2666 27.0685 2.8384
-5.4898 26.8712 2.8384
-5.6557 26.4189 2.8120
-5.6741 25.3433 2.7191
-5.8036 24.8290 2.6860
-5.9977 24.6172 2.6860
-6.1873 24.4000 2.6860
-6.3723 24.1775 2.6860
-6.5527 23.9501 2.6860
-6.7283 23.7181 2.6860
-6.8993 23.4817 2.6860
-7.0654 23.2412 2.6860
-7.2268 22.9970 2.6860
-7.3834 22.7491 2.6860
-7.5351 22.4981 2.6860
-7.6820 22.2441 2.6860
-7.8241 21.9873 2.6860
-7.9614 21.7280 2.6860
-8.0939 21.4666 2.6860
-8.2216 21.2032 2.6860
-8.3446 20.9380 2.6860
-8.4628 20.6714 2.6860
-8.5764 20.4035 2.6860
-8.6854 20.1346 2.6860
-8.7899 19.8648 2.6860
-7.0284 15.4916 2.1236
-7.2005 15.4852 2.1525
-9.0763 19.0526 2.6860
-9.6830 19.8472 2.8384
-9.7701 19.5608 2.8384
-9.8529 19.2748 2.8384
-9.9313 18.9893 2.8384
-10.0054 18.7045 2.8384
-10.0753 18.4204 2.8384
-10.1411 18.1373 2.8384
-10.2029 17.8553 2.8384
-10.2607 17.5746 2.8384
-10.3147 17.2952 2.8384
-10.3649 17.0173 2.8384
-10.4114 16.7409 2.8384
-10.4544 16.4663 2.8384
-10.4938 16.1935 2.8384
-10.5298 15.9225 2.8384
-10.5625 15.6535 2.8384
-10.5919 15.3866 2.8384
-10.6182 15.1218 2.8384
-10.6413 14.8592 2.8384
-10.6616 14.5988 2.8384
-10.6789 14.3408 2.8384
-10.6933 14.0852 2.8384
-10.7051 13.8319 2.8384
-10.7142 13.5812 2.8384
-10.7207 13.3329 2.8384
-10.7247 13.0872 2.8384
-10.7263 12.8440 2.8384
-10.7256 12.6034 2.8384
6.4994 4.7124 2.2353
6.4996 4.8043 2.2304
6.4997 4.8974 2.2258
6.4999 4.9918 2.2216
6.5001 5.0875 2.2175
6.5003 5.1846 2.2138
6.5005 5.2831 2.2104
6.5007 5.3831 2.2073
6.5009 5.4846 2.2045
6.5011 5.5878 2.2021
6.5013 5.6925 2.1999
6.5015 5.7989 2.1981
6.5017 5.9071 2.1966
6.5019 6.0171 2.1955
6.5021 6.1290 2.1947
6.5026 6.2431 2.1944
6.5029 6.3591 2.1944
6.5032 6.4772 2.1948
6.5035 6.5974 2.1955
6.5038 6.7199 2.1967
6.5041 6.8448 2.1983
6.5045 6.9722 2.2003
6.5048 7.1020 2.2028
6.5052 7.2346 2.2057
6.5055 7.3699 2.2090
6.5059 7.5080 2.2129
6.5062 7.6491 2.2172
6.5066 7.7933 2.2221
6.5070 7.9408 2.2275
6.5074 8.0916 2.2334
6.5078 8.2459 2.2399
6.5082 8.4039 2.2470
6.5086 8.5657 2.2547
6.5091 8.7315 2.2631
6.5095 8.9015 2.2721
6.5099 9.0759 2.2818
6.5085 9.2521 2.2915
6.5086 9.4351 2.3025
6.5086 9.6231 2.3143
6.5087 9.8163 2.3268
6.5087 10.0149 2.3402
6.5088 10.2192 2.3545
6.5088 10.4296 2.3697
6.5089 10.6462 2.3859
6.5089 10.8695 2.4031
6.5090 11.0998 2.4213
6.5090 11.3374 2.4406
6.5091 11.5829 2.4611
6.5091 11.8365 2.4828
6.5092 12.0988 2.5059
6.5142 12.3797 2.5322
6.5149 12.6623 2.5583
6.5156 12.9554 2.5859
6.5163 13.2594 2.6152
6.5171 13.5752 2.6462
6.5179 13.9034 2.6791
6.4519 14.0988 2.6860
6.3663 14.2571 2.6860
6.2779 14.4143 2.6860
6.1869 14.5703 2.6860
6.0931 14.7250 2.6860
5.9966 14.8783 2.6860
5.8974 15.0301 2.6860
5.7955 15.1802 2.6860
5.6909 15.3286 2.6860
5.5835 15.4752 2.6860
5.4735 15.6197 2.6860
5.3608 15.7622 2.6860
5.2455 15.9024 2.6860
5.1275 16.0405 2.6860
5.0068 16.1760 2.6860
4.8836 16.3089 2.6860
4.7885 16.5451 2.7033
4.7773 17.0956 2.7718
4.7540 17.6383 2.8384
4.6132 17.7668 2.8384
4.4698 17.8919 2.8384
4.3240 18.0137 2.8384
4.1758 18.1318 2.8384
4.0251 18.2463 2.8384
3.8722 18.3569 2.8384
3.7170 18.4637 2.8384
3.5596 18.5664 2.8384
3.4001 18.6651 2.8384
3.2386 18.7595 2.8384
3.0751 18.8496 2.8384
2.9098 18.9353 2.8384
2.7427 19.0164 2.8384
2.5739 19.0929 2.8384
2.4035 19.1647 2.8384
2.2317 19.2318 2.8384
2.0584 19.2940 2.8384
1.8838 19.3512 2.8384
1.7081 19.4035 2.8384
1.5312 19.4508 2.8384
1.3534 19.4929 2.8384
1.1747 19.5298 2.8384
0.9953 19.5616 2.8384
0.8152 19.5881 2.8384
0.6346 19.6094 2.8384
0.4536 19.6254 2.8384
0.2723 19.6360 2.8384
0.0908 19.6413 2.8384
-0.0907 19.6414 2.8384
-0.2722 19.6360 2.8384
-0.4535 19.6254 2.8384
-0.6345 19.6094 2.8384
-0.8152 19.5881 2.8384
-0.9952 19.5616 2.8384
-1.1747 19.5298 2.8384
-1.3534 19.4929 2.8384
-1.5312 19.4508 2.8384
-1.7080 19.4035 2.8384
-1.8838 19.3513 2.8384
-2.0583 19.2940 2.8384
-2.2316 19.2318 2.8384
-2.4035 19.1647 2.8384
-2.5739 19.0929 2.8384
-2.7427 19.0164 2.8384
-2.9097 18.9353 2.8384
-3.0751 18.8496 2.8384
-3.2385 18.7596 2.8384
-3.4000 18.6651 2.8384
-3.5595 18.5665 2.8384
-3.7169 18.4638 2.8384
-3.8721 18.3570 2.8384
-4.0251 18.2463 2.8384
-4.1757 18.1318 2.8384
-4.3240 18.0137 2.8384
-4.4698 17.8920 2.8384
-4.6131 17.7668 2.8384
-4.7539 17.6384 2.8384
-4.8922 17.5067 2.8384
-5.0277 17.3720 2.8384
-5.1607 17.2343 2.8384
-5.2909 17.0938 2.8384
-5.4183 16.9506 2.8384
-5.5430 16.8048 2.8384
-5.6649 16.6566 2.8384
-5.6873 16.2299 2.7909
-5.6969 15.7895 2.7406
-5.7060 15.3695 2.6932
-5.7955 15.1803 2.6860
-5.8974 15.0301 2.6860
-5.9966 14.8784 2.6860
-6.0931 14.7250 2.6860
-6.1868 14.5704 2.6860
-6.2779 14.4144 2.6860
-6.3662 14.2572 2.6860
-6.4519 14.0989 2.6860
-6.5348 13.9396 2.6860
-6.6151 13.7795 2.6860
-6.6928 13.6185 2.6860
-6.7678 13.4569 2.6860
-6.8401 13.2946 2.6860
-6.9099 13.1319 2.6860
-6.9771 12.9687 2.6860
-7.0417 12.8052 2.6860
-7.1038 12.6414 2.6860
-7.1635 12.4775 2.6860
-7.2206 12.3135 2.6860
-7.2753 12.1495 2.6860
-7.3276 11.9855 2.6860
-7.3775 11.8216 2.6860
-7.4251 11.6580 2.6860
-7.4703 11.4946 2.6860
-7.5133 11.3316 2.6860
-7.5541 11.1689 2.6860
-7.5926 11.0067 2.6860
-7.6290 10.8450 2.6860
-7.6632 10.6839 2.6860
-7.6954 10.5234 2.6860
-7.7255 10.3635 2.6860
-7.7536 10.2043 2.6860
-7.7797 10.0459 2.6860
-7.8038 9.8883 2.6860
-7.8261 9.7315 2.6860
-7.8465 9.5756 2.6860
-7.8651 9.4206 2.6860
6.4994 4.8360 2.6539
6.4996 4.9286 2.6516
6.4998 5.0225 2.6497
6.5000 5.1177 2.6481
6.5001 5.2142 2.6469
6.5003 5.3122 2.6461
6.5005 5.4116 2.6456
6.5007 5.5125 2.6456
6.5009 5.6150 2.6459
6.5011 5.7190 2.6467
6.5013 5.8247 2.6478
6.5015 5.9322 2.6494
6.5017 6.0414 2.6515
6.5019 6.1525 2.6540
6.5023 6.2656 2.6570
6.5026 6.3807 2.6604
6.5029 6.4978 2.6644
6.5032 6.6171 2.6688
6.5035 6.7386 2.6738
6.5039 6.8624 2.6793
6.5042 6.9886 2.6853
6.4904 7.1019 2.6860
6.4735 7.2137 2.6860
6.4553 7.3260 2.6860
6.4358 7.4387 2.6860
6.4148 7.5518 2.6860
6.3925 7.6653 2.6860
6.3688 7.7792 2.6860
6.3437 7.8934 2.6860
6.3171 8.0080 2.6860
6.2890 8.1227 2.6860
6.2595 8.2377 2.6860
6.2284 8.3530 2.6860
6.1958 8.4684 2.6860
6.1617 8.5839 2.6860
6.1259 8.6996 2.6860
6.0886 8.8153 2.6860
6.0497 8.9310 2.6860
6.0091 9.0467 2.6860
5.9669 9.1624 2.6860
5.9230 9.2779 2.6860
5.8775 9.3933 2.6860
5.8302 9.5085 2.6860
5.7813 9.6235 2.6860
5.7306 9.7382 2.6860
5.6783 9.8526 2.6860
5.6241 9.9666 2.6860
5.5682 10.0801 2.6860
5.5106 10.1931 2.6860
5.4511 10.3056 2.6860
5.3899 10.4176 2.6860
5.3269 10.5289 2.6860
5.2621 10.6394 2.6860
5.1955 10.7492 2.6860
5.1272 10.8582 2.6860
5.0570 10.9663 2.6860
4.9850 11.0735 2.6860
4.9112 11.1797 2.6860
4.8356 11.2848 2.6860
4.7785 11.4377 2.6975
4.7688 11.7122 2.7376
4.7615 12.0053 2.7815
4.7538 12.3110 2.8278
4.6822 12.4615 2.8384
4.5911 12.5645 2.8384
4.4981 12.6660 2.8384
4.4033 12.7658 2.8384
4.3068 12.8638 2.8384
4.2084 12.9601 2.8384
4.1083 13.0546 2.8384
4.0064 13.1471 2.8384
3.9028 13.2377 2.8384
3.7975 13.3262 2.8384
3.6906 13.4126 2.8384
3.5821 13.4968 2.8384
3.4720 13.5788 2.8384
3.3603 13.6585 2.8384
3.2471 13.7358 2.8384
3.1324 13.8108 2.8384
3.0163 13.8832 2.8384
2.8988 13.9531 2.8384
2.7799 14.0203 2.8384
2.6598 14.0850 2.8384
2.5384 14.1469 2.8384
2.4157 14.2061 2.8384
2.2920 14.2624 2.8384
2.1671 14.3159 2.8384
2.0412 14.3666 2.8384
1.9142 14.4142 2.8384
1.7864 14.4589 2.8384
1.6577 14.5006 2.8384
1.5281 14.5392 2.8384
1.3978 14.5747 2.8384
1.2668 14.6071 2.8384
1.1352 14.6363 2.8384
1.0030 14.6623 2.8384
0.8703 14.6851 2.8384
0.7371 14.7048 2.8384
0.6036 14.7212 2.8384
0.4698 14.7343 2.8384
0.3357 14.7441 2.8384
0.2015 14.7507 2.8384
0.0672 14.7540 2.8384
-0.0672 14.7540 2.8384
-0.2015 14.7507 2.8384
-0.3357 14.7441 2.8384
-0.4698 14.7343 2.8384
-0.6036 14.7212 2.8384
-0.7371 14.7048 2.8384
-0.8702 14.6852 2.8384
-1.0029 14.6623 2.8384
-1.6576 14.5006 2.8384
-1.1351 14.6363 2.8384
-1.7863 14.4589 2.8384
-1.2668 14.6070 2.8384
-1.9142 14.4142 2.8384
-1.3978 14.5747 2.8384
-2.0411 14.3666 2.8384
-1.5281 14.5392 2.8384
-2.1670 14.3160 2.8384
-2.2919 14.2624 2.8384
-2.8988 13.9531 2.8384
-2.4157 14.2061 2.8384
-3.0163 13.8832 2.8384
-2.5383 14.1469 2.8384
-3.1324 13.8108 2.8384
-2.6597 14.0850 2.8384
-3.2470 13.7359 2.8384
-2.7799 14.0204 2.8384
-3.4719 13.5788 2.8384
-3.3602 13.6585 2.8384
-4.0063 13.1471 2.8384
-3.5820 13.4969 2.8384
-4.4981 12.6660 2.8384
-4.1082 13.0546 2.8384
-3.6906 13.4126 2.8384
-4.5911 12.5646 2.8384
-4.2083 12.9602 2.8384
-3.7975 13.3262 2.8384
-4.6822 12.4615 2.8384
-4.3067 12.8639 2.8384
-3.9028 13.2377 2.8384
-4.7715 12.3570 2.8384
-4.4033 12.7658 2.8384
-4.9445 12.1437 2.8384
-4.8589 12.2510 2.8384
-5.3439 11.5886 2.8384
-5.0281 12.0351 2.8384
-5.6940 11.0053 2.8375
-5.4180 11.4743 2.8384
-5.1099 11.9251 2.8384
-5.6994 10.7752 2.8084
-5.4903 11.3591 2.8384
-5.7190 9.9233 2.7053
-5.1898 11.8140 2.8384
-5.7047 10.5523 2.7806
-5.5607 11.2431 2.8384
-5.7306 9.7384 2.6860
-5.2678 11.7017 2.8384
-5.7097 10.3362 2.7543
-5.6291 11.1262 2.8384
-5.7813 9.6235 2.6860
-5.9230 9.2780 2.6860
-5.7144 10.1267 2.7292
-5.8302 9.5086 2.6860
-5.9669 9.1624 2.6860
-6.1259 8.6996 2.6860
-5.8775 9.3934 2.6860
-6.0091 9.0468 2.6860
-6.1616 8.5840 2.6860
-6.0496 8.9310 2.6860
-6.1958 8.4684 2.6860
-6.0886 8.8153 2.6860
-6.2284 8.3530 2.6860
-6.2595 8.2378 2.6860
-6.2890 8.1228 2.6860
-6.3171 8.0080 2.6860
-6.3437 7.8934 2.6860
-6.3688 7.7792 2.6860
5.6439 4.3121 2.6860
5.6434 4.3927 2.6860
5.6420 4.4737 2.6860
5.6398 4.5552 2.6860
5.6368 4.6371 2.6860
5.6330 4.7195 2.6860
5.6283 4.8023 2.6860
5.6228 4.8855 2.6860
5.6164 4.9691 2.6860
5.6091 5.0532 2.6860
5.6009 5.1375 2.6860
5.5917 5.2224 2.6860
5.5817 5.3075 2.6860
5.5707 5.3930 2.6860
5.5587 5.4788 2.6860
5.5457 5.5650 2.6860
5.5318 5.6513 2.6860
5.5168 5.7381 2.6860
5.5009 5.8250 2.6860
5.4839 5.9123 2.6860
5.4658 5.9997 2.6860
5.4467 6.0874 2.6860
5.4265 6.1752 2.6860
5.4053 6.2633 2.6860
5.3829 6.3514 2.6860
5.3594 6.4398 2.6860
5.3348 6.5282 2.6860
5.3090 6.6166 2.6860
5.2821 6.7052 2.6860
5.2541 6.7938 2.6860
5.2248 6.8824 2.6860
5.1944 6.9710 2.6860
5.1628 7.0595 2.6860
5.1299 7.1480 2.6860
5.0959 7.2363 2.6860
5.0606 7.3246 2.6860
5.0241 7.4127 2.6860
4.9864 7.5006 2.6860
4.9473 7.5883 2.6860
4.9071 7.6758 2.6860
4.8655 7.7630 2.6860
4.8227 7.8499 2.6860
4.7797 7.9385 2.6867
4.7650 8.0764 2.7040
4.7609 8.2370 2.7286
4.7566 8.4022 2.7544
4.7521 8.5722 2.7813
4.7473 8.7473 2.8095
4.7414 8.9260 2.8384
4.6852 9.0139 2.8384
4.6276 9.1012 2.8384
4.5686 9.1878 2.8384
4.5082 9.2737 2.8384
4.4465 9.3588 2.8384
4.3834 9.4431 2.8384
4.3189 9.5266 2.8384
4.2531 9.6091 2.8384
4.1859 9.6907 2.8384
4.1173 9.7714 2.8384
4.0474 9.8510 2.8384
3.9762 9.9296 2.8384
3.9036 10.0070 2.8384
3.8297 10.0833 2.8384
3.7546 10.1585 2.8384
3.6781 10.2324 2.8384
3.6003 10.3051 2.8384
3.5213 10.3764 2.8384
3.4410 10.4464 2.8384
3.3595 10.5150 2.8384
3.2768 10.5822 2.8384
3.1929 10.6479 2.8384
3.1079 10.7121 2.8384
3.0217 10.7748 2.8384
2.9344 10.8358 2.8384
2.8459 10.8953 2.8384
2.7564 10.9530 2.8384
2.6659 11.0091 2.8384
2.5743 11.0634 2.8384
2.4817 11.1160 2.8384
2.3882 11.1667 2.8384
2.2938 11.2156 2.8384
2.1984 11.2626 2.8384
2.1022 11.3078 2.8384
2.0051 11.3509 2.8384
1.9073 11.3922 2.8384
1.8086 11.4314 2.8384
1.7093 11.4686 2.8384
1.6092 11.5038 2.8384
1.5085 11.5368 2.8384
1.4072 11.5678 2.8384
1.3053 11.5967 2.8384
1.2029 11.6234 2.8384
1.1000 11.6480 2.8384
0.9966 11.6704 2.8384
0.8928 11.6906 2.8384
0.7887 11.7086 2.8384
0.6842 11.7243 2.8384
0.5794 11.7379 2.8384
0.4744 11.7492 2.8384
0.3692 11.7583 2.8384
0.2638 11.7650 2.8384
0.1583 11.7696 2.8384
0.0528 11.7718 2.8384
-0.0528 11.7718 2.8384
-0.1583 11.7696 2.8384
-0.2638 11.7650 2.8384
-0.3691 11.7582 2.8384
-0.4744 11.7492 2.8384
-0.5794 11.7379 2.8384
-0.6841 11.7243 2.8384
-0.7886 11.7086 2.8384
-0.8928 11.6906 2.8384
-0.9966 11.6704 2.8384
-1.1000 11.6480 2.8384
-1.2029 11.6234 2.8384
-1.3053 11.5967 2.8384
-1.4072 11.5678 2.8384
-1.5085 11.5369 2.8384
-1.6092 11.5038 2.8384
-1.7092 11.4686 2.8384
-1.8086 11.4314 2.8384
-1.9072 11.3922 2.8384
-2.0051 11.3510 2.8384
-2.1021 11.3078 2.8384
-2.1984 11.2627 2.8384
-2.2937 11.2156 2.8384
-2.3882 11.1667 2.8384
-2.4817 11.1160 2.8384
-2.5743 11.0634 2.8384
-2.6658 11.0091 2.8384
-2.7564 10.9530 2.8384
-2.8459 10.8953 2.8384
-2.9343 10.8358 2.8384
-3.0217 10.7748 2.8384
-3.1079 10.7121 2.8384
-3.1929 10.6479 2.8384
-3.2768 10.5822 2.8384
-3.3595 10.5150 2.8384
-3.4410 10.4464 2.8384
-3.5213 10.3764 2.8384
-3.6003 10.3051 2.8384
-3.6780 10.2325 2.8384
-3.7545 10.1585 2.8384
-3.8297 10.0834 2.8384
-3.9036 10.0070 2.8384
-3.9762 9.9296 2.8384
-4.0474 9.8510 2.8384
-4.1173 9.7714 2.8384
-4.1859 9.6907 2.8384
-4.2531 9.6091 2.8384
-4.3189 9.5266 2.8384
-4.3834 9.4431 2.8384
-4.4465 9.3589 2.8384
-4.5082 9.2737 2.8384
-4.5686 9.1879 2.8384
-4.6276 9.1013 2.8384
-4.6851 9.0140 2.8384
-4.7414 8.9260 2.8384
-4.7962 8.8374 2.8384
-4.8496 8.7483 2.8384
-4.9017 8.6586 2.8384
-4.9524 8.5684 2.8384
-5.0017 8.4778 2.8384
-5.0497 8.3867 2.8384
-5.0963 8.2953 2.8384
-5.1416 8.2035 2.8384
-5.1855 8.1113 2.8384
-5.2280 8.0189 2.8384
-5.2692 7.9258 2.8384
-5.3092 7.8333 2.8384
-5.3477 7.7402 2.8384
-5.3850 7.6469 2.8384
-5.4210 7.5535 2.8384
-5.4557 7.4600 2.8384
-5.4891 7.3665 2.8384
-5.5213 7.2729 2.8384
-5.5522 7.1792 2.8384
-5.5818 7.0857 2.8384
-5.6102 6.9921 2.8384
