ply
format ascii 1.0
element vertex 2144
property float32 x
property float32 y
property float32 z
end_header
23.6473 -25.5825 1.2392
25.3725 -25.3918 0.9928
24.0711 -25.5377 1.1799
25.8060 -25.3286 0.9268
24.4976 -25.4887 1.1190
26.2493 -25.2680 0.8593
24.9337 -25.4424 1.0568
26.7020 -25.2090 0.7903
27.1428 -25.1316 0.7190
28.9668 -24.8063 0.4163
27.5936 -25.0564 0.6461
29.4374 -24.7194 0.3360
28.0548 -24.9834 0.5715
7.4549 -6.1381 0.0632
28.5073 -24.8954 0.4948
7.1739 -5.7912 0.0400
6.6421 -4.8515 -0.0573
7.0309 -5.5644 0.0189
6.5767 -4.7071 -0.0751
6.8956 -5.3498 -0.0012
6.5135 -4.5675 -0.0923
6.7798 -5.1558 -0.0204
6.4843 -4.4544 -0.1097
6.7097 -5.0009 -0.0391
6.4643 -4.3496 -0.1271
6.4447 -4.2468 -0.1442
6.3880 -3.9496 -0.1945
6.4254 -4.1459 -0.1611
6.3697 -3.8542 -0.2109
6.4065 -4.0469 -0.1779
6.3709 -3.7716 -0.2279
6.3766 -3.6113 -0.2618
6.3738 -3.6910 -0.2449
6.3794 -3.5323 -0.2787
6.3822 -3.4541 -0.2955
6.3876 -3.3001 -0.3291
6.3849 -3.3767 -0.3123
6.3903 -3.2241 -0.3458
6.4154 -3.0083 -0.3970
6.3977 -3.1511 -0.3628
6.4242 -2.9376 -0.4141
6.4066 -3.0795 -0.3799
6.4329 -2.8673 -0.4313
6.4416 -2.7974 -0.4484
6.4502 -2.7279 -0.4656
6.4772 -2.4511 -0.5342
6.4588 -2.6589 -0.4829
6.4827 -2.3825 -0.5513
6.4659 -2.5896 -0.5000
6.4828 -2.3123 -0.5680
6.4716 -2.5202 -0.5171
6.4829 -2.2425 -0.5846
6.4833 -1.9003 -0.6683
6.4830 -2.1732 -0.6013
6.4834 -1.8330 -0.6852
6.4831 -2.1043 -0.6181
6.4835 -1.7661 -0.7020
6.4832 -2.0359 -0.6348
6.4836 -1.6996 -0.7189
6.4832 -1.9679 -0.6515
6.4837 -1.6333 -0.7358
6.4838 -1.5674 -0.7528
6.4840 -1.3714 -0.8040
6.4838 -1.5018 -0.7698
6.4841 -1.3066 -0.8211
6.4839 -1.4365 -0.7869
6.4842 -1.2420 -0.8384
6.4843 -1.1135 -0.8730
6.4843 -1.1776 -0.8557
6.4844 -1.0495 -0.8904
6.4847 -0.8586 -0.9432
6.4845 -0.9857 -0.9079
6.4846 -0.9221 -0.9255
6.4847 -0.7953 -0.9609
6.4850 -0.6061 -1.0146
6.4848 -0.7321 -0.9787
6.4851 -0.5432 -1.0327
6.4849 -0.6690 -0.9966
6.4851 -0.4804 -1.0509
6.4852 -0.4176 -1.0692
6.4853 -0.3549 -1.0876
6.4856 -0.1044 -1.1623
6.4854 -0.2923 -1.1061
6.4857 -0.0418 -1.1813
6.4855 -0.2296 -1.1247
6.4858 0.0209 -1.2004
6.4855 -0.1670 -1.1434
6.4928 0.0837 -1.2210
6.4930 0.1465 -1.2404
6.4938 0.3986 -1.3196
6.4932 0.2094 -1.2600
6.4940 0.4619 -1.3398
6.4942 0.5253 -1.3601
6.4934 0.2724 -1.2797
6.4944 0.5889 -1.3807
6.4936 0.3355 -1.2996
6.4946 0.6526 -1.4013
6.4954 0.9094 -1.4860
6.4948 0.7165 -1.4222
6.4957 0.9741 -1.5076
6.4950 0.7806 -1.4433
6.4959 1.0391 -1.5295
6.4952 0.8449 -1.4645
6.4963 1.1698 -1.5739
6.4961 1.1043 -1.5516
6.4965 1.2356 -1.5964
6.4971 1.4349 -1.6653
6.4967 1.3017 -1.6191
6.4973 1.5020 -1.6888
6.4969 1.3681 -1.6421
6.4975 1.5695 -1.7126
6.4980 1.7056 -1.7608
6.4978 1.6374 -1.7366
6.4982 1.7743 -1.7854
6.4984 1.8435 -1.8102
6.4989 1.9832 -1.8608
6.4986 1.9131 -1.8354
6.4991 2.0537 -1.8866
6.4998 2.2687 -1.9659
6.4993 2.1248 -1.9127
6.5000 2.3415 -1.9930
6.5002 2.4148 -2.0204
6.4995 2.1965 -1.9391
6.5005 2.4889 -2.0483
6.5007 2.5635 -2.0765
6.5009 2.6389 -2.1051
6.5012 2.7149 -2.1341
6.5014 2.7917 -2.1636
6.5017 2.8693 -2.1934
6.5019 2.9476 -2.2238
6.5022 3.0267 -2.2545
6.4979 3.1044 -2.2842
6.4980 3.1852 -2.3158
6.4982 3.2668 -2.3480
18.2007 -17.8725 1.8711
16.7503 -17.7932 1.9887
17.0995 -17.8101 1.9604
18.5873 -17.8975 1.8397
17.4573 -17.8289 1.9314
18.9845 -17.9247 1.8074
17.8242 -17.8497 1.9017
19.3928 -17.9542 1.7741
19.8129 -17.9862 1.7398
20.2453 -18.0207 1.7045
21.6244 -18.1404 1.5917
20.6910 -18.0578 1.6681
7.4348 -6.1143 0.5217
7.1638 -5.7752 0.4783
21.1504 -18.0976 1.6306
7.0201 -5.5473 0.4450
6.8843 -5.3318 0.4135
6.5690 -4.6901 0.3093
6.7730 -5.1408 0.3845
6.5055 -4.5500 0.2857
6.7026 -4.9852 0.3587
6.4815 -4.4400 0.2643
6.6346 -4.8351 0.3336
6.4614 -4.3346 0.2434
6.4417 -4.2313 0.2227
6.3686 -3.8382 0.1431
6.4224 -4.1299 0.2024
6.3715 -3.7563 0.1242
6.4034 -4.0304 0.1823
6.3743 -3.6753 0.1054
6.3772 -3.5951 0.0867
6.3848 -3.9328 0.1626
6.3800 -3.5157 0.0682
6.3910 -3.2062 -0.0053
6.3828 -3.4372 0.0497
6.3855 -3.3595 0.0313
6.3999 -3.1336 -0.0235
6.3882 -3.2824 0.0130
6.4088 -3.0616 -0.0416
6.4265 -2.9191 -0.0779
6.4177 -2.9901 -0.0597
6.4352 -2.8485 -0.0959
6.4439 -2.7784 -0.1140
6.4612 -2.6392 -0.1501
6.4526 -2.7086 -0.1321
6.4675 -2.5694 -0.1681
6.4830 -2.3611 -0.2219
6.4732 -2.4997 -0.1860
6.4831 -2.2906 -0.2396
6.4789 -2.4304 -0.2040
6.4832 -2.2207 -0.2573
6.4833 -2.1512 -0.2749
6.4833 -2.0822 -0.2925
6.4837 -1.8102 -0.3629
6.4834 -2.0136 -0.3102
6.4838 -1.7432 -0.3805
6.4839 -1.6765 -0.3981
6.4835 -1.9454 -0.3278
6.4840 -1.6101 -0.4156
6.4836 -1.8776 -0.3453
6.4840 -1.5441 -0.4332
6.4841 -1.4784 -0.4508
6.4844 -1.2828 -0.5036
6.4842 -1.4129 -0.4684
6.4845 -1.2181 -0.5213
6.4843 -1.3477 -0.4860
6.4845 -1.1537 -0.5390
6.4847 -1.0254 -0.5745
6.4846 -1.0894 -0.5567
6.4848 -0.9615 -0.5922
6.4849 -0.8978 -0.6101
6.4850 -0.7709 -0.6459
6.4849 -0.8343 -0.6279
6.4851 -0.7077 -0.6638
6.4853 -0.5186 -0.7181
6.4852 -0.6445 -0.6819
6.4854 -0.4557 -0.7363
6.4855 -0.3929 -0.7546
6.4853 -0.5815 -0.6999
6.4856 -0.3302 -0.7729
6.4857 -0.2675 -0.7913
6.4860 -0.0169 -0.8659
6.4857 -0.2048 -0.8098
6.4861 0.0458 -0.8847
6.4858 -0.1422 -0.8284
6.4927 0.1086 -0.9046
6.4929 0.1715 -0.9237
6.4859 -0.0796 -0.8471
6.4931 0.2344 -0.9429
6.4939 0.4868 -1.0209
6.4933 0.2973 -0.9622
6.4935 0.3604 -0.9817
6.4941 0.5502 -1.0407
6.4937 0.4235 -1.0012
6.4943 0.6137 -1.0607
6.4947 0.7413 -1.1010
6.4949 0.8053 -1.1214
6.4945 0.6774 -1.0808
6.4951 0.8696 -1.1419
6.4955 0.9987 -1.1834
6.4953 0.9340 -1.1626
6.4963 1.2599 -1.2686
6.4957 1.0636 -1.2045
6.4965 1.3259 -1.2903
6.4959 1.1288 -1.2257
6.4967 1.3923 -1.3123
6.4961 1.1942 -1.2470
6.4969 1.4590 -1.3344
6.4980 1.7979 -1.4484
6.4972 1.5260 -1.3568
6.4982 1.8669 -1.4719
6.4974 1.5934 -1.3793
6.4985 1.9363 -1.4956
6.4987 2.0063 -1.5196
6.4976 1.6611 -1.4021
6.4989 2.0767 -1.5439
6.4978 1.7293 -1.4251
6.4991 2.1477 -1.5684
6.4998 2.3638 -1.6438
6.4994 2.2191 -1.5932
6.4996 2.2912 -1.6184
6.5000 2.4370 -1.6695
6.5008 2.6604 -1.7485
6.5003 2.5108 -1.6955
6.5010 2.7362 -1.7756
6.5012 2.8127 -1.8030
6.5005 2.5852 -1.7218
6.5015 2.8900 -1.8307
6.5017 2.9680 -1.8588
6.4976 3.0448 -1.8861
6.4977 3.1243 -1.9150
6.4979 3.2048 -1.9443
6.4981 3.2861 -1.9740
6.4982 3.3683 -2.0041
12.9621 -13.5184 2.3884
13.2019 -13.4978 2.3697
13.4460 -13.4775 2.3507
13.6947 -13.4574 2.3313
13.9482 -13.4376 2.3115
14.2066 -13.4181 2.2913
14.4702 -13.3988 2.2707
14.7392 -13.3798 2.2497
15.0138 -13.3611 2.2282
15.2943 -13.3425 2.2062
15.5253 -13.2767 2.1759
15.8174 -13.2588 2.1530
7.4188 -6.0954 0.9803
7.1555 -5.7620 0.9174
7.0111 -5.5329 0.8718
6.8746 -5.3163 0.8286
6.7671 -5.1278 0.7901
6.6963 -4.9714 0.7569
6.6280 -4.8205 0.7248
6.5621 -4.6748 0.6938
6.4997 -4.5350 0.6639
6.4790 -4.4269 0.6387
6.4588 -4.3209 0.6141
6.4390 -4.2171 0.5898
6.4196 -4.1152 0.5660
6.4005 -4.0153 0.5425
6.3818 -3.9172 0.5194
6.3691 -3.8243 0.4971
6.3720 -3.7419 0.4763
6.3749 -3.6605 0.4556
6.3777 -3.5799 0.4351
6.3805 -3.5002 0.4147
6.3833 -3.4213 0.3945
6.3861 -3.3432 0.3744
6.3888 -3.2658 0.3545
6.3929 -3.1899 0.3348
6.4019 -3.1170 0.3154
6.4109 -3.0447 0.2961
6.4198 -2.9729 0.2768
6.4287 -2.9015 0.2577
6.4374 -2.8306 0.2386
6.4462 -2.7602 0.2195
6.4549 -2.6902 0.2005
6.4633 -2.6205 0.1816
6.4691 -2.5501 0.1626
6.4748 -2.4802 0.1437
6.4805 -2.4107 0.1249
6.4833 -2.3406 0.1060
6.4834 -2.2700 0.0872
6.4834 -2.1998 0.0685
6.4837 -1.9922 0.0126
6.4835 -2.1302 0.0498
6.4838 -1.9239 -0.0059
6.4836 -2.0610 0.0312
6.4839 -1.8560 -0.0243
6.4840 -1.7884 -0.0427
6.4841 -1.7212 -0.0611
6.4844 -1.4559 -0.1342
6.4841 -1.6544 -0.0794
6.4845 -1.3904 -0.1524
6.4846 -1.3251 -0.1706
6.4842 -1.5879 -0.0977
6.4846 -1.2600 -0.1887
6.4843 -1.5218 -0.1160
6.4847 -1.1953 -0.2069
6.4851 -0.9383 -0.2794
6.4848 -1.1307 -0.2250
6.4849 -1.0664 -0.2431
6.4851 -0.8746 -0.2976
6.4850 -1.0023 -0.2613
6.4852 -0.8110 -0.3157
6.4854 -0.6842 -0.3521
6.4853 -0.7475 -0.3339
6.4855 -0.6211 -0.3703
6.4855 -0.5580 -0.3885
6.4857 -0.4321 -0.4251
6.4856 -0.4950 -0.4068
6.4858 -0.3693 -0.4434
6.4860 -0.1811 -0.4986
6.4861 -0.1184 -0.5171
6.4859 -0.3065 -0.4617
6.4862 -0.0558 -0.5357
6.4863 0.0069 -0.5543
6.4859 -0.2438 -0.4801
6.4863 0.0696 -0.5730
6.4931 0.3211 -0.6490
6.4925 0.1325 -0.5923
6.4933 0.3841 -0.6681
6.4927 0.1953 -0.6111
6.4929 0.2582 -0.6300
6.4935 0.4473 -0.6872
6.4939 0.5739 -0.7258
6.4937 0.5105 -0.7065
6.4941 0.6374 -0.7453
6.4947 0.8289 -0.8042
6.4943 0.7010 -0.7648
6.4945 0.7649 -0.7845
6.4949 0.8931 -0.8241
6.4955 1.0869 -0.8845
6.4951 0.9575 -0.8441
6.4957 1.1520 -0.9049
6.4959 1.2174 -0.9254
6.4953 1.0221 -0.8642
6.4962 1.2830 -0.9461
6.4964 1.3490 -0.9669
6.4972 1.6160 -1.0519
6.4974 1.6836 -1.0735
6.4966 1.4152 -0.9879
6.4976 1.7517 -1.0954
6.4968 1.4818 -1.0091
6.4978 1.8201 -1.1174
6.4970 1.5487 -1.0304
6.4981 1.8890 -1.1397
6.4983 1.9583 -1.1621
6.4990 2.1692 -1.2307
6.4985 2.0281 -1.1848
6.4992 2.2405 -1.2541
6.4987 2.0984 -1.2076
6.4999 2.4577 -1.3255
6.4994 2.3123 -1.2776
6.5001 2.5313 -1.3498
6.4996 2.3847 -1.3014
6.5003 2.6056 -1.3744
6.5006 2.6804 -1.3993
6.5008 2.7560 -1.4245
6.5010 2.8323 -1.4499
6.5013 2.9093 -1.4757
6.5015 2.9871 -1.5018
6.4974 3.0635 -1.5272
6.4976 3.1428 -1.5539
6.4978 3.2229 -1.5810
6.4979 3.3039 -1.6084
6.4981 3.3858 -1.6362
6.4982 3.4686 -1.6644
10.5306 -10.7803 2.6252
10.7207 -10.7573 2.6143
10.9138 -10.7341 2.6032
11.1096 -10.7103 2.5918
11.3035 -10.6815 2.5790
11.5006 -10.6524 2.5660
11.7009 -10.6230 2.5529
11.9045 -10.5934 2.5395
12.1117 -10.5634 2.5258
12.3187 -10.5299 2.5112
12.5274 -10.4945 2.4959
7.4054 -6.0795 1.4418
7.1483 -5.7505 1.3598
7.0030 -5.5201 1.3014
6.8658 -5.3025 1.2461
6.7618 -5.1159 1.1984
6.6906 -4.9587 1.1576
6.6219 -4.8070 1.1183
6.5556 -4.6606 1.0803
6.4974 -4.5233 1.0445
6.4767 -4.4145 1.0154
6.4563 -4.3080 0.9868
6.4364 -4.2036 0.9588
6.4169 -4.1012 0.9313
6.3977 -4.0008 0.9043
6.3789 -3.9022 0.8778
6.3695 -3.8109 0.8529
6.3725 -3.7281 0.8300
6.3754 -3.6463 0.8073
6.3782 -3.5653 0.7849
6.3811 -3.4852 0.7626
6.3839 -3.4059 0.7406
6.3867 -3.3274 0.7187
6.3894 -3.2497 0.6971
6.3948 -3.1741 0.6759
6.4039 -3.1009 0.6552
6.4129 -3.0283 0.6347
6.4219 -2.9562 0.6143
6.4308 -2.8845 0.5940
6.4396 -2.8133 0.5738
6.4484 -2.7426 0.5537
6.4571 -2.6723 0.5337
6.4649 -2.6020 0.5137
6.4706 -2.5314 0.4937
6.4764 -2.4612 0.4737
6.4821 -2.3915 0.4539
6.4835 -2.3207 0.4339
6.4836 -2.2499 0.4139
6.4837 -2.1796 0.3940
6.4838 -2.1097 0.3742
6.4839 -2.0404 0.3545
6.4840 -1.9714 0.3349
6.4841 -1.9029 0.3155
6.4842 -1.8349 0.2961
6.4842 -1.7672 0.2768
6.4843 -1.6999 0.2576
6.4844 -1.6329 0.2385
6.4845 -1.5663 0.2194
6.4846 -1.5000 0.2004
6.4847 -1.4341 0.1815
6.4848 -1.3684 0.1626
6.4848 -1.3030 0.1438
4.8865 -0.9327 0.0942
6.4850 -1.1730 0.1064
6.4851 -1.1084 0.0877
6.4852 -1.0440 0.0691
4.5990 -0.6948 0.0358
4.5994 -0.6494 0.0227
4.6096 -0.6055 0.0095
6.4855 -0.7883 -0.0051
6.4856 -0.7248 -0.0236
6.4856 -0.6614 -0.0420
6.4857 -0.5982 -0.0605
6.4858 -0.5351 -0.0789
6.4859 -0.4721 -0.0973
6.4860 -0.4091 -0.1158
6.4860 -0.3463 -0.1342
6.4861 -0.2835 -0.1527
6.4862 -0.2207 -0.1711
6.4863 -0.1580 -0.1896
6.4864 -0.0953 -0.2080
6.4864 -0.0327 -0.2265
6.4865 0.0300 -0.2451
6.4922 0.0928 -0.2639
6.4924 0.1556 -0.2825
6.4926 0.2184 -0.3011
6.4928 0.2813 -0.3198
6.4930 0.3442 -0.3385
6.4932 0.4072 -0.3573
6.4934 0.4703 -0.3761
6.4936 0.5335 -0.3950
6.4938 0.5969 -0.4139
6.4940 0.6603 -0.4329
6.4942 0.7240 -0.4520
6.4944 0.7877 -0.4712
6.4946 0.8517 -0.4904
6.4948 0.9158 -0.5097
6.4950 0.9801 -0.5291
6.4952 1.0447 -0.5486
6.4954 1.1095 -0.5681
6.4956 1.1745 -0.5878
6.4958 1.2398 -0.6076
6.4960 1.3053 -0.6275
6.4962 1.3712 -0.6474
6.4964 1.4374 -0.6676
6.4966 1.5038 -0.6878
6.4968 1.5706 -0.7081
6.4970 1.6378 -0.7286
6.4973 1.7053 -0.7493
6.4975 1.7732 -0.7700
6.4977 1.8415 -0.7910
6.4979 1.9103 -0.8120
6.4981 1.9795 -0.8333
6.4983 2.0491 -0.8547
6.4986 2.1192 -0.8762
6.4988 2.1898 -0.8980
6.4990 2.2609 -0.9199
6.4992 2.3326 -0.9421
6.4995 2.4048 -0.9644
6.4997 2.4776 -0.9869
6.4999 2.5510 -1.0096
6.5001 2.6250 -1.0326
6.5004 2.6996 -1.0558
6.5006 2.7749 -1.0792
6.5009 2.8510 -1.1029
6.5011 2.9277 -1.1268
6.5013 3.0052 -1.1510
6.4973 3.0814 -1.1746
6.4975 3.1603 -1.1993
6.4976 3.2401 -1.2243
6.4978 3.3208 -1.2495
6.4979 3.4023 -1.2751
6.4981 3.4848 -1.3010
6.4983 3.5682 -1.3272
8.2469 -8.2847 2.5905
8.3901 -8.2599 2.5842
8.5335 -8.2332 2.5772
8.6768 -8.2041 2.5696
8.8245 -8.1768 2.5626
8.9674 -8.1429 2.5535
9.1180 -8.1138 2.5460
9.2721 -8.0853 2.5388
9.4280 -8.0560 2.5313
9.5863 -8.0262 2.5237
7.3930 -6.0648 1.9083
7.1415 -5.7398 1.8074
6.9954 -5.5080 1.7357
6.8574 -5.2891 1.6681
6.7566 -5.1045 1.6112
6.6850 -4.9463 1.5626
6.6160 -4.7939 1.5157
6.5493 -4.6468 1.4705
6.4952 -4.5118 1.4291
6.4744 -4.4024 1.3958
6.4539 -4.2953 1.3632
6.4339 -4.1903 1.3313
6.4143 -4.0874 1.3000
6.3950 -3.9865 1.2693
6.3761 -3.8875 1.2392
6.3700 -3.7978 1.2121
6.3729 -3.7145 1.1870
6.3759 -3.6322 1.1622
6.3787 -3.5508 1.1377
6.3816 -3.4703 1.1134
6.3844 -3.3907 1.0894
6.3872 -3.3118 1.0657
6.3900 -3.2338 1.0422
6.3968 -3.1585 1.0197
6.4059 -3.0850 0.9976
6.4149 -3.0120 0.9758
6.4239 -2.9395 0.9541
6.4329 -2.8676 0.9326
6.4417 -2.7961 0.9112
6.4506 -2.7251 0.8899
6.4593 -2.6545 0.8688
6.4664 -2.5836 0.8477
6.4722 -2.5128 0.8265
6.4779 -2.4424 0.8054
6.4837 -2.3724 0.7845
6.4838 -2.3010 0.7631
6.4839 -2.2299 0.7418
6.4840 -2.1594 0.7207
6.4841 -2.0894 0.6998
6.4842 -2.0199 0.6790
6.4843 -1.9508 0.6583
6.4844 -1.8822 0.6378
6.4844 -1.8140 0.6174
6.4845 -1.7461 0.5971
6.4846 -1.6787 0.5770
6.4847 -1.6116 0.5570
6.4848 -1.5449 0.5371
6.4849 -1.4785 0.5173
6.4849 -1.4124 0.4976
6.4850 -1.3466 0.4780
4.7160 -0.9316 0.3334
4.8132 -0.9024 0.3259
4.9441 -0.8774 0.3200
5.4554 -0.9137 0.3369
5.8431 -0.9205 0.3436
6.1492 -0.9078 0.3435
4.8549 -0.6688 0.2569
4.8558 -0.6210 0.2428
4.8838 -0.5766 0.2299
4.8847 -0.5289 0.2158
4.8855 -0.4812 0.2016
4.8864 -0.4336 0.1875
4.8872 -0.3861 0.1735
4.8880 -0.3386 0.1594
4.8616 -0.2896 0.1446
4.9803 -0.2484 0.1338
6.1608 -0.2476 0.1479
6.4865 -0.1980 0.1372
6.4866 -0.1352 0.1186
6.4866 -0.0726 0.1001
6.4867 -0.0099 0.0816
4.6210 0.0377 0.0449
4.6123 0.0822 0.0317
4.6134 0.1268 0.0186
5.0765 0.1886 0.0060
6.4926 0.3041 -0.0109
6.4928 0.3670 -0.0294
6.4930 0.4300 -0.0480
6.4932 0.4930 -0.0665
6.4934 0.5562 -0.0851
6.4936 0.6195 -0.1037
6.4938 0.6829 -0.1223
6.4940 0.7465 -0.1410
6.4942 0.8102 -0.1597
6.4944 0.8741 -0.1785
6.4946 0.9382 -0.1973
6.4948 1.0025 -0.2161
6.4950 1.0669 -0.2350
6.4952 1.1317 -0.2540
6.4954 1.1966 -0.2730
6.4956 1.2618 -0.2921
6.4958 1.3273 -0.3112
6.4960 1.3930 -0.3305
6.4962 1.4591 -0.3498
6.4965 1.5254 -0.3692
6.4967 1.5921 -0.3886
6.4969 1.6592 -0.4082
6.4971 1.7266 -0.4279
6.4973 1.7943 -0.4476
6.4975 1.8625 -0.4675
6.4977 1.9311 -0.4875
6.4979 2.0001 -0.5076
6.4982 2.0696 -0.5279
6.4984 2.1395 -0.5482
6.4986 2.2100 -0.5687
6.4988 2.2809 -0.5893
6.4990 2.3524 -0.6101
6.4993 2.4244 -0.6311
6.4995 2.4970 -0.6521
6.4997 2.5701 -0.6734
6.5000 2.6439 -0.6948
6.5002 2.7183 -0.7164
6.5004 2.7934 -0.7382
6.5007 2.8691 -0.7601
6.5009 2.9456 -0.7823
6.5011 3.0228 -0.8047
6.4972 3.0987 -0.8267
6.4973 3.1774 -0.8495
6.4975 3.2568 -0.8725
6.4976 3.3371 -0.8957
6.4978 3.4183 -0.9192
6.4980 3.5004 -0.9429
6.4981 3.5834 -0.9669
6.4983 3.6674 -0.9911
7.0494 -6.9467 2.6718
7.1687 -6.9216 2.6683
7.2923 -6.8988 2.6658
7.4167 -6.8748 2.6631
7.5388 -6.8468 2.6589
7.6575 -6.8140 2.6530
7.7807 -6.7834 2.6482
7.9079 -6.7544 2.6441
8.0266 -6.7164 2.6367
7.3800 -6.0494 2.3817
7.1344 -5.7285 2.2622
6.9875 -5.4954 2.1768
6.8488 -5.2754 2.0963
6.7513 -5.0927 2.0304
6.6792 -4.9336 1.9736
6.6098 -4.7804 1.9190
6.5429 -4.6325 1.8663
6.4930 -4.5000 1.8196
6.4720 -4.3900 1.7820
6.4514 -4.2823 1.7451
6.4313 -4.1768 1.7091
6.4116 -4.0733 1.6738
6.3922 -3.9719 1.6393
6.3732 -3.8725 1.6054
6.3705 -3.7843 1.5762
6.3734 -3.7006 1.5488
6.3764 -3.6179 1.5217
6.3793 -3.5361 1.4951
6.3821 -3.4552 1.4687
6.3850 -3.3752 1.4427
6.3878 -3.2960 1.4170
6.3905 -3.2176 1.3915
6.3987 -3.1426 1.3676
6.4079 -3.0688 1.3441
6.4170 -2.9955 1.3208
6.4260 -2.9227 1.2978
6.4350 -2.8504 1.2749
6.4439 -2.7786 1.2523
6.4528 -2.7073 1.2298
6.4616 -2.6364 1.2075
6.4679 -2.5650 1.1850
6.4737 -2.4939 1.1625
6.4795 -2.4233 1.1403
6.4840 -2.3527 1.1180
6.4841 -2.2810 1.0952
6.4842 -2.2098 1.0726
6.4843 -2.1391 1.0501
6.4844 -2.0689 1.0279
6.4845 -1.9992 1.0059
6.4845 -1.9300 0.9841
6.4846 -1.8612 0.9624
6.4847 -1.7928 0.9410
6.4848 -1.7248 0.9197
6.4849 -1.6573 0.8985
6.4850 -1.5901 0.8776
6.4851 -1.5232 0.8567
6.4851 -1.4567 0.8361
6.4852 -1.3905 0.8155
4.8493 -0.9904 0.5945
4.8773 -0.9469 0.5827
4.8510 -0.8929 0.5645
5.0362 -0.8765 0.5705
5.3631 -0.8798 0.5911
5.9992 -0.9244 0.6429
6.2451 -0.9003 0.6503
6.4859 -0.8709 0.6558
6.4860 -0.8070 0.6363
6.4860 -0.7432 0.6169
6.4861 -0.6796 0.5976
6.4862 -0.6162 0.5784
6.4863 -0.5529 0.5593
6.4863 -0.4897 0.5402
6.4864 -0.4266 0.5212
6.4865 -0.3636 0.5023
6.4866 -0.3007 0.4835
6.4867 -0.2379 0.4647
6.4867 -0.1751 0.4460
6.4868 -0.1123 0.4273
6.4869 -0.0496 0.4087
6.4870 0.0130 0.3901
6.1664 0.0720 0.3532
6.1948 0.1322 0.3372
4.8694 0.1510 0.2512
4.8702 0.1981 0.2374
4.8983 0.2467 0.2248
4.8992 0.2941 0.2110
4.9000 0.3417 0.1972
4.9008 0.3893 0.1833
4.9017 0.4371 0.1695
4.8752 0.4822 0.1548
4.8760 0.5298 0.1411
6.2054 0.7349 0.1620
6.1791 0.7924 0.1439
6.4943 0.8966 0.1329
4.9157 0.7271 0.0867
6.4947 1.0248 0.0962
6.4949 1.0892 0.0778
4.6322 0.8229 0.0424
4.6261 0.8680 0.0292
4.6298 0.9151 0.0160
6.4957 1.3492 0.0040
6.4959 1.4148 -0.0145
6.4961 1.4808 -0.0331
6.4963 1.5470 -0.0517
6.4965 1.6136 -0.0704
6.4967 1.6805 -0.0891
6.4969 1.7478 -0.1079
6.4971 1.8154 -0.1268
6.4973 1.8835 -0.1457
6.4976 1.9519 -0.1647
6.4978 2.0208 -0.1837
6.4980 2.0901 -0.2029
6.4982 2.1599 -0.2221
6.4984 2.2301 -0.2414
6.4986 2.3009 -0.2609
6.4989 2.3721 -0.2804
6.4991 2.4439 -0.3000
6.4993 2.5163 -0.3197
6.4995 2.5892 -0.3396
6.4998 2.6628 -0.3595
6.5000 2.7369 -0.3796
6.5002 2.8118 -0.3999
6.5005 2.8873 -0.4202
6.5007 2.9635 -0.4407
6.4969 3.0384 -0.4611
6.4970 3.1160 -0.4819
6.4972 3.1943 -0.5028
6.4973 3.2734 -0.5240
6.4975 3.3534 -0.5453
6.4977 3.4342 -0.5667
6.4978 3.5159 -0.5884
6.4980 3.5986 -0.6103
6.4981 3.6821 -0.6324
6.4983 3.7667 -0.6547
6.0460 -5.8415 2.6860
6.1494 -5.8203 2.6860
6.2541 -5.7986 2.6860
6.3599 -5.7764 2.6860
6.4669 -5.7537 2.6860
6.5752 -5.7305 2.6860
6.6848 -5.7067 2.6860
6.7957 -5.6823 2.6860
6.9080 -5.6574 2.6860
7.0217 -5.6318 2.6860
6.9786 -5.4813 2.6264
6.8392 -5.2602 2.5326
6.7454 -5.0798 2.4578
6.6730 -4.9198 2.3925
6.6032 -4.7658 2.3297
6.5360 -4.6172 2.2693
6.4906 -4.4873 2.2177
6.4694 -4.3767 2.1755
6.4488 -4.2684 2.1342
6.4285 -4.1623 2.0938
6.4087 -4.0584 2.0544
6.3893 -3.9565 2.0158
6.3702 -3.8566 1.9780
6.3710 -3.7701 1.9470
6.3740 -3.6860 1.9171
6.3769 -3.6028 1.8877
6.3798 -3.5206 1.8587
6.3827 -3.4393 1.8301
6.3855 -3.3589 1.8019
6.3884 -3.2794 1.7741
6.3915 -3.2008 1.7467
6.4008 -3.1260 1.7213
6.4100 -3.0518 1.6963
6.4191 -2.9782 1.6715
6.4282 -2.9051 1.6469
6.4372 -2.8325 1.6226
6.4462 -2.7605 1.5986
6.4550 -2.6889 1.5748
6.4636 -2.6176 1.5512
6.4695 -2.5458 1.5272
6.4753 -2.4744 1.5034
6.4811 -2.4035 1.4798
6.4843 -2.3322 1.4559
6.4844 -2.2603 1.4316
6.4845 -2.1889 1.4075
6.4846 -2.1181 1.3837
6.4847 -2.0477 1.3602
6.4847 -1.9779 1.3369
6.4848 -1.9085 1.3138
6.4849 -1.8395 1.2909
6.4850 -1.7710 1.2683
6.4851 -1.7029 1.2459
6.4852 -1.6352 1.2236
6.4853 -1.5679 1.2016
6.4853 -1.5010 1.1798
6.4854 -1.4344 1.1582
6.4855 -1.3681 1.1367
4.8766 -0.9790 0.8387
4.8776 -0.9298 0.8230
4.8513 -0.8759 0.8029
5.4761 -0.9337 0.8887
5.8593 -0.9405 0.9323
6.0086 -0.9045 0.9370
6.4861 -0.9121 0.9912
6.4861 -0.8479 0.9710
6.4862 -0.7839 0.9509
6.4863 -0.7201 0.9310
6.4864 -0.6564 0.9112
6.4865 -0.5929 0.8915
6.4865 -0.5296 0.8719
6.4866 -0.4664 0.8525
6.4867 -0.4032 0.8331
6.4868 -0.3402 0.8139
6.4869 -0.2773 0.7947
6.4869 -0.2145 0.7757
6.4870 -0.1517 0.7567
6.4871 -0.0889 0.7379
6.4872 -0.0262 0.7191
6.4873 0.0364 0.7004
6.1941 0.0947 0.6509
6.1952 0.1546 0.6333
6.4919 0.2247 0.6451
6.2197 0.2754 0.6004
6.2207 0.3356 0.5829
6.2218 0.3959 0.5654
6.2228 0.4563 0.5480
6.2239 0.5167 0.5306
6.2250 0.5773 0.5133
6.2260 0.6380 0.4960
6.2271 0.6988 0.4787
6.2282 0.7597 0.4614
6.2293 0.8209 0.4442
6.2303 0.8822 0.4270
6.4943 0.9835 0.4271
6.4945 1.0476 0.4092
6.4947 1.1119 0.3912
6.4949 1.1764 0.3733
6.1860 1.1822 0.3385
4.8840 0.9822 0.2538
4.8849 1.0314 0.2403
4.9131 1.0870 0.2282
4.9140 1.1369 0.2146
4.9149 1.1871 0.2011
4.9158 1.2376 0.1876
4.9167 1.2883 0.1740
4.9176 1.3393 0.1604
4.8910 1.3829 0.1460
4.9416 1.4488 0.1338
6.1983 1.8823 0.1506
6.2195 1.9544 0.1338
6.4978 2.1109 0.1217
6.4980 2.1805 0.1035
6.4983 2.2506 0.0853
4.6526 1.6619 0.0480
4.6409 1.7084 0.0348
4.6418 1.7598 0.0216
4.6532 1.8157 0.0085
6.4994 2.6087 -0.0067
6.4996 2.6820 -0.0253
6.4998 2.7559 -0.0440
6.5001 2.8305 -0.0627
6.5003 2.9057 -0.0816
6.5005 2.9816 -0.1005
6.4968 3.0563 -0.1195
6.4969 3.1336 -0.1386
6.4971 3.2116 -0.1579
6.4972 3.2904 -0.1772
6.4974 3.3701 -0.1967
6.4975 3.4505 -0.2163
6.4977 3.5319 -0.2360
6.4978 3.6141 -0.2559
6.4980 3.6973 -0.2759
6.4982 3.7814 -0.2961
6.4983 3.8665 -0.3164
5.2651 -4.9846 2.6860
5.3507 -4.9613 2.6860
5.4371 -4.9376 2.6860
5.5242 -4.9133 2.6860
5.6121 -4.8885 2.6860
5.7009 -4.8631 2.6860
5.7905 -4.8371 2.6860
5.8809 -4.8107 2.6860
5.9722 -4.7836 2.6860
6.0644 -4.7559 2.6860
6.1575 -4.7276 2.6860
6.2516 -4.6987 2.6860
6.3466 -4.6692 2.6860
6.4427 -4.6390 2.6860
6.5282 -4.6001 2.6812
6.4879 -4.4732 2.6253
6.4666 -4.3620 2.5782
6.4459 -4.2531 2.5322
6.4255 -4.1465 2.4873
6.4056 -4.0421 2.4434
6.3861 -3.9397 2.4006
6.3685 -3.8403 2.3593
6.3715 -3.7547 2.3263
6.3745 -3.6702 2.2938
6.3775 -3.5866 2.2618
6.3804 -3.5040 2.2303
6.3833 -3.4223 2.1993
6.3862 -3.3415 2.1688
6.3890 -3.2616 2.1387
6.3937 -3.1835 2.1097
6.4030 -3.1084 2.0826
6.4122 -3.0338 2.0558
6.4214 -2.9599 2.0294
6.4305 -2.8865 2.0032
6.4396 -2.8136 1.9774
6.4485 -2.7412 1.9519
6.4575 -2.6693 1.9266
6.4652 -2.5975 1.9013
6.4711 -2.5254 1.8758
6.4770 -2.4538 1.8506
6.4828 -2.3827 1.8257
6.4846 -2.3107 1.7999
6.4847 -2.2385 1.7740
6.4848 -2.1670 1.7483
6.4849 -2.0960 1.7230
6.4849 -2.0254 1.6980
6.4850 -1.9554 1.6733
6.4851 -1.8859 1.6489
6.4852 -1.8168 1.6247
6.4853 -1.7482 1.6008
6.4854 -1.6800 1.5772
6.4855 -1.6122 1.5538
6.4855 -1.5448 1.5306
6.4856 -1.4777 1.5077
6.4857 -1.4110 1.4850
6.4858 -1.3446 1.4626
4.8771 -0.9614 1.0831
4.8779 -0.9121 1.0667
4.9621 -0.8777 1.0684
5.6109 -0.9361 1.1893
5.9963 -0.9404 1.2512
6.0764 -0.8923 1.2480
6.4863 -0.8881 1.3111
6.4864 -0.8239 1.2902
6.4865 -0.7598 1.2695
6.4866 -0.6960 1.2490
6.4867 -0.6323 1.2286
6.4867 -0.5688 1.2084
6.4868 -0.5054 1.1883
6.4869 -0.4421 1.1684
6.4870 -0.3790 1.1486
6.4871 -0.3160 1.1289
6.4871 -0.2530 1.1094
6.4872 -0.1902 1.0901
6.4873 -0.1274 1.0708
6.4874 -0.0647 1.0517
6.4874 -0.0019 1.0326
6.4875 0.0607 1.0137
6.1945 0.1179 0.9500
6.1683 0.1769 0.9282
6.2190 0.2385 0.9180
6.2201 0.2986 0.9004
6.2211 0.3588 0.8829
6.2222 0.4191 0.8655
6.2232 0.4794 0.8482
6.2243 0.5398 0.8309
6.2254 0.6004 0.8137
6.2264 0.6610 0.7966
6.2275 0.7218 0.7795
6.2286 0.7827 0.7625
6.2297 0.8438 0.7456
6.2307 0.9050 0.7287
6.2318 0.9664 0.7119
6.2329 1.0280 0.6951
6.2340 1.0898 0.6783
6.2351 1.1519 0.6616
6.2137 1.2098 0.6426
6.2148 1.2721 0.6261
6.2384 1.3395 0.6117
6.2395 1.4025 0.5951
6.2406 1.4659 0.5786
6.2417 1.5295 0.5621
6.2428 1.5935 0.5456
6.2440 1.6578 0.5291
6.2451 1.7225 0.5126
6.2463 1.7875 0.4962
6.2474 1.8529 0.4797
6.2486 1.9187 0.4632
6.2497 1.9849 0.4468
6.2509 2.0516 0.4303
6.4979 2.2020 0.4301
6.4981 2.2719 0.4129
6.3252 2.2799 0.3852
6.2118 2.3067 0.3618
6.0476 2.3120 0.3362
5.8849 2.3149 0.3115
4.9016 1.9827 0.2464
4.9301 2.0496 0.2347
4.9310 2.1058 0.2216
4.9320 2.1626 0.2085
4.9330 2.2198 0.1953
4.9341 2.2776 0.1820
4.9351 2.3360 0.1688
4.9086 2.3815 0.1546
4.9097 2.4407 0.1413
6.4971 3.3082 0.1694
6.4972 3.3875 0.1516
6.4974 3.4676 0.1338
6.4975 3.5486 0.1159
6.4977 3.6304 0.0980
6.4979 3.7132 0.0799
6.4980 3.7969 0.0618
6.4982 3.8817 0.0436
6.4984 3.9674 0.0252
4.7330 -4.3875 2.7308
4.7423 -4.3046 2.6942
4.8009 -4.2671 2.6860
4.8746 -4.2422 2.6860
4.9487 -4.2168 2.6860
5.0234 -4.1909 2.6860
5.0986 -4.1645 2.6860
5.1744 -4.1375 2.6860
5.2507 -4.1099 2.6860
5.3277 -4.0818 2.6860
5.4052 -4.0532 2.6860
5.4833 -4.0239 2.6860
5.5621 -3.9941 2.6860
5.6415 -3.9636 2.6860
5.7216 -3.9325 2.6860
5.8024 -3.9008 2.6860
5.8838 -3.8684 2.6860
5.9659 -3.8354 2.6860
6.0488 -3.8017 2.6860
6.1324 -3.7674 2.6860
6.2168 -3.7323 2.6860
6.3019 -3.6965 2.6860
6.3751 -3.6527 2.6806
6.3781 -3.5687 2.6459
6.3810 -3.4857 2.6118
6.3840 -3.4036 2.5783
6.3868 -3.3225 2.5452
6.3897 -3.2422 2.5127
6.3960 -3.1646 2.4821
6.4054 -3.0891 2.4531
6.4147 -3.0142 2.4245
6.4239 -2.9400 2.3963
6.4330 -2.8662 2.3684
6.4421 -2.7931 2.3409
6.4511 -2.7204 2.3138
6.4601 -2.6482 2.2870
6.4670 -2.5758 2.2598
6.4729 -2.5034 2.2327
6.4788 -2.4316 2.2059
6.4847 -2.3603 2.1794
6.4849 -2.2875 2.1515
6.4850 -2.2152 2.1238
6.4851 -2.1435 2.0966
6.4852 -2.0723 2.0696
6.4852 -2.0017 2.0431
6.4853 -1.9315 2.0168
6.4854 -1.8618 1.9909
6.4855 -1.7926 1.9654
6.4856 -1.7239 1.9401
6.4857 -1.6556 1.9152
6.4857 -1.5876 1.8905
6.4858 -1.5201 1.8661
6.4859 -1.4529 1.8420
6.4860 -1.3862 1.8182
4.8493 -0.9866 1.3418
4.8774 -0.9426 1.3320
4.8511 -0.8883 1.3076
5.0537 -0.8743 1.3444
5.7611 -0.9387 1.5126
6.0054 -0.9184 1.5560
6.4866 -0.9273 1.6586
6.4866 -0.8628 1.6367
6.4867 -0.7985 1.6151
6.4868 -0.7344 1.5936
6.4869 -0.6705 1.5724
6.4869 -0.6068 1.5514
6.4870 -0.5432 1.5305
6.4871 -0.4798 1.5099
6.4872 -0.4166 1.4894
6.4873 -0.3534 1.4691
6.4873 -0.2904 1.4490
6.4874 -0.2274 1.4290
6.4875 -0.1646 1.4092
6.4876 -0.1018 1.3896
6.4877 -0.0390 1.3702
6.4877 0.0236 1.3508
6.1666 0.0821 1.2657
6.1949 0.1423 1.2534
6.4914 0.2117 1.2945
6.2194 0.2629 1.2222
6.2205 0.3230 1.2046
6.2215 0.3832 1.1870
6.2226 0.4434 1.1696
6.2237 0.5037 1.1523
6.2247 0.5641 1.1351
6.2258 0.6246 1.1180
6.2269 0.6852 1.1010
6.2279 0.7460 1.0841
6.2290 0.8068 1.0673
6.2301 0.8678 1.0506
6.2312 0.9290 1.0339
6.2322 0.9904 1.0174
6.2333 1.0519 1.0009
6.2344 1.1137 0.9845
6.2322 1.1750 0.9677
6.2141 1.2334 0.9485
6.1878 1.2899 0.9283
6.2388 1.3629 0.9197
6.2399 1.4259 0.9036
6.2410 1.4892 0.8877
6.2421 1.5527 0.8717
6.2433 1.6166 0.8559
6.2444 1.6808 0.8401
6.2455 1.7453 0.8243
6.2467 1.8102 0.8086
6.2478 1.8755 0.7929
6.2490 1.9411 0.7772
6.2501 2.0072 0.7616
6.2513 2.0737 0.7461
6.2525 2.1407 0.7305
6.2537 2.2081 0.7150
6.2682 2.2809 0.7011
6.1555 2.3067 0.6731
6.0396 2.3294 0.6454
5.8789 2.3322 0.6136
5.6920 2.3213 0.5800
5.5315 2.3177 0.5499
5.3495 2.3019 0.5186
5.3781 2.3754 0.5081
6.4999 2.9454 0.5980
6.5002 3.0208 0.5819
6.4965 3.0950 0.5655
6.4967 3.1716 0.5495
6.4968 3.2491 0.5334
6.4970 3.3272 0.5173
6.4971 3.4062 0.5013
6.4973 3.4860 0.4852
6.4974 3.5666 0.4690
6.4976 3.6480 0.4529
6.4977 3.7304 0.4367
6.4979 3.8138 0.4205
6.4981 3.8981 0.4043
6.4982 3.9833 0.3880
6.4984 4.0697 0.3717
4.4001 -3.9905 2.8384
4.4664 -3.9654 2.8384
4.5330 -3.9398 2.8384
4.6000 -3.9137 2.8384
4.6673 -3.8870 2.8384
4.7102 -3.8397 2.8235
4.7171 -3.7636 2.7875
4.7238 -3.6886 2.7523
4.7304 -3.6148 2.7177
4.7460 -3.5488 2.6889
4.8068 -3.5167 2.6860
4.8732 -3.4879 2.6860
4.9400 -3.4586 2.6860
5.0072 -3.4288 2.6860
5.0748 -3.3983 2.6860
5.1429 -3.3673 2.6860
5.2113 -3.3357 2.6860
5.2803 -3.3035 2.6860
5.3497 -3.2707 2.6860
5.4196 -3.2373 2.6860
5.4900 -3.2032 2.6860
5.5608 -3.1685 2.6860
5.6322 -3.1332 2.6860
5.7040 -3.0972 2.6860
5.7764 -3.0605 2.6860
5.8494 -3.0231 2.6860
5.9228 -2.9850 2.6860
5.9969 -2.9462 2.6860
6.0714 -2.9066 2.6860
6.1466 -2.8663 2.6860
6.2224 -2.8252 2.6860
6.2988 -2.7834 2.6860
6.3757 -2.7408 2.6860
6.4534 -2.6973 2.6860
6.4630 -2.6251 2.6577
6.4690 -2.5520 2.6284
6.4749 -2.4795 2.5996
6.4808 -2.4074 2.5711
6.4851 -2.3354 2.5424
6.4852 -2.2623 2.5125
6.4853 -2.1898 2.4830
6.4854 -2.1180 2.4539
6.4855 -2.0466 2.4253
6.4856 -1.9758 2.3970
6.4856 -1.9056 2.3692
6.4857 -1.8358 2.3417
6.4858 -1.7665 2.3146
6.4859 -1.6976 2.2879
6.4860 -1.6291 2.2615
6.4860 -1.5611 2.2355
6.4861 -1.4935 2.2098
6.4862 -1.4263 2.1844
6.4863 -1.3594 2.1593
4.8769 -0.9720 1.6049
4.8778 -0.9224 1.5868
4.8988 -0.8766 1.5754
5.5368 -0.9348 1.7602
5.9317 -0.9418 1.8642
6.0168 -0.8949 1.8693
6.4868 -0.9001 1.9923
6.4869 -0.8356 1.9695
6.4870 -0.7712 1.9470
6.4871 -0.7071 1.9248
6.4872 -0.6432 1.9028
6.4872 -0.5795 1.8810
6.4873 -0.5159 1.8595
6.4874 -0.4525 1.8381
6.4875 -0.3892 1.8171
6.4876 -0.3261 1.7962
6.4876 -0.2630 1.7755
6.4877 -0.2001 1.7551
6.4878 -0.1372 1.7348
6.4879 -0.0744 1.7147
6.4879 -0.0117 1.6949
6.4880 0.0510 1.6752
6.1943 0.1085 1.5807
6.1954 0.1683 1.5625
6.2188 0.2290 1.5501
6.2199 0.2890 1.5321
6.2209 0.3491 1.5143
6.2220 0.4092 1.4967
6.2231 0.4695 1.4792
6.2241 0.5297 1.4619
6.2252 0.5901 1.4447
6.2263 0.6505 1.4276
6.2273 0.7111 1.4107
6.2284 0.7718 1.3938
6.2295 0.8326 1.3772
6.2305 0.8935 1.3606
6.2316 0.9546 1.3442
6.2327 1.0159 1.3279
6.2338 1.0774 1.3117
6.2348 1.1391 1.2956
6.1861 1.1914 1.2694
6.2146 1.2585 1.2592
6.2489 1.3277 1.2501
6.2392 1.3880 1.2323
6.2403 1.4509 1.2167
6.2414 1.5140 1.2012
6.2426 1.5775 1.1858
6.2437 1.6412 1.1706
6.2448 1.7053 1.1553
6.2459 1.7697 1.1402
6.2471 1.8345 1.1252
6.2482 1.8996 1.1102
6.2494 1.9652 1.0954
6.2505 2.0311 1.0806
6.2517 2.0975 1.0658
6.2529 2.1643 1.0512
6.2541 2.2315 1.0366
6.2081 2.2819 1.0144
6.1139 2.3135 0.9847
5.9858 2.3303 0.9501
5.8283 2.3331 0.9115
5.6779 2.3358 0.8749
5.4328 2.2956 0.8246
5.3774 2.3326 0.8039
5.3784 2.3941 0.7917
6.4997 2.9676 0.9420
6.4962 3.0409 0.9268
6.4964 3.1166 0.9121
6.4965 3.1930 0.8975
6.4967 3.2701 0.8829
6.4968 3.3479 0.8684
6.4970 3.4266 0.8539
6.4971 3.5060 0.8394
6.4973 3.5863 0.8250
6.4974 3.6674 0.8106
6.4976 3.7494 0.7962
6.4978 3.8323 0.7819
6.4979 3.9162 0.7676
6.4981 4.0011 0.7533
6.4982 4.0870 0.7390
6.4984 4.1739 0.7248
3.9711 -3.5197 2.8384
4.0291 -3.4951 2.8384
4.0874 -3.4701 2.8384
4.1459 -3.4447 2.8384
4.2047 -3.4187 2.8384
4.2637 -3.3923 2.8384
4.3230 -3.3654 2.8384
4.3825 -3.3380 2.8384
4.4423 -3.3101 2.8384
4.5023 -3.2817 2.8384
4.5626 -3.2528 2.8384
4.6232 -3.2233 2.8384
4.6840 -3.1934 2.8384
4.7129 -3.1414 2.8191
4.7191 -3.0748 2.7867
4.7252 -3.0091 2.7549
4.7311 -2.9441 2.7237
4.7412 -2.8824 2.6954
4.7838 -2.8409 2.6860
4.8434 -2.8088 2.6860
4.9032 -2.7761 2.6860
4.9634 -2.7430 2.6860
5.0239 -2.7092 2.6860
5.0847 -2.6748 2.6860
5.1458 -2.6398 2.6860
5.2072 -2.6042 2.6860
5.2690 -2.5680 2.6860
5.3311 -2.5311 2.6860
5.3936 -2.4936 2.6860
5.4564 -2.4554 2.6860
5.5196 -2.4166 2.6860
5.5831 -2.3771 2.6860
5.6470 -2.3369 2.6860
5.7113 -2.2960 2.6860
5.7760 -2.2544 2.6860
5.8410 -2.2120 2.6860
5.9065 -2.1689 2.6860
5.9723 -2.1251 2.6860
6.0386 -2.0804 2.6860
6.1053 -2.0351 2.6860
6.1724 -1.9888 2.6860
6.2399 -1.9418 2.6860
6.3079 -1.8940 2.6860
6.3763 -1.8453 2.6860
6.4452 -1.7958 2.6860
6.4861 -1.7378 2.6742
6.4862 -1.6688 2.6459
6.4863 -1.6003 2.6180
6.4864 -1.5322 2.5905
6.4864 -1.4645 2.5633
6.4865 -1.3972 2.5366
4.8492 -0.9944 1.8765
4.8773 -0.9501 1.8678
4.8510 -0.8954 1.8385
5.8227 -0.8980 2.1394
5.0345 -0.8781 1.8884
6.2438 -0.9003 2.2706
5.7080 -0.9378 2.1190
6.4872 -0.8706 2.3350
6.4873 -0.7417 2.2878
6.4872 -0.8061 2.3113
6.4874 -0.6776 2.2647
6.4876 -0.4863 2.1969
6.4875 -0.6136 2.2418
6.4877 -0.4229 2.1749
6.4875 -0.5499 2.2192
6.4878 -0.3596 2.1531
6.4879 -0.2334 2.1102
6.4879 -0.2965 2.1315
6.4880 -0.1705 2.0892
6.4882 0.0178 2.0275
6.4881 -0.1076 2.0684
6.1665 0.0765 1.9078
6.4882 -0.0449 2.0478
6.1948 0.1367 1.8975
6.2193 0.2572 1.8674
6.4909 0.2058 1.9685
6.2204 0.3172 1.8493
6.2236 0.4975 1.7959
6.2214 0.3773 1.8313
6.2246 0.5578 1.7784
6.2225 0.4374 1.8135
6.2257 0.6181 1.7611
6.2278 0.7390 1.7271
6.2267 0.6785 1.7440
6.2289 0.7996 1.7103
6.2321 0.9823 1.6610
6.2299 0.8604 1.6937
6.2332 1.0435 1.6448
6.2310 0.9212 1.6773
6.2342 1.1049 1.6288
6.2140 1.2239 1.5915
6.2766 1.1742 1.6237
6.1877 1.2800 1.5691
6.2408 1.4779 1.5359
6.2386 1.3526 1.5663
6.2419 1.5409 1.5208
6.2397 1.4151 1.5510
6.2430 1.6043 1.5059
6.2453 1.7319 1.4765
6.2442 1.6679 1.4912
6.2464 1.7962 1.4620
6.2498 1.9912 1.4192
6.2475 1.8608 1.4476
6.2510 2.0570 1.4051
6.2487 1.9258 1.4333
6.2522 2.1232 1.3912
6.3183 2.2800 1.3775
6.2533 2.1899 1.3773
6.2332 2.3161 1.3451
5.7741 2.3341 1.2082
6.0894 2.3285 1.3007
5.6269 2.3367 1.1653
5.9282 2.3314 1.2533
5.3856 2.2964 1.1039
5.3513 2.4023 1.0742
5.3777 2.3533 1.0908
6.4996 2.9918 1.2911
6.4964 3.2164 1.2504
6.4961 3.0649 1.2770
6.4966 3.2932 1.2372
6.4963 3.1403 1.2636
6.4967 3.3708 1.2242
6.4970 3.5282 1.1983
6.4968 3.4491 1.2112
6.4972 3.6082 1.1855
6.4973 3.6889 1.1728
6.4975 3.7706 1.1602
6.4976 3.8531 1.1476
6.4978 3.9366 1.1352
6.4979 4.0211 1.1228
6.4981 4.1065 1.1105
6.4983 4.1930 1.0983
6.4984 4.2806 1.0861
3.6092 -3.1226 2.8384
3.6606 -3.0989 2.8384
3.7122 -3.0747 2.8384
3.7639 -3.0501 2.8384
3.8158 -3.0250 2.8384
3.8678 -2.9995 2.8384
3.9200 -2.9736 2.8384
3.9724 -2.9472 2.8384
4.0249 -2.9204 2.8384
4.0775 -2.8930 2.8384
4.1304 -2.8653 2.8384
4.1834 -2.8370 2.8384
4.2365 -2.8083 2.8384
4.2899 -2.7790 2.8384
4.3434 -2.7493 2.8384
4.3971 -2.7191 2.8384
4.4510 -2.6884 2.8384
4.5051 -2.6571 2.8384
4.5593 -2.6254 2.8384
4.6138 -2.5931 2.8384
4.6684 -2.5602 2.8384
4.7122 -2.5210 2.8318
4.7178 -2.4614 2.8025
4.7233 -2.4025 2.7737
4.7287 -2.3440 2.7454
4.7340 -2.2862 2.7175
4.7450 -2.2315 2.6934
4.7849 -2.1905 2.6860
4.8381 -2.1551 2.6860
4.9003 -2.1229 2.6908
4.9452 -2.0826 2.6860
4.9990 -2.0455 2.6860
5.0531 -2.0077 2.6860
5.1074 -1.9694 2.6860
5.1619 -1.9304 2.6860
5.2166 -1.8908 2.6860
5.2715 -1.8505 2.6860
5.3267 -1.8096 2.6860
5.3821 -1.7680 2.6860
5.4377 -1.7258 2.6860
5.4935 -1.6829 2.6860
5.5496 -1.6393 2.6860
5.6059 -1.5950 2.6860
5.6625 -1.5500 2.6860
5.7193 -1.5042 2.6860
5.7763 -1.4577 2.6860
5.8336 -1.4104 2.6860
5.8911 -1.3624 2.6860
5.9489 -1.3136 2.6860
6.0070 -1.2641 2.6860
4.8768 -0.9759 2.1597
4.8777 -0.9259 2.1394
4.8788 -0.8763 2.1195
6.2418 -1.0576 2.6860
6.1751 -0.9838 2.6322
6.1490 -0.9176 2.5965
6.4208 -0.8937 2.6860
6.4810 -0.8374 2.6860
6.4875 -0.7737 2.6638
6.4876 -0.7093 2.6393
6.4877 -0.6452 2.6152
6.4878 -0.5812 2.5914
6.4879 -0.5175 2.5679
6.4879 -0.4539 2.5447
6.4880 -0.3905 2.5218
6.4881 -0.3272 2.4992
6.4882 -0.2641 2.4769
6.4882 -0.2011 2.4549
6.4883 -0.1381 2.4332
6.4884 -0.0753 2.4118
6.4885 -0.0126 2.3906
6.4885 0.0501 2.3697
6.1943 0.1077 2.2425
6.1954 0.1674 2.2234
6.2188 0.2280 2.2125
6.2199 0.2880 2.1938
6.2209 0.3480 2.1753
6.2220 0.4080 2.1571
6.2230 0.4681 2.1390
6.2241 0.5282 2.1212
6.2252 0.5884 2.1036
6.2262 0.6486 2.0862
6.2273 0.7090 2.0690
6.2283 0.7694 2.0520
6.2294 0.8300 2.0352
6.2305 0.8907 2.0186
6.2315 0.9515 2.0022
6.2326 1.0125 1.9860
6.2337 1.0736 1.9700
6.2348 1.1350 1.9542
6.1860 1.1869 1.9230
6.2145 1.2537 1.9161
6.4943 1.3744 1.9861
6.2391 1.3823 1.8926
6.2402 1.4447 1.8776
6.2413 1.5074 1.8628
6.2424 1.5703 1.8482
6.2436 1.6336 1.8337
6.2447 1.6971 1.8194
6.2458 1.7609 1.8053
6.2469 1.8251 1.7913
6.2481 1.8896 1.7775
6.2492 1.9545 1.7639
6.2503 2.0198 1.7503
6.2515 2.0854 1.7370
6.2527 2.1515 1.7238
6.2538 2.2180 1.7107
6.2450 2.2813 1.6951
6.1359 2.3071 1.6526
6.0233 2.3297 1.6099
5.8163 2.3127 1.5426
5.7684 2.3567 1.5183
5.4698 2.2949 1.4287
5.3496 2.3038 1.3868
5.3230 2.3519 1.3695
6.4992 2.9448 1.6595
6.4994 3.0187 1.6472
6.4960 3.0916 1.6341
6.4961 3.1667 1.6220
6.4963 3.2426 1.6101
6.4964 3.3191 1.5983
6.4966 3.3964 1.5866
6.4967 3.4744 1.5751
6.4969 3.5532 1.5637
6.4970 3.6328 1.5525
6.4972 3.7132 1.5414
6.4973 3.7945 1.5305
6.4975 3.8767 1.5196
6.4976 3.9598 1.5090
6.4978 4.0438 1.4984
6.4980 4.1289 1.4880
6.4981 4.2149 1.4778
6.4983 4.3020 1.4676
6.4985 4.3902 1.4577
3.2986 -2.7818 2.8384
3.3446 -2.7590 2.8384
3.3906 -2.7358 2.8384
3.4367 -2.7121 2.8384
3.4829 -2.6881 2.8384
3.5292 -2.6636 2.8384
3.5756 -2.6388 2.8384
3.6221 -2.6135 2.8384
3.6687 -2.5878 2.8384
3.7154 -2.5617 2.8384
3.7621 -2.5351 2.8384
3.8090 -2.5081 2.8384
3.8559 -2.4807 2.8384
3.9030 -2.4528 2.8384
3.9501 -2.4245 2.8384
3.9974 -2.3958 2.8384
4.0447 -2.3665 2.8384
4.0922 -2.3368 2.8384
4.1397 -2.3066 2.8384
4.1874 -2.2760 2.8384
4.2351 -2.2449 2.8384
4.2830 -2.2133 2.8384
4.3309 -2.1812 2.8384
4.3790 -2.1486 2.8384
4.4272 -2.1154 2.8384
4.4755 -2.0818 2.8384
4.5238 -2.0477 2.8384
4.5723 -2.0130 2.8384
4.6209 -1.9778 2.8384
4.6696 -1.9421 2.8384
4.7132 -1.9037 2.8352
4.7182 -1.8497 2.8091
4.7231 -1.7961 2.7834
4.7279 -1.7429 2.7581
4.7327 -1.6900 2.7332
4.7374 -1.6376 2.7087
4.7507 -1.5883 2.6894
4.7915 -1.5481 2.6860
4.8385 -1.5094 2.6860
4.8857 -1.4701 2.6860
4.9329 -1.4303 2.6860
4.9803 -1.3898 2.6860
5.0278 -1.3487 2.6860
5.0754 -1.3070 2.6860
5.1230 -1.2648 2.6860
5.1708 -1.2218 2.6860
5.2188 -1.1782 2.6860
5.2668 -1.1340 2.6860
4.8492 -0.9937 2.4506
4.8773 -0.9491 2.4427
4.8510 -0.8941 2.4078
5.4599 -0.9505 2.6860
5.5084 -0.9029 2.6860
5.5571 -0.8546 2.6860
5.6058 -0.8056 2.6860
5.6547 -0.7559 2.6860
5.7037 -0.7054 2.6860
5.7527 -0.6542 2.6860
5.8019 -0.6022 2.6860
5.8512 -0.5495 2.6860
5.9005 -0.4960 2.6860
5.9500 -0.4417 2.6860
5.9996 -0.3866 2.6860
6.0492 -0.3307 2.6860
6.0990 -0.2739 2.6860
6.1488 -0.2163 2.6860
6.1988 -0.1579 2.6860
6.2989 -0.0385 2.6860
6.2488 -0.0986 2.6860
6.3491 0.0226 2.6860
6.4904 0.2109 2.6820
6.1666 0.0814 2.5883
6.4906 0.2734 2.6614
6.1949 0.1416 2.5799
6.4908 0.3359 2.6410
5.6745 0.4029 2.2740
5.6920 0.3494 2.2984
5.6733 0.4575 2.2564
5.7133 0.6260 2.2220
5.6851 0.5132 2.2442
5.7356 0.6838 2.2144
5.6967 0.5692 2.2321
5.7578 0.7422 2.2067
5.8156 0.8624 2.1968
5.7859 0.8019 2.2014
5.8453 0.9237 2.1923
5.9481 1.1142 2.1840
5.8767 0.9859 2.1884
6.2140 1.2251 2.2657
5.9124 1.0497 2.1862
6.1877 1.2808 2.2406
6.4944 1.4728 2.3196
5.6719 1.2301 2.0397
6.2408 1.4774 2.2139
6.2441 1.6659 2.1711
6.2419 1.5399 2.1994
6.2452 1.7293 2.1572
6.2430 1.6028 2.1852
6.2464 1.7931 2.1435
6.2486 1.9215 2.1168
6.2475 1.8571 2.1301
6.2498 1.9863 2.1037
6.2532 2.1828 2.0655
6.2509 2.0514 2.0908
6.2544 2.2492 2.0532
6.2521 2.1169 2.0781
6.2056 2.2975 2.0248
5.9516 2.3309 1.9186
5.7983 2.3336 1.8581
6.1080 2.3266 1.9809
5.6517 2.3362 1.8004
5.3775 2.3414 1.6933
5.4106 2.2960 1.7136
5.3732 2.3994 1.6823
6.4959 3.1215 2.0000
6.4960 3.1964 1.9891
6.4990 2.9752 2.0233
6.4962 3.2719 1.9785
6.4963 3.3482 1.9680
6.4957 3.0472 2.0110
6.4965 3.4252 1.9577
6.4970 3.7408 1.9185
6.4966 3.5029 1.9476
6.4967 3.5814 1.9377
6.4972 3.8218 1.9091
6.4969 3.6607 1.9280
6.4974 3.9036 1.9000
6.4975 3.9863 1.8911
6.4977 4.0700 1.8823
6.4978 4.1546 1.8738
6.4980 4.2403 1.8654
6.4981 4.3270 1.8573
6.4983 4.4147 1.8493
6.4985 4.5036 1.8416
3.0281 -2.4850 2.8384
3.0694 -2.4631 2.8384
3.1108 -2.4408 2.8384
3.1522 -2.4182 2.8384
3.1937 -2.3952 2.8384
3.2352 -2.3719 2.8384
3.2767 -2.3481 2.8384
3.3183 -2.3240 2.8384
3.3600 -2.2995 2.8384
3.4016 -2.2746 2.8384
3.4433 -2.2493 2.8384
3.4851 -2.2236 2.8384
3.5269 -2.1976 2.8384
3.5688 -2.1711 2.8384
3.6106 -2.1441 2.8384
3.6526 -2.1168 2.8384
3.6945 -2.0891 2.8384
3.7366 -2.0610 2.8384
3.7786 -2.0324 2.8384
3.8207 -2.0033 2.8384
3.8629 -1.9739 2.8384
3.9050 -1.9440 2.8384
3.9472 -1.9137 2.8384
3.9895 -1.8829 2.8384
4.0318 -1.8517 2.8384
4.0741 -1.8200 2.8384
4.1165 -1.7879 2.8384
4.1589 -1.7553 2.8384
4.2014 -1.7222 2.8384
4.2439 -1.6886 2.8384
4.2864 -1.6546 2.8384
4.3289 -1.6200 2.8384
4.3715 -1.5850 2.8384
4.4142 -1.5495 2.8384
4.4568 -1.5135 2.8384
4.4995 -1.4769 2.8384
4.5422 -1.4398 2.8384
4.5850 -1.4022 2.8384
4.6278 -1.3642 2.8384
4.6706 -1.3255 2.8384
4.7134 -1.2864 2.8384
4.7186 -1.2368 2.8159
4.7229 -1.1872 2.7933
4.7271 -1.1379 2.7710
4.7313 -1.0888 2.7491
4.7355 -1.0399 2.7275
4.7395 -0.9913 2.7063
4.7518 -0.9444 2.6900
4.7853 -0.9016 2.6860
4.8260 -0.8597 2.6860
4.8667 -0.8172 2.6860
4.9074 -0.7741 2.6860
4.9481 -0.7304 2.6860
4.9888 -0.6861 2.6860
5.0295 -0.6413 2.6860
5.0702 -0.5958 2.6860
5.1109 -0.5497 2.6860
5.1516 -0.5030 2.6860
5.1923 -0.4556 2.6860
5.2330 -0.4077 2.6860
5.2737 -0.3590 2.6860
5.4361 -0.1580 2.6860
5.3143 -0.3098 2.6860
5.4767 -0.1060 2.6860
5.3549 -0.2599 2.6860
5.5172 -0.0534 2.6860
5.3956 -0.2092 2.6860
5.5577 -0.0000 2.6860
5.5981 0.0540 2.6860
5.7593 0.2775 2.6860
5.6385 0.1088 2.6860
5.7995 0.3352 2.6860
5.6788 0.1643 2.6860
5.8396 0.3937 2.6860
5.7191 0.2205 2.6860
5.8796 0.4529 2.6860
5.9196 0.5129 2.6860
6.0785 0.7610 2.6860
5.9594 0.5738 2.6860
6.1180 0.8251 2.6860
5.9992 0.6354 2.6860
6.1573 0.8900 2.6860
6.0389 0.6978 2.6860
6.1966 0.9557 2.6860
6.2357 1.0223 2.6860
6.2146 1.2616 2.6119
6.2747 1.0897 2.6860
6.4293 1.3683 2.6860
6.3136 1.1580 2.6860
6.4675 1.4403 2.6860
6.1862 1.1952 2.6157
6.4942 1.5105 2.6813
5.7087 1.6134 2.2910
6.4944 1.5750 2.6659
5.6965 1.6677 2.2736
6.4946 1.6398 2.6507
5.6927 1.7245 2.2598
5.7014 1.7855 2.2511
6.4948 1.7048 2.6357
5.7099 1.8469 2.2426
6.4950 1.7701 2.6211
5.7184 1.9087 2.2342
5.7267 1.9710 2.2260
5.7575 2.1024 2.2155
5.7420 2.0363 2.2206
5.6862 2.3194 2.1461
5.7728 2.1690 2.2104
5.3516 2.4182 1.9835
5.5345 2.3177 2.0791
6.4988 3.0094 2.3982
5.3495 2.2988 2.0004
5.7879 2.2363 2.2054
6.4956 3.0812 2.3868
5.3780 2.3703 2.0021
6.4975 2.5802 2.4639
6.4958 3.1552 2.3769
6.4959 3.2299 2.3672
6.4971 3.8530 2.2985
6.4960 3.3052 2.3578
6.4965 3.5354 2.3309
6.4972 3.9345 2.2910
6.4962 3.3812 2.3486
6.4974 4.0169 2.2837
6.4966 3.6136 2.3224
6.4963 3.4579 2.3396
6.4975 4.1002 2.2767
6.4968 3.6926 2.3142
6.4977 4.1844 2.2700
6.4979 4.2697 2.2635
6.4969 3.7724 2.3062
6.4980 4.3559 2.2573
6.4982 4.4433 2.2513
6.4983 4.5317 2.2456
6.4985 4.6212 2.2402
2.7893 -2.2229 2.8384
2.8267 -2.2020 2.8384
2.8641 -2.1808 2.8384
2.9015 -2.1593 2.8384
2.9389 -2.1373 2.8384
2.9763 -2.1151 2.8384
3.0138 -2.0925 2.8384
3.0512 -2.0695 2.8384
3.0887 -2.0462 2.8384
3.1261 -2.0225 2.8384
3.1636 -1.9985 2.8384
3.2010 -1.9741 2.8384
3.2385 -1.9493 2.8384
3.2760 -1.9242 2.8384
3.3134 -1.8987 2.8384
3.3509 -1.8728 2.8384
3.3884 -1.8466 2.8384
3.4258 -1.8199 2.8384
3.4633 -1.7929 2.8384
3.5008 -1.7655 2.8384
3.5382 -1.7376 2.8384
3.5757 -1.7094 2.8384
3.6132 -1.6808 2.8384
3.6506 -1.6518 2.8384
3.6880 -1.6224 2.8384
3.7255 -1.5926 2.8384
3.7629 -1.5623 2.8384
3.8003 -1.5317 2.8384
3.8377 -1.5006 2.8384
3.8751 -1.4691 2.8384
3.9125 -1.4371 2.8384
3.9498 -1.4048 2.8384
3.9871 -1.3720 2.8384
4.0244 -1.3387 2.8384
4.0617 -1.3050 2.8384
4.0990 -1.2709 2.8384
4.1362 -1.2363 2.8384
4.1735 -1.2012 2.8384
4.2106 -1.1657 2.8384
4.2478 -1.1297 2.8384
4.2849 -1.0933 2.8384
4.3220 -1.0563 2.8384
4.3591 -1.0189 2.8384
4.3961 -0.9810 2.8384
4.4330 -0.9426 2.8384
4.4700 -0.9037 2.8384
4.5068 -0.8644 2.8384
4.5437 -0.8245 2.8384
4.5804 -0.7841 2.8384
4.6172 -0.7432 2.8384
4.6538 -0.7018 2.8384
4.6904 -0.6598 2.8384
4.7172 -0.6161 2.8325
4.7209 -0.5692 2.8130
4.7246 -0.5225 2.7938
4.7282 -0.4758 2.7750
4.7317 -0.4293 2.7564
4.7352 -0.3829 2.7381
4.7387 -0.3365 2.7201
4.7421 -0.2902 2.7024
4.7539 -0.2443 2.6897
4.7812 -0.1992 2.6860
4.8150 -0.1537 2.6860
4.8487 -0.1077 2.6860
4.8823 -0.0611 2.6860
4.9158 -0.0140 2.6860
4.9492 0.0337 2.6860
4.9825 0.0820 2.6860
5.0157 0.1309 2.6860
5.0487 0.1803 2.6860
5.0816 0.2304 2.6860
5.1144 0.2810 2.6860
5.1471 0.3323 2.6860
5.1796 0.3841 2.6860
5.2119 0.4366 2.6860
5.2441 0.4896 2.6860
5.2762 0.5434 2.6860
5.3080 0.5977 2.6860
5.3398 0.6527 2.6860
5.3713 0.7083 2.6860
5.4027 0.7645 2.6860
5.4338 0.8215 2.6860
5.4648 0.8790 2.6860
5.4956 0.9373 2.6860
5.5261 0.9962 2.6860
5.5565 1.0557 2.6860
5.5866 1.1160 2.6860
5.6165 1.1769 2.6860
5.6462 1.2386 2.6860
5.6756 1.3009 2.6860
5.7047 1.3639 2.6860
5.7336 1.4276 2.6860
5.7623 1.4921 2.6860
5.7906 1.5573 2.6860
5.8187 1.6232 2.6860
5.8465 1.6898 2.6860
5.8739 1.7571 2.6860
5.9011 1.8252 2.6860
5.9279 1.8940 2.6860
5.9544 1.9636 2.6860
5.9806 2.0339 2.6860
6.0064 2.1050 2.6860
6.0318 2.1768 2.6860
6.0569 2.2494 2.6860
6.0816 2.3228 2.6860
6.1059 2.3969 2.6860
6.1298 2.4719 2.6860
6.1532 2.5476 2.6860
5.4043 2.2961 2.3503
5.3775 2.3434 2.3301
5.3706 2.3995 2.3188
6.2426 2.8583 2.6860
6.2638 2.9379 2.6860
6.2845 3.0184 2.6860
6.3046 3.0996 2.6860
6.3243 3.1817 2.6860
6.3434 3.2646 2.6860
6.3619 3.3483 2.6860
6.3799 3.4327 2.6860
6.3974 3.5181 2.6860
6.4142 3.6042 2.6860
6.4304 3.6911 2.6860
6.4460 3.7788 2.6860
6.4609 3.8674 2.6860
6.4752 3.9567 2.6860
6.4888 4.0469 2.6860
6.4974 4.1351 2.6842
6.4976 4.2190 2.6792
6.4977 4.3039 2.6746
6.4979 4.3898 2.6703
6.4980 4.4767 2.6663
6.4982 4.5647 2.6626
6.4984 4.6538 2.6593
6.4985 4.7440 2.6563
2.5761 -1.9890 2.8384
2.6101 -1.9691 2.8384
2.6441 -1.9489 2.8384
2.6780 -1.9284 2.8384
2.7119 -1.9075 2.8384
2.7458 -1.8864 2.8384
2.7797 -1.8649 2.8384
2.8136 -1.8431 2.8384
2.8474 -1.8209 2.8384
2.8812 -1.7985 2.8384
2.9150 -1.7757 2.8384
2.9488 -1.7525 2.8384
2.9826 -1.7291 2.8384
3.0163 -1.7052 2.8384
3.0500 -1.6811 2.8384
3.0837 -1.6566 2.8384
3.1173 -1.6318 2.8384
3.1509 -1.6066 2.8384
3.1845 -1.5811 2.8384
3.2180 -1.5552 2.8384
3.2515 -1.5289 2.8384
3.2850 -1.5024 2.8384
3.3184 -1.4754 2.8384
3.3518 -1.4481 2.8384
3.3852 -1.4204 2.8384
3.4185 -1.3923 2.8384
3.4518 -1.3639 2.8384
3.4850 -1.3351 2.8384
3.5181 -1.3059 2.8384
3.5513 -1.2763 2.8384
3.5843 -1.2464 2.8384
3.6174 -1.2160 2.8384
3.6503 -1.1853 2.8384
3.6832 -1.1542 2.8384
3.7161 -1.1227 2.8384
3.7489 -1.0908 2.8384
3.7816 -1.0585 2.8384
3.8142 -1.0257 2.8384
3.8468 -0.9926 2.8384
3.8793 -0.9590 2.8384
3.9118 -0.9251 2.8384
3.9441 -0.8908 2.8384
3.9764 -0.8560 2.8384
4.0087 -0.8207 2.8384
4.0408 -0.7851 2.8384
4.0728 -0.7490 2.8384
4.1048 -0.7125 2.8384
4.1366 -0.6756 2.8384
4.1684 -0.6382 2.8384
4.2001 -0.6004 2.8384
4.2316 -0.5621 2.8384
4.2631 -0.5234 2.8384
4.2945 -0.4842 2.8384
4.3257 -0.4446 2.8384
4.3568 -0.4045 2.8384
4.3878 -0.3639 2.8384
4.4187 -0.3229 2.8384
4.4495 -0.2814 2.8384
4.4801 -0.2394 2.8384
4.5107 -0.1970 2.8384
4.5410 -0.1541 2.8384
4.5713 -0.1106 2.8384
4.6013 -0.0667 2.8384
4.6313 -0.0223 2.8384
4.6611 0.0226 2.8384
4.6907 0.0679 2.8384
4.7182 0.1138 2.8372
4.7212 0.1593 2.8215
4.7242 0.2048 2.8061
4.7271 0.2503 2.7909
4.7300 0.2959 2.7760
4.7329 0.3414 2.7614
4.7357 0.3871 2.7470
4.7384 0.4327 2.7328
4.7411 0.4785 2.7189
4.7437 0.5243 2.7053
4.7512 0.5707 2.6946
4.7619 0.6178 2.6860
4.7875 0.6671 2.6860
4.8130 0.7171 2.6860
4.8382 0.7675 2.6860
4.8632 0.8184 2.6860
4.8879 0.8700 2.6860
4.9124 0.9219 2.6860
4.9367 0.9745 2.6860
4.9607 1.0276 2.6860
4.9844 1.0811 2.6860
5.0078 1.1353 2.6860
5.0310 1.1900 2.6860
5.0539 1.2452 2.6860
5.0765 1.3010 2.6860
5.0988 1.3574 2.6860
5.1208 1.4142 2.6860
5.1425 1.4717 2.6860
5.1638 1.5297 2.6860
5.1848 1.5882 2.6860
5.2055 1.6474 2.6860
5.2259 1.7071 2.6860
5.2458 1.7673 2.6860
5.2655 1.8281 2.6860
5.2847 1.8895 2.6860
5.3036 1.9514 2.6860
5.3220 2.0140 2.6860
5.3401 2.0770 2.6860
5.3578 2.1407 2.6860
5.3750 2.2049 2.6860
5.3918 2.2697 2.6860
5.3497 2.3098 2.6569
5.3782 2.3807 2.6632
5.4396 2.4676 2.6860
5.4546 2.5346 2.6860
5.4691 2.6023 2.6860
5.4831 2.6706 2.6860
5.4967 2.7394 2.6860
5.5097 2.8088 2.6860
5.5222 2.8787 2.6860
5.5341 2.9492 2.6860
5.5455 3.0203 2.6860
5.5564 3.0920 2.6860
5.5666 3.1642 2.6860
5.5763 3.2369 2.6860
5.5854 3.3102 2.6860
5.5939 3.3841 2.6860
5.6018 3.4585 2.6860
5.6090 3.5335 2.6860
5.6156 3.6090 2.6860
5.6216 3.6850 2.6860
5.6269 3.7616 2.6860
5.6314 3.8387 2.6860
5.6353 3.9163 2.6860
5.6385 3.9945 2.6860
5.6410 4.0731 2.6860
5.6427 4.1523 2.6860
5.6437 4.2319 2.6860
