ply
format ascii 1.0
element vertex 1899
property float32 x
property float32 y
property float32 z
end_header
7.4473 10.5380 -5.6616
19.9882 32.5226 -17.1781
7.4674 10.8090 -5.7896
19.6401 32.7385 -17.2476
7.4882 11.0903 -5.9228
7.5098 11.3827 -6.0615
7.5399 11.6987 -6.2124
7.9539 12.6361 -6.6920
-5.6193 18.6205 -9.4076
-5.8105 18.5188 -9.3678
-5.9824 18.3607 -9.2998
-6.2806 18.5838 -9.4253
-3.7913 10.4594 -5.3198
-3.8766 10.3412 -5.2675
-4.0418 10.4345 -5.3233
-4.1581 10.3970 -5.3126
-4.6973 10.4086 -5.3557
-27.5275 19.1925 -12.1248
-27.8504 17.7754 -11.5854
-26.9445 17.9798 -11.5321
-28.7160 18.7418 -12.1163
-25.7018 16.0388 -10.5415
-22.6145 13.7952 -9.1456
-22.2601 12.3717 -8.5132
-22.7063 13.5372 -9.0547
-22.7025 12.3194 -8.5629
-22.4313 13.0672 -8.8209
-22.7074 12.0275 -8.4472
-22.3562 12.7224 -8.6696
-5.7279 2.9605 -2.1016
-5.2157 2.6296 -1.8875
-5.6299 2.6982 -1.9823
-5.4164 2.6630 -1.9334
-5.8728 2.7425 -2.0397
-7.0579 2.8762 -2.2897
-6.3432 2.8853 -2.1732
-7.0477 2.7906 -2.2555
-6.7317 2.9811 -2.2750
-7.0378 2.7061 -2.2219
-7.0788 3.0507 -2.3599
-7.0280 2.6225 -2.1888
-7.0682 2.9629 -2.3245
-6.0322 2.0488 -1.8035
-7.0184 2.5399 -2.1563
-6.9906 2.2975 -2.0617
-7.0089 2.4582 -2.1242
-6.9816 2.2184 -2.0311
-7.0193 2.1544 -2.0143
-7.0581 2.0903 -1.9979
-7.0972 2.0261 -1.9816
-7.1366 1.9616 -1.9655
-7.1765 1.8969 -1.9494
-7.0251 1.7833 -1.8821
-6.8678 1.6718 -1.8147
-6.8244 1.5905 -1.7784
-6.7817 1.5107 -1.7428
-6.7399 1.4324 -1.7081
7.4622 10.7466 -5.0377
7.4826 11.0221 -5.1542
7.5038 11.3081 -5.2754
7.5258 11.6055 -5.4016
7.5549 11.9247 -5.5376
7.6022 12.5809 -5.8171
7.5781 12.2460 -5.6744
7.6274 12.9303 -5.9663
7.6537 13.2954 -6.1224
20.9915 37.3774 -17.1781
20.5109 37.4488 -17.1781
20.0709 37.5895 -17.2107
-4.7113 18.7924 -8.3545
-5.0034 19.0798 -8.4893
-5.1717 18.8866 -8.4106
-5.4330 19.0311 -8.4827
-5.7176 19.2382 -8.5831
-5.8167 18.8249 -8.4071
-5.9640 18.5881 -8.3099
-6.1275 18.4127 -8.2403
-6.1867 17.9429 -8.0390
-5.9347 10.5113 -4.8328
-6.2428 10.5284 -4.8601
-6.3965 10.5315 -4.8718
-6.5641 10.5540 -4.8926
-6.7421 10.5887 -4.9196
-7.0874 10.6285 -4.9608
-25.1165 17.9439 -9.5982
-26.2350 18.3439 -9.8725
-26.2520 17.9625 -9.7285
-25.5549 17.1085 -9.3264
-25.6686 16.8114 -9.2260
-25.7815 16.5158 -9.1266
-25.8938 16.2217 -9.0281
-26.1417 16.0126 -8.9773
-25.3790 15.1963 -8.5844
-22.6991 13.2835 -7.5626
-22.8000 13.0370 -7.4823
-22.9004 12.7913 -7.4026
-23.0004 12.5464 -7.3235
-23.0999 12.3023 -7.2451
-24.9683 12.9786 -7.7138
-5.7530 2.9178 -1.7507
-5.2118 2.5783 -1.5623
-5.4102 2.6096 -1.5974
-5.6219 2.6431 -1.6350
-5.8474 2.6784 -1.6750
-6.2616 2.7932 -1.7667
-6.7494 2.9308 -1.8756
-6.7548 2.8539 -1.8487
-6.8266 2.8048 -1.8401
-6.8635 2.7409 -1.8220
-6.8549 2.6592 -1.7920
-6.8465 2.5784 -1.7625
-6.8383 2.4985 -1.7334
-6.8302 2.4194 -1.7048
-6.8222 2.3412 -1.6765
-6.8143 2.2638 -1.6486
-6.8066 2.1871 -1.6211
-6.7990 2.1112 -1.5940
-7.0038 2.0996 -1.6163
-6.9860 2.0198 -1.5867
-6.9684 1.9409 -1.5576
-6.7548 1.8103 -1.4858
-6.7128 1.7288 -1.4528
-6.6717 1.6488 -1.4206
-6.6314 1.5703 -1.3891
-6.5919 1.4931 -1.3582
7.4771 10.9535 -4.4188
7.4977 11.2335 -4.5238
7.5192 11.5243 -4.6330
7.5472 11.8353 -4.7502
7.5697 12.1489 -4.8683
7.5933 12.4755 -4.9914
7.6178 12.8160 -5.1198
7.6434 13.1713 -5.2540
7.6701 13.5426 -5.3944
7.6981 13.9310 -5.5414
7.7274 14.3377 -5.6955
7.7495 14.7480 -5.8507
7.7826 15.1971 -6.0212
7.8173 15.6696 -6.2007
-4.6379 18.7742 -7.2945
-4.6987 18.1845 -7.0695
-5.1311 19.0179 -7.3980
-5.3593 19.0534 -7.4166
-5.5663 19.0097 -7.4045
-5.7614 18.9262 -7.3772
-5.9628 18.8648 -7.3586
-6.1100 18.6379 -7.2756
-6.1578 18.1301 -7.0829
-6.2530 17.7876 -6.9548
-6.5632 18.0547 -7.0651
-25.3102 20.9806 -9.0857
-25.4292 20.6482 -8.9754
-25.5472 20.3185 -8.8663
-25.4461 19.8214 -8.6839
-25.5648 19.5023 -8.5791
-21.5195 16.0754 -7.1015
-21.6147 15.8096 -7.0145
-21.7091 15.5457 -6.9283
-21.7309 15.2329 -6.8203
-21.7203 14.9023 -6.7041
-21.7812 14.6247 -6.6116
-21.9689 14.4332 -6.5581
-22.4447 14.4259 -6.5891
-22.5090 14.1509 -6.4984
-22.2083 13.6539 -6.3052
-22.5990 13.2797 -6.2045
-22.4031 13.4672 -6.2548
-22.7959 13.0914 -6.1542
-23.7071 12.0898 -5.8802
-23.4345 13.1495 -6.2208
-5.7804 2.8760 -1.4094
-5.8971 2.8615 -1.4134
-5.4095 2.5590 -1.2743
-23.5379 12.9012 -6.1436
-5.6191 2.5905 -1.3009
-5.8432 2.6242 -1.3295
-23.2921 12.4670 -5.9773
-6.1937 2.7084 -1.3847
-6.7739 2.8829 -1.4880
-23.4989 12.2789 -5.9288
-7.2488 3.0009 -1.5643
-6.5973 2.4319 -1.3247
-7.2691 2.9258 -1.5410
-6.6634 2.3823 -1.3137
-6.4637 2.5281 -1.3459
-6.7346 2.3335 -1.3034
-6.8047 2.2833 -1.2926
-6.5301 2.4803 -1.3353
-6.8759 2.2325 -1.2817
-7.0218 2.1290 -1.2599
-6.9483 2.1811 -1.2709
-6.3541 1.8589 -1.1182
-7.0167 1.9786 -1.2109
-7.0120 1.9036 -1.1863
-7.0073 1.8291 -1.1621
-7.0027 1.7552 -1.1380
-6.9982 1.6818 -1.1142
7.4918 11.1597 -3.8021
7.5128 11.4442 -3.8957
7.5396 11.7473 -3.9956
7.5616 12.0536 -4.0964
7.5846 12.3723 -4.2014
7.6084 12.7042 -4.3109
7.6333 13.0503 -4.4250
7.6593 13.4115 -4.5442
7.6865 13.7890 -4.6689
7.7149 14.1839 -4.7993
7.7372 14.5836 -4.9313
7.7692 15.0188 -5.0752
7.8029 15.4760 -5.2264
7.8383 15.9571 -5.3857
7.8756 16.4640 -5.5535
7.9150 16.9990 -5.7307
7.9566 17.5647 -5.9182
8.0125 18.1906 -6.1258
8.5241 19.9131 -6.7024
-4.0806 19.4072 -6.4873
-4.3018 19.4393 -6.4996
-4.5217 19.4589 -6.5078
-4.6426 19.0656 -6.3780
-4.8616 19.0886 -6.3875
-5.0606 19.0299 -6.3698
-5.1737 18.6627 -6.2488
-5.4629 18.9302 -6.3404
-5.6240 18.7465 -6.2810
-5.9511 19.1052 -6.4034
-5.9071 18.2855 -6.1309
-6.0160 17.9756 -6.0293
-6.4348 18.5771 -6.2335
-6.5365 18.2499 -6.1262
-6.6400 17.9444 -6.0262
-6.3594 10.5655 -3.5857
-21.7663 16.6301 -5.9282
-21.8967 16.3855 -5.8539
-21.7742 15.9569 -5.7137
-22.3986 16.0731 -5.7689
-22.2135 15.6069 -5.6151
-22.0341 15.1551 -5.4662
-23.9245 16.1068 -5.8246
-22.6510 14.9240 -5.4113
-24.1253 15.5536 -5.6552
-24.2247 15.2792 -5.5714
-24.3237 15.0063 -5.4881
-24.4221 14.7347 -5.4053
-24.4237 14.4075 -5.3021
-23.9672 13.8202 -5.1027
-24.7146 13.9272 -5.1598
-25.1428 13.8429 -5.1468
-24.6168 13.2382 -4.9401
-27.2066 14.2866 -5.3517
-27.3103 13.9993 -5.2649
-27.4629 13.7375 -5.1878
-7.0670 3.4485 -1.3079
-7.0876 3.3726 -1.2848
-5.3817 2.4963 -0.9554
-5.5327 2.5006 -0.9617
-5.6908 2.5051 -0.9683
-5.8566 2.5098 -0.9753
-6.0308 2.5147 -0.9827
-6.2791 2.5464 -1.0008
-6.3902 2.5189 -0.9960
-6.4885 2.4846 -0.9887
-6.6650 2.4777 -0.9925
-6.8953 2.4870 -1.0032
-6.9329 2.4242 -0.9852
-6.9082 2.3402 -0.9584
-6.8839 2.2574 -0.9321
-6.8599 2.1757 -0.9061
-6.8363 2.0952 -0.8805
-7.1297 2.1095 -0.8951
-7.1623 2.0435 -0.8760
-7.1951 1.9774 -0.8569
-6.7507 1.7849 -0.7825
-7.2609 1.8446 -0.8186
7.5066 11.3661 -3.1850
7.5322 11.6617 -3.2689
7.5537 11.9610 -3.3539
7.5761 12.2721 -3.4422
7.5994 12.5958 -3.5341
7.6236 12.9331 -3.6298
7.6489 13.2848 -3.7296
7.6752 13.6519 -3.8338
7.7028 14.0356 -3.9426
7.7317 14.4372 -4.0564
7.7564 14.8473 -4.1727
7.7890 15.2901 -4.2983
7.8232 15.7554 -4.4301
7.8593 16.2451 -4.5689
7.8972 16.7612 -4.7151
7.9373 17.3060 -4.8695
7.9901 17.9054 -5.0392
8.0345 18.5152 -5.2119
8.0815 19.1622 -5.3951
8.1316 19.8504 -5.5899
8.1820 20.5765 -5.7955
8.2365 21.3534 -6.0154
8.8452 23.6567 -6.6654
-4.6554 35.1904 -9.9392
-5.1020 35.7003 -10.0826
-3.9223 18.9185 -5.3406
-4.1581 19.0565 -5.3791
-4.4039 19.2214 -5.4251
-4.3693 18.1992 -5.1360
-4.8463 19.3003 -5.4462
-5.0445 19.2412 -5.4289
-5.2578 19.2384 -5.4274
-5.4204 19.0535 -5.3746
-5.6658 19.1586 -5.4035
-5.8122 18.9296 -5.3383
-5.9503 18.6869 -5.2691
-5.9802 18.1290 -5.1110
-6.2621 18.3428 -5.1705
-6.5848 18.6544 -5.2575
-6.7141 18.4118 -5.1883
-6.3843 10.5298 -2.9542
-27.1409 22.5316 -6.2156
-27.2592 22.1754 -6.1123
-26.2923 20.9579 -5.7718
-27.4476 21.4363 -5.8984
-27.6085 21.1241 -5.8072
-27.7231 20.7792 -5.7070
-28.2965 20.7741 -5.7000
-29.0350 20.8770 -5.7225
-29.4685 20.7494 -5.6815
-29.1470 20.0948 -5.4963
-26.4229 17.0849 -4.6567
-26.5239 16.7817 -4.5683
-26.6244 16.4802 -4.4804
-26.7244 16.1804 -4.3929
-26.8238 15.8821 -4.3058
-26.7154 15.4652 -4.1866
-27.0213 15.2899 -4.1328
-27.1194 14.9958 -4.0469
-29.0989 14.2768 -3.8178
-6.9958 3.3479 -0.8934
-7.0007 3.2665 -0.8698
-7.0056 3.1859 -0.8464
-7.0104 3.1059 -0.8231
-6.6023 2.8483 -0.7530
-6.8262 2.8663 -0.7557
-5.6746 2.3180 -0.6094
-5.8371 2.3183 -0.6077
-6.0073 2.3184 -0.6058
-6.1705 2.3127 -0.6023
-6.2621 2.2779 -0.5912
-6.3557 2.2422 -0.5797
-6.4514 2.2058 -0.5680
-6.5494 2.1685 -0.5561
-6.6495 2.1303 -0.5438
-6.7519 2.0911 -0.5312
-6.9192 2.0696 -0.5230
-6.8765 1.9844 -0.4987
-7.0337 1.9562 -0.4886
-6.8238 1.8268 -0.4533
7.5214 11.5735 -2.5648
7.5462 11.8718 -2.6363
7.5680 12.1757 -2.7091
7.5906 12.4916 -2.7848
7.6142 12.8205 -2.8635
7.6388 13.1631 -2.9453
7.6645 13.5205 -3.0306
7.6913 13.8936 -3.1195
7.7193 14.2836 -3.2124
7.7441 14.6833 -3.3076
7.7757 15.1126 -3.4096
7.8088 15.5631 -3.5165
7.8437 16.0366 -3.6288
7.8804 16.5350 -3.7468
7.9190 17.0604 -3.8712
7.9599 17.6151 -4.0023
8.0115 18.2210 -4.1454
8.0566 18.8419 -4.2919
8.1045 19.5008 -4.4473
8.1554 20.2018 -4.6125
8.2053 20.9380 -4.7860
8.2634 21.7362 -4.9738
8.3255 22.5912 -5.1748
8.3923 23.5094 -5.3906
8.4599 24.4857 -5.6199
8.5380 25.5551 -5.8708
8.6256 26.7232 -6.1447
-3.5694 35.9748 -8.3683
-3.9443 35.9817 -8.3677
-4.3529 36.2618 -8.4303
-4.6567 35.6870 -8.2940
-4.9125 34.8500 -8.0966
-3.8478 18.8188 -4.3602
-4.0785 18.9536 -4.3890
-4.3135 19.0909 -4.4183
-4.2482 17.9437 -4.1502
-4.5905 18.5394 -4.2852
-4.9279 19.0620 -4.4030
-5.1358 19.0581 -4.3990
-5.3446 19.0539 -4.3948
-5.5814 19.1422 -4.4118
-5.5936 18.4779 -4.2552
-5.7823 18.4196 -4.2383
-6.2097 19.0954 -4.3899
-6.3928 18.9960 -4.3631
-6.4849 18.6374 -4.2767
-6.5995 18.3605 -4.2090
-7.0078 18.8883 -4.3257
-6.4289 10.5285 -2.3464
-38.2848 23.2606 -4.1380
-38.2337 22.7212 -3.9990
-38.1831 22.1897 -3.8617
-38.1331 21.6657 -3.7262
-38.0835 21.1490 -3.5922
-38.0345 20.6394 -3.4599
-37.9859 20.1366 -3.3291
-37.9378 19.6405 -3.1997
-37.8901 19.1506 -3.0718
-29.1068 14.3577 -2.2653
-29.3427 14.1212 -2.1892
-37.4529 17.5782 -2.6747
-37.8124 17.3009 -2.5806
-37.9240 16.9088 -2.4689
-6.8345 2.9681 -0.4236
-6.8397 2.8919 -0.4027
-6.8449 2.8162 -0.3819
-6.8500 2.7410 -0.3612
-6.4040 2.4908 -0.3181
-6.6099 2.4975 -0.3084
-5.8159 2.1334 -0.2538
-5.9825 2.1291 -0.2432
-6.1576 2.1246 -0.2319
-6.3419 2.1198 -0.2201
-6.2301 2.0157 -0.1978
-6.3210 1.9779 -0.1821
-6.4141 1.9393 -0.1660
-6.5092 1.8997 -0.1495
-6.9268 1.9492 -0.1390
7.5389 11.7867 -1.9394
7.5602 12.0837 -1.9979
7.5823 12.3923 -2.0584
7.6053 12.7132 -2.1213
7.6293 13.0473 -2.1865
7.6542 13.3954 -2.2543
7.6803 13.7584 -2.3249
7.7074 14.1376 -2.3984
7.7359 14.5340 -2.4751
7.7631 14.9440 -2.5544
7.7952 15.3807 -2.6384
7.8289 15.8390 -2.7265
7.8644 16.3208 -2.8188
7.9017 16.8280 -2.9159
7.9411 17.3628 -3.0180
7.9898 17.9437 -3.1284
8.0331 18.5401 -3.2418
8.0789 19.1721 -3.3618
8.1276 19.8432 -3.4890
8.1794 20.5572 -3.6240
8.2314 21.3100 -3.7663
8.2905 22.1237 -3.9197
8.3539 22.9954 -4.0837
8.4183 23.9215 -4.2579
8.4921 24.9315 -4.4474
8.5719 26.0230 -4.6519
8.6615 27.2167 -4.8751
8.7575 28.5117 -5.1170
8.8373 29.8424 -5.3659
8.9484 31.3788 -5.6523
9.0770 33.0948 -5.9716
-2.8223 36.4548 -6.7081
-3.1659 36.1233 -6.6439
-3.5427 36.1936 -6.6533
-3.8821 35.8983 -6.5950
-4.2643 36.0099 -6.6111
-4.6031 35.7599 -6.5605
-4.8441 34.8367 -6.3861
-5.2558 35.1776 -6.4431
-5.8155 36.3936 -6.6598
-4.8411 26.7969 -4.8938
-5.1313 26.8451 -4.8972
-3.8513 19.0972 -3.4797
-4.0675 19.1649 -3.4877
-4.2860 19.2333 -3.4956
-4.3715 18.7219 -3.3980
-4.3843 17.9541 -3.2539
-4.6942 18.4128 -3.3320
-5.0495 19.0012 -3.4330
-5.3020 19.1683 -3.4575
-5.4719 19.0320 -3.4269
-5.6304 18.8633 -3.3904
-5.7531 18.5872 -3.3345
-5.7751 18.0123 -3.2250
-6.4171 19.3409 -3.4558
-6.5678 19.1465 -3.4139
-6.7332 19.0021 -3.3806
-6.8506 18.7314 -3.3249
-7.0138 18.5945 -3.2927
-7.1757 18.4586 -3.2606
-37.2000 24.1957 -2.2984
-37.2429 23.7121 -2.1809
-37.2855 23.2336 -2.0641
-37.3275 22.7600 -1.9481
-37.3692 22.2912 -1.8327
-37.4104 21.8270 -1.7181
-37.3943 21.3347 -1.6015
-37.1381 20.7143 -1.4765
-36.9538 20.1450 -1.3564
-37.5716 20.0127 -1.2652
-37.6110 19.5691 -1.1534
-37.6500 19.1292 -1.0420
-29.1159 14.4408 -0.7192
-29.1510 14.1091 -0.6340
-37.7348 17.8159 -0.7098
-37.8770 17.4379 -0.6018
-37.9884 17.0470 -0.4931
-36.6178 16.0093 -0.3694
-6.3541 10.5703 -1.7620
-36.7020 15.6264 -0.2645
-36.7377 15.2249 -0.1595
-6.7012 2.4061 0.0659
-6.6801 2.6933 -0.0099
-6.7064 2.3353 0.0847
-6.6855 2.6208 0.0091
-6.4048 2.1615 0.0988
-6.6908 2.5489 0.0280
-6.6051 2.1585 0.1204
-6.6960 2.4773 0.0470
-6.1235 1.9361 0.1286
-6.3029 1.9264 0.1499
-6.4918 1.9161 0.1724
7.5528 11.9970 -1.3042
7.5744 12.2986 -1.3507
7.5969 12.6120 -1.3988
7.6202 12.9379 -1.4486
7.6445 13.2772 -1.5002
7.6698 13.6308 -1.5537
7.6963 13.9997 -1.6093
7.7239 14.3850 -1.6672
7.7512 14.7850 -1.7270
7.7823 15.2086 -1.7900
7.8150 15.6527 -1.8558
7.8493 16.1190 -1.9245
7.8854 16.6093 -1.9966
7.9234 17.1255 -2.0721
7.9693 17.6830 -2.1531
8.0109 18.2569 -2.2365
8.0550 18.8640 -2.3244
8.1016 19.5075 -2.4173
8.1512 20.1909 -2.5156
8.2015 20.9123 -2.6191
8.2579 21.6881 -2.7300
8.3181 22.5175 -2.8481
8.3827 23.4063 -2.9744
8.4496 24.3544 -3.1087
8.5249 25.3850 -3.2543
8.6063 26.4994 -3.4111
8.6981 27.7193 -3.5823
8.7961 29.0424 -3.7676
8.8805 30.4109 -3.9596
8.9943 31.9829 -4.1788
9.1272 33.7442 -4.4237
9.2752 35.7020 -4.6953
9.4368 37.8742 -4.9961
9.6010 40.2423 -5.3239
9.8061 43.0010 -5.7046
10.0198 46.0565 -6.1260
-2.7499 36.0031 -4.9013
-3.0415 35.1753 -4.7842
-3.4943 36.1847 -4.9164
-3.8229 35.8328 -4.8630
-4.2036 35.9811 -4.8769
-4.5440 35.7826 -4.8433
-4.9452 36.0497 -4.8721
-5.2772 35.8044 -4.8311
-3.7254 19.7582 -2.6454
-3.9357 19.7850 -2.6431
-3.9885 19.0529 -2.5392
-4.2024 19.1197 -2.5417
-4.4187 19.1872 -2.5439
-4.5816 19.0233 -2.5152
-4.7853 19.0322 -2.5090
-4.6916 17.9017 -2.3527
-5.1846 19.0069 -2.4899
-5.2253 18.4296 -2.4062
-5.5914 18.9968 -2.4715
-5.5623 18.2251 -2.3624
-5.9782 18.9102 -2.4419
-6.1461 18.7878 -2.4164
-6.3129 18.6664 -2.3908
-6.5551 18.7647 -2.3930
-6.6627 18.4797 -2.3460
-6.7631 18.1886 -2.2982
-6.8608 17.9042 -2.2513
-6.3722 10.5284 -1.1653
-35.1990 28.7226 -1.3366
-35.7793 28.6234 -1.2467
-35.8261 28.0964 -1.1372
-35.3373 27.1650 -1.0131
-35.8707 27.0272 -0.9192
-36.4501 26.9153 -0.8240
-37.0376 26.8000 -0.7264
-37.6335 26.6812 -0.6264
-38.2380 26.5589 -0.5238
-38.8514 26.4327 -0.4185
-39.4739 26.3028 -0.3106
-37.1935 24.2688 -0.1853
-37.2362 23.7881 -0.0789
-37.2785 23.3124 0.0272
-37.3203 22.8415 0.1329
-37.3510 22.3688 0.2381
-37.3920 21.9072 0.3431
-20.5555 11.7788 0.2458
-20.5743 11.5282 0.3031
-20.5966 11.2819 0.3602
-20.6921 11.0770 0.4187
-20.7105 10.8321 0.4757
-20.7287 10.5892 0.5326
-20.7467 10.3485 0.5894
-20.7646 10.1096 0.6460
-20.7824 9.8726 0.7026
-20.8000 9.6375 0.7591
-20.8175 9.4041 0.8156
-20.8348 9.1723 0.8720
-20.8521 8.9422 0.9283
-20.8692 8.7136 0.9847
-20.8862 8.4866 1.0410
-20.9031 8.2609 1.0973
-20.9199 8.0367 1.1536
-20.9366 7.8137 1.2099
-20.9533 7.5921 1.2663
-20.9698 7.3716 1.3227
-20.9862 7.1523 1.3791
-21.0026 6.9341 1.4357
-21.0188 6.7169 1.4922
-20.9611 6.4779 1.5435
7.5670 12.2111 -0.6575
7.5889 12.5174 -0.6918
7.6117 12.8356 -0.7271
7.6354 13.1666 -0.7636
7.6600 13.5113 -0.8012
7.6857 13.8706 -0.8402
7.7126 14.2455 -0.8805
7.7400 14.6361 -0.9222
7.7703 15.0474 -0.9656
7.8020 15.4783 -1.0108
7.8352 15.9301 -1.0578
7.8701 16.4046 -1.1068
7.9068 16.9035 -1.1580
7.9455 17.4290 -1.2116
7.9902 17.9922 -1.2683
8.0325 18.5763 -1.3271
8.0773 19.1944 -1.3888
8.1248 19.8497 -1.4539
8.1752 20.5457 -1.5225
8.2276 21.2834 -1.5950
8.2850 22.0741 -1.6720
8.3463 22.9196 -1.7539
8.4104 23.8209 -1.8409
8.4816 24.7967 -1.9344
8.5585 25.8486 -2.0346
8.6435 26.9926 -2.1429
8.7355 28.2334 -2.2599
8.8263 29.5542 -2.3842
8.9247 30.9933 -2.5191
9.0412 32.6021 -2.6687
9.1786 34.4102 -2.8360
9.3279 36.4071 -3.0201
9.4804 38.5800 -3.2201
9.6638 41.0694 -3.4479
9.8742 43.9009 -3.7062
10.0927 47.0349 -3.9917
-2.7250 36.1622 -3.2136
-2.9616 34.7179 -3.0797
-3.3585 35.2520 -3.1207
-3.7791 35.9049 -3.1714
-4.1763 36.2350 -3.1926
-4.4859 35.8073 -3.1463
-4.9311 36.4386 -3.1923
-5.2531 36.1290 -3.1550
-5.5557 35.7284 -3.1092
-5.8741 35.4653 -3.0749
-4.9849 26.8026 -2.3049
-4.0573 19.6497 -1.6742
-4.2655 19.6759 -1.6680
-4.2987 18.9253 -1.5959
-4.5042 18.9625 -1.5900
-4.7114 18.9997 -1.5838
-4.6053 17.8182 -1.4760
-4.9969 18.5759 -1.5288
-5.3276 19.0550 -1.5575
-5.5852 19.2434 -1.5616
-5.6945 18.9220 -1.5240
-5.8618 18.8053 -1.5026
-6.0280 18.6892 -1.4810
-6.1931 18.5737 -1.4592
-6.4711 18.7897 -1.4629
-6.5542 18.4401 -1.4221
-6.6545 18.1548 -1.3863
-6.7522 17.8759 -1.3510
-6.4058 10.5163 -0.5781
-20.1914 17.8375 0.2559
-20.2156 17.5157 0.3113
-20.2393 17.1985 0.3664
-20.1809 16.8177 0.4196
-20.2067 16.5130 0.4740
-20.3059 16.2715 0.5302
-20.3284 15.9716 0.5844
-20.3506 15.6757 0.6384
-20.3725 15.3835 0.6921
-20.3941 15.0950 0.7458
-20.4155 14.8102 0.7992
-20.4366 14.5287 0.8525
-20.4574 14.2506 0.9057
-20.4780 13.9757 0.9588
-20.4984 13.7039 1.0118
-20.5185 13.4351 1.0646
-20.5385 13.1692 1.1174
-20.5582 12.9061 1.1701
-20.5777 12.6457 1.2228
-20.5970 12.3880 1.2754
-20.6162 12.1328 1.3280
-20.5508 11.8315 1.3749
-20.5695 11.5821 1.4272
-20.5918 11.3370 1.4798
-20.6872 11.1335 1.5379
-20.7054 10.8898 1.5904
-20.7235 10.6481 1.6430
-20.7415 10.4084 1.6956
-20.7593 10.1706 1.7483
-20.7770 9.9346 1.8010
-20.7946 9.7004 1.8538
-20.8120 9.4679 1.9066
-20.8293 9.2371 1.9596
-20.8465 9.0079 2.0127
-20.8635 8.7802 2.0658
-20.8805 8.5539 2.1191
-20.8973 8.3291 2.1725
-20.9141 8.1056 2.2260
-20.9307 7.8834 2.2797
-20.9473 7.6624 2.3336
-20.9637 7.4427 2.3876
-20.9801 7.2241 2.4417
-20.9964 7.0065 2.4961
-21.0127 6.7900 2.5506
7.5815 12.4301 0.0038
7.6037 12.7411 -0.0179
7.6268 13.0643 -0.0401
7.6509 13.4006 -0.0629
7.6759 13.7509 -0.0862
7.7020 14.1159 -0.1101
7.7292 14.4970 -0.1347
7.7591 14.8977 -0.1600
7.7899 15.3162 -0.1860
7.8221 15.7545 -0.2128
7.8559 16.2142 -0.2406
7.8914 16.6971 -0.2693
7.9288 17.2049 -0.2991
7.9709 17.7461 -0.3300
8.0116 18.3089 -0.3620
8.0547 18.9035 -0.3954
8.1002 19.5329 -0.4302
8.1485 20.2003 -0.4666
8.1994 20.9085 -0.5047
8.2542 21.6639 -0.5448
8.3127 22.4699 -0.5870
8.3753 23.3321 -0.6315
8.4418 24.2549 -0.6786
8.5145 25.2508 -0.7287
8.5929 26.3248 -0.7820
8.6800 27.4940 -0.8393
8.7739 28.7617 -0.9007
8.8616 30.0937 -0.9653
8.9702 31.5927 -1.0365
9.0945 33.2577 -1.1146
9.2315 35.0966 -1.1999
9.3822 37.1339 -1.2936
9.5402 39.3679 -1.3958
9.7280 41.9206 -1.5112
9.9329 44.7785 -1.6395
10.1882 48.1414 -1.7886
-2.7253 36.6594 -1.5394
-3.0890 36.7060 -1.5343
-3.3832 35.9976 -1.4968
-3.6914 35.5520 -1.4697
-4.1028 36.0857 -1.4822
-4.4366 35.9005 -1.4641
-4.7633 35.6824 -1.4440
-5.1514 35.9171 -1.4413
-5.3843 35.1033 -1.3958
-4.3467 19.4039 -0.7081
-4.5443 19.3993 -0.6969
-4.7427 19.3945 -0.6851
-4.9381 19.3746 -0.6723
-5.1221 19.3098 -0.6574
-5.1648 18.7338 -0.6250
-5.4957 19.2035 -0.6271
-5.6401 19.0077 -0.6067
-5.7792 18.8045 -0.5858
-5.9159 18.6040 -0.5647
-5.9054 17.9649 -0.5305
-6.1703 18.1740 -0.5211
-6.5262 18.6265 -0.5175
-19.3955 28.4803 0.2859
-19.4348 27.9565 0.3373
-19.3885 27.3259 0.3867
-19.4913 26.9191 0.4387
-19.5386 26.4460 0.4892
-19.5743 25.9691 0.5392
-19.6093 25.5027 0.5888
-19.6435 25.0464 0.6381
-19.6770 24.5998 0.6871
-19.7099 24.1624 0.7359
-19.7420 23.7339 0.7844
-19.7735 23.3139 0.8327
-19.8044 22.9022 0.8808
-19.8347 22.4984 0.9287
-19.7868 22.0160 0.9726
-19.8713 21.6891 1.0227
-19.9281 21.3380 1.0716
-19.9562 20.9629 1.1188
-19.9839 20.5943 1.1659
-20.0110 20.2321 1.2129
-20.0377 19.8760 1.2598
-20.0640 19.5257 1.3065
-20.0899 19.1811 1.3532
-20.1153 18.8420 1.3999
-20.1403 18.5081 1.4464
-20.1650 18.1793 1.4930
-20.1893 17.8555 1.5394
-20.2132 17.5364 1.5859
-20.2368 17.2219 1.6323
-20.1782 16.8435 1.6720
-20.2038 16.5411 1.7184
-20.3028 16.3021 1.7714
-20.3251 16.0044 1.8178
-20.3472 15.7106 1.8643
-20.3689 15.4205 1.9108
-20.3904 15.1341 1.9573
-20.4116 14.8511 2.0039
-20.4326 14.5715 2.0506
-20.4533 14.2952 2.0973
-20.4738 14.0220 2.1441
-20.4940 13.7519 2.1910
-20.5141 13.4847 2.2379
-20.5339 13.2203 2.2850
-20.5535 12.9587 2.3322
-20.5729 12.6998 2.3795
-20.5921 12.4434 2.4269
-20.6112 12.1896 2.4745
-20.6300 11.9381 2.5222
-20.5644 11.6412 2.5595
-20.5828 11.3953 2.6073
-20.9086 11.3181 2.6950
-20.5544 10.8757 2.6950
-20.2111 10.4500 2.6950
-19.8783 10.0402 2.6950
-19.5553 9.6456 2.6950
-19.2416 9.2652 2.6950
-18.9414 8.9004 2.6956
-18.9378 8.6805 2.7379
-18.9453 8.4675 2.7820
-18.9527 8.2562 2.8262
-18.8065 7.9814 2.8474
-18.5258 7.6558 2.8474
-18.2522 7.3410 2.8474
-17.9855 7.0364 2.8474
-17.7254 6.7415 2.8474
-17.4716 6.4560 2.8474
-17.2239 6.1795 2.8474
-16.9819 5.9114 2.8474
-16.7455 5.6517 2.8474
7.5964 12.6551 0.6833
7.6189 12.9710 0.6745
7.6424 13.2994 0.6659
7.6668 13.6411 0.6572
7.6922 13.9970 0.6487
7.7187 14.3681 0.6403
7.7488 14.7601 0.6322
7.7787 15.1669 0.6241
7.8100 15.5926 0.6160
7.8428 16.0386 0.6081
7.8772 16.5065 0.6003
7.9133 16.9981 0.5927
7.9514 17.5152 0.5852
7.9922 18.0618 0.5778
8.0337 18.6347 0.5706
8.0774 19.2403 0.5635
8.1238 19.8813 0.5566
8.1729 20.5612 0.5499
8.2258 21.2857 0.5434
8.2817 22.0558 0.5371
8.3413 22.8778 0.5312
8.4051 23.7574 0.5254
8.4741 24.7025 0.5201
8.5484 25.7192 0.5151
8.6293 26.8188 0.5105
8.7176 28.0115 0.5064
8.8136 29.3073 0.5028
8.9060 30.6781 0.4991
9.0173 32.2125 0.4965
9.1459 33.9223 0.4950
9.2827 35.7930 0.4941
9.4385 37.8866 0.4944
9.6022 40.1846 0.4953
9.7949 42.8050 0.4980
10.0044 45.7362 0.5019
-3.6839 35.9712 0.1962
-4.0335 35.9681 0.2073
-4.3763 35.9032 0.2192
-4.6870 35.5984 0.2304
-4.9433 18.9009 0.2641
-5.1358 18.8946 0.2790
-5.3291 18.8879 0.2946
-5.5785 19.0700 0.3138
-5.6891 18.7777 0.3258
-5.8381 18.6243 0.3405
-18.0517 46.4284 1.1972
-18.1328 45.3474 1.2247
-18.2108 44.3082 1.2525
-18.2153 43.1410 1.2756
-18.3590 42.3467 1.3089
-18.4287 41.4180 1.3375
-18.4959 40.5221 1.3663
-18.5609 39.6570 1.3953
-18.6236 38.8210 1.4246
-18.6035 37.8482 1.4478
-18.7351 37.2143 1.4832
-18.7920 36.4569 1.5131
-18.8471 35.7229 1.5432
-18.9005 35.0110 1.5735
-18.9524 34.3202 1.6040
-19.0027 33.6495 1.6347
-19.0516 32.9978 1.6656
-19.0246 32.2380 1.6901
-6.3587 10.5444 0.5739
-19.1938 31.1539 1.7598
-19.2377 30.5698 1.7915
-19.2804 30.0007 1.8234
-19.3220 29.4459 1.8554
-19.3626 28.9049 1.8877
-19.4022 28.3770 1.9201
-19.4409 27.8616 1.9528
-19.3940 27.2393 1.9769
-19.5069 26.8545 2.0177
-19.5430 26.3739 2.0508
-19.5782 25.9039 2.0842
-19.6127 25.4441 2.1177
-19.6465 24.9941 2.1515
-19.6796 24.5534 2.1854
-19.7120 24.1217 2.2195
-19.7437 23.6986 2.2538
-19.7748 23.2838 2.2883
-19.8054 22.8771 2.3230
-19.8353 22.4781 2.3579
-19.7871 22.0002 2.3836
-19.8826 21.6900 2.4269
-19.9277 21.3306 2.4644
-19.9556 20.9595 2.5001
-19.9830 20.5947 2.5360
-20.0099 20.2362 2.5721
-20.0363 19.8835 2.6084
-20.4423 19.9067 2.6950
-20.1869 19.2898 2.6949
-19.9380 18.6951 2.6950
-19.6934 18.1193 2.6950
-19.4533 17.5623 2.6950
-19.2179 17.0233 2.6950
-18.9866 16.5014 2.6950
-18.7597 15.9961 2.6950
-18.5368 15.5064 2.6950
-18.4643 15.1521 2.7165
-18.4784 14.8745 2.7508
-18.4922 14.6006 2.7854
-18.5057 14.3301 2.8201
-18.4689 14.0251 2.8474
-18.2571 13.5950 2.8474
-18.0489 13.1774 2.8474
-17.8441 12.7720 2.8474
-17.6428 12.3783 2.8474
-17.4447 11.9958 2.8474
-17.2499 11.6241 2.8474
-17.0582 11.2628 2.8474
-16.8695 10.9115 2.8474
-16.6838 10.5699 2.8474
-16.5010 10.2377 2.8474
-16.3210 9.9145 2.8474
-16.1438 9.5999 2.8474
-15.9693 9.2938 2.8474
-15.7973 8.9957 2.8474
-15.6279 8.7055 2.8474
-15.4610 8.4228 2.8474
-15.2966 8.1473 2.8474
-15.1345 7.8790 2.8474
-14.9747 7.6175 2.8474
-14.8172 7.3626 2.8474
-14.6618 7.1141 2.8474
-14.5087 6.8717 2.8474
-14.3576 6.6353 2.8474
-14.2086 6.4047 2.8474
-14.0616 6.1797 2.8474
-13.9165 5.9601 2.8474
-13.7734 5.7458 2.8474
-13.6321 5.5366 2.8474
-13.4927 5.3324 2.8474
-13.3551 5.1329 2.8474
-13.2192 4.9381 2.8474
-13.0850 4.7478 2.8474
-12.9525 4.5618 2.8474
7.6118 12.8873 1.3848
7.6347 13.2083 1.3895
7.6585 13.5421 1.3948
7.6832 13.8895 1.4009
7.7091 14.2513 1.4077
7.7394 14.6351 1.4160
7.7685 15.0311 1.4247
7.7989 15.4451 1.4344
7.8308 15.8783 1.4451
7.8642 16.3324 1.4568
7.8992 16.8088 1.4698
7.9360 17.3093 1.4840
7.9744 17.8351 1.4995
8.0143 18.3882 1.5164
8.0564 18.9717 1.5349
8.1010 19.5886 1.5551
8.1481 20.2417 1.5773
8.1998 20.9388 1.6017
8.2532 21.6761 1.6282
8.3101 22.4616 1.6572
8.3709 23.3002 1.6889
8.4372 24.2013 1.7240
8.5077 25.1663 1.7623
8.5835 26.2048 1.8044
8.6664 27.3292 1.8509
8.7567 28.5484 1.9024
8.8479 29.8500 1.9578
8.9521 31.2852 2.0203
9.0689 32.8666 2.0905
9.1993 34.6137 2.1692
9.3372 36.5224 2.2561
9.4902 38.6422 2.3538
9.6668 41.0356 2.4657
9.8646 43.7271 2.5930
9.9271 46.0312 2.6950
9.5890 46.6022 2.6950
9.2385 47.1585 2.6950
8.8759 47.6992 2.6950
8.5011 48.2226 2.6950
-4.3179 35.9219 1.9038
-5.0427 26.7972 1.5176
-10.5632 48.5034 2.8474
-10.9043 47.8833 2.8474
-11.2321 47.2509 2.8474
-11.5465 46.6072 2.8474
-11.8477 45.9539 2.8474
-12.1355 45.2919 2.8474
-12.4101 44.6227 2.8474
-12.6715 43.9471 2.8474
-5.6557 18.9399 1.2464
-13.1557 42.5820 2.8474
-13.3787 41.8945 2.8474
-13.5893 41.2047 2.8474
-13.7877 40.5147 2.8474
-13.9741 39.8241 2.8474
-14.1489 39.1342 2.8474
-14.3123 38.4458 2.8474
-14.4645 37.7596 2.8474
-14.6058 37.0764 2.8474
-14.7367 36.3968 2.8474
-14.8573 35.7214 2.8474
-14.9680 35.0508 2.8474
-15.0691 34.3852 2.8474
-15.1609 33.7256 2.8474
-15.2438 33.0720 2.8474
-15.3180 32.4250 2.8474
-15.3838 31.7849 2.8474
-15.4416 31.1521 2.8474
-15.4918 30.5268 2.8474
-15.5344 29.9091 2.8474
-15.5700 29.2995 2.8474
-15.5987 28.6980 2.8474
-15.6209 28.1049 2.8474
-15.6368 27.5202 2.8474
-15.6466 26.9441 2.8474
-15.6508 26.3768 2.8474
-6.3776 10.5215 1.1604
-15.6430 25.2683 2.8474
-15.6316 24.7272 2.8474
-15.6153 24.1950 2.8474
-15.5946 23.6717 2.8474
-15.5696 23.1572 2.8474
-15.5405 22.6516 2.8474
-15.5076 22.1547 2.8474
-15.4710 21.6665 2.8474
-15.4309 21.1871 2.8474
-15.3875 20.7162 2.8474
-15.3410 20.2539 2.8474
-15.2916 19.8000 2.8474
-15.2393 19.3544 2.8474
-15.1845 18.9173 2.8474
-15.1272 18.4881 2.8474
-15.0675 18.0671 2.8474
-15.0057 17.6541 2.8474
-14.9418 17.2488 2.8474
-14.8760 16.8513 2.8474
-14.8084 16.4615 2.8474
-14.7390 16.0791 2.8474
-14.6681 15.7041 2.8474
-14.5957 15.3364 2.8474
-14.5220 14.9757 2.8474
-14.4469 14.6221 2.8474
-14.3707 14.2754 2.8474
-14.2934 13.9354 2.8474
-14.2150 13.6021 2.8474
-14.1357 13.2753 2.8474
-14.0555 12.9549 2.8474
-13.9746 12.6408 2.8474
-13.8929 12.3328 2.8474
-13.8105 12.0308 2.8474
-13.7276 11.7347 2.8474
-13.6441 11.4445 2.8474
-13.5601 11.1599 2.8474
-13.4757 10.8810 2.8474
-13.3909 10.6074 2.8474
-13.3057 10.3392 2.8474
-13.2203 10.0762 2.8474
-13.1346 9.8184 2.8474
-13.0487 9.5655 2.8474
-12.9627 9.3176 2.8474
-12.8765 9.0745 2.8474
-12.7902 8.8361 2.8474
-12.7038 8.6023 2.8474
-12.6174 8.3730 2.8474
-12.5310 8.1481 2.8474
-12.4446 7.9276 2.8474
-12.3583 7.7113 2.8474
-12.2720 7.4991 2.8474
-12.1858 7.2910 2.8474
-12.0997 7.0868 2.8474
-12.0137 6.8865 2.8474
-11.9279 6.6901 2.8474
-11.8423 6.4973 2.8474
-11.7568 6.3082 2.8474
-11.6716 6.1226 2.8474
-11.5865 5.9405 2.8474
-11.5017 5.7619 2.8474
-11.4171 5.5865 2.8474
-11.3328 5.4145 2.8474
-11.2488 5.2456 2.8474
-11.1650 5.0799 2.8474
-11.0815 4.9171 2.8474
-10.9982 4.7575 2.8474
-10.9153 4.6007 2.8474
-10.8327 4.4468 2.8474
-10.7505 4.2958 2.8474
-10.6685 4.1474 2.8474
-10.5869 4.0018 2.8474
-10.5056 3.8588 2.8474
7.6277 13.1283 2.1127
7.6510 13.4546 2.1313
7.6751 13.7940 2.1512
7.7003 14.1472 2.1726
7.7265 14.5152 2.1954
7.7594 14.9095 2.2214
7.7890 15.3126 2.2478
7.8200 15.7340 2.2761
7.8524 16.1752 2.3063
7.8864 16.6376 2.3386
7.9221 17.1229 2.3733
7.9580 17.6293 2.4099
7.9966 18.1639 2.4493
8.0372 18.7273 2.4916
8.0801 19.3219 2.5371
8.1254 19.9506 2.5859
8.1735 20.6164 2.6383
8.2250 21.3244 2.6950
8.0962 21.5877 2.6950
7.9627 21.8491 2.6950
7.8243 22.1082 2.6950
7.6812 22.3648 2.6950
7.5332 22.6186 2.6950
7.3804 22.8695 2.6950
7.2228 23.1170 2.6950
7.0604 23.3609 2.6950
6.8932 23.6010 2.6950
6.7213 23.8369 2.6950
6.7332 24.7621 2.7726
6.7231 25.6692 2.8474
6.5266 25.9036 2.8474
6.3253 26.1326 2.8474
6.1192 26.3556 2.8474
5.9084 26.5725 2.8474
5.6931 26.7829 2.8474
5.4733 26.9866 2.8474
5.2492 27.1833 2.8474
5.0208 27.3726 2.8474
4.7884 27.5544 2.8474
4.5519 27.7284 2.8474
4.3117 27.8941 2.8474
4.0679 28.0516 2.8474
3.8205 28.2004 2.8474
3.5699 28.3403 2.8474
3.3162 28.4711 2.8474
3.0595 28.5928 2.8474
2.8002 28.7048 2.8474
2.5383 28.8072 2.8474
2.2743 28.8996 2.8474
2.0081 28.9822 2.8474
1.7401 29.0546 2.8474
1.4706 29.1167 2.8474
1.1997 29.1684 2.8474
0.9277 29.2096 2.8474
0.6549 29.2404 2.8474
0.3814 29.2605 2.8474
0.1076 29.2700 2.8474
-0.1663 29.2688 2.8474
-0.4400 29.2571 2.8474
-0.7133 29.2346 2.8474
-0.9860 29.2017 2.8474
-1.2578 29.1582 2.8474
-1.5284 29.1043 2.8474
-1.7976 29.0400 2.8474
-2.0652 28.9654 2.8474
-2.3310 28.8807 2.8474
-2.5946 28.7860 2.8474
-2.8559 28.6816 2.8474
-3.1147 28.5675 2.8474
-3.3707 28.4439 2.8474
-3.5449 27.6953 2.7854
-3.6664 26.6615 2.6950
-3.8998 26.5189 2.6950
-4.1299 26.3682 2.6950
-4.3565 26.2097 2.6950
-4.5795 26.0434 2.6950
-4.7987 25.8699 2.6950
-5.0140 25.6891 2.6950
-5.2253 25.5015 2.6950
-5.4324 25.3073 2.6950
-5.6353 25.1068 2.6950
-5.8338 24.9003 2.6950
-6.0279 24.6879 2.6950
-6.2175 24.4702 2.6950
-6.4024 24.2472 2.6950
-6.5828 24.0193 2.6950
-6.7585 23.7868 2.6950
-5.5509 18.8651 2.1589
-5.7450 18.8723 2.1820
-7.2570 23.0643 2.6950
-7.8327 24.1063 2.8474
-7.9931 23.8406 2.8474
-8.1483 23.5718 2.8474
-8.2985 23.3001 2.8474
-8.4435 23.0258 2.8474
-8.5836 22.7492 2.8474
-8.7185 22.4705 2.8474
-8.8485 22.1900 2.8474
-8.9735 21.9079 2.8474
-9.0936 21.6245 2.8474
-9.2089 21.3400 2.8474
-9.3193 21.0546 2.8474
-9.4249 20.7686 2.8474
-9.5259 20.4821 2.8474
-9.6222 20.1954 2.8474
-9.7139 19.9087 2.8474
-9.8011 19.6220 2.8474
-9.8840 19.3357 2.8474
-9.9624 19.0499 2.8474
-10.0366 18.7648 2.8474
-10.1066 18.4804 2.8474
-10.1725 18.1970 2.8474
-10.2344 17.9147 2.8474
-10.2924 17.6337 2.8474
-10.3464 17.3540 2.8474
-6.4009 10.5130 1.7530
-10.4434 16.7991 2.8474
-10.4864 16.5242 2.8474
-10.5260 16.2510 2.8474
-10.5621 15.9797 2.8474
-10.5949 15.7104 2.8474
-10.6245 15.4431 2.8474
-10.6509 15.1780 2.8474
-10.6742 14.9150 2.8474
-10.6945 14.6544 2.8474
-10.7119 14.3960 2.8474
-10.7266 14.1400 2.8474
-10.7384 13.8864 2.8474
-10.7476 13.6352 2.8474
-10.7543 13.3866 2.8474
-10.7584 13.1405 2.8474
-10.7601 12.8970 2.8474
-10.7595 12.6560 2.8474
-10.7566 12.4177 2.8474
-10.7515 12.1819 2.8474
-10.7443 11.9489 2.8474
-10.7350 11.7185 2.8474
-10.7237 11.4908 2.8474
-10.7106 11.2658 2.8474
-10.6955 11.0434 2.8474
-10.6787 10.8238 2.8474
-10.6601 10.6068 2.8474
-10.6399 10.3925 2.8474
-10.6181 10.1810 2.8474
-10.5947 9.9720 2.8474
-10.5699 9.7658 2.8474
-10.5436 9.5622 2.8474
-10.5159 9.3613 2.8474
-10.4869 9.1629 2.8474
-10.4566 8.9673 2.8474
-10.4251 8.7742 2.8474
-10.3924 8.5837 2.8474
-10.3586 8.3958 2.8474
-10.3237 8.2104 2.8474
-10.2878 8.0275 2.8474
-10.2508 7.8472 2.8474
-10.2129 7.6693 2.8474
-10.1741 7.4940 2.8474
-10.1344 7.3210 2.8474
-10.0939 7.1505 2.8474
-10.0525 6.9824 2.8474
-10.0104 6.8166 2.8474
-9.9675 6.6532 2.8474
-9.9240 6.4921 2.8474
-9.8797 6.3333 2.8474
-9.8349 6.1768 2.8474
-9.7894 6.0225 2.8474
-9.7433 5.8703 2.8474
-9.6967 5.7205 2.8474
-9.6496 5.5727 2.8474
-9.6019 5.4271 2.8474
-9.5538 5.2836 2.8474
-9.5052 5.1422 2.8474
-9.4562 5.0028 2.8474
-9.4068 4.8655 2.8474
-9.3571 4.7302 2.8474
-9.3069 4.5968 2.8474
-9.2564 4.4654 2.8474
-8.7129 4.1038 2.6950
-8.6646 3.9830 2.6950
-8.6159 3.8640 2.6950
-8.5670 3.7467 2.6950
-8.5179 3.6312 2.6950
-8.4686 3.5174 2.6950
-8.4190 3.4052 2.6950
-8.3693 3.2946 2.6950
-8.3194 3.1857 2.6950
7.1740 12.5564 2.6950
7.1137 12.7204 2.6950
7.0510 12.8844 2.6950
6.9857 13.0480 2.6950
6.9179 13.2113 2.6950
6.8475 13.3741 2.6950
6.7745 13.5365 2.6950
6.6988 13.6982 2.6950
6.6205 13.8591 2.6950
6.5396 14.0193 2.6950
6.4560 14.1786 2.6950
6.3697 14.3368 2.6950
6.2807 14.4940 2.6950
6.1890 14.6499 2.6950
6.0946 14.8045 2.6950
6.0284 15.0350 2.7089
6.0514 15.5035 2.7653
6.0769 16.0016 2.8261
6.0115 16.2789 2.8474
5.8974 16.4335 2.8474
5.7805 16.5860 2.8474
5.6608 16.7364 2.8474
5.5382 16.8843 2.8474
5.4129 17.0298 2.8474
5.2848 17.1727 2.8474
5.1540 17.3128 2.8474
5.0205 17.4501 2.8474
4.8843 17.5845 2.8474
4.7455 17.7158 2.8474
4.6042 17.8439 2.8474
4.4602 17.9685 2.8474
4.3139 18.0898 2.8474
4.1651 18.2075 2.8474
4.0139 18.3215 2.8474
3.8604 18.4317 2.8474
3.7047 18.5380 2.8474
3.5469 18.6402 2.8474
3.3869 18.7383 2.8474
3.2249 18.8322 2.8474
3.0610 18.9217 2.8474
2.8953 19.0068 2.8474
2.7278 19.0874 2.8474
2.5586 19.1633 2.8474
2.3878 19.2346 2.8474
2.2156 19.3011 2.8474
2.0420 19.3627 2.8474
1.8671 19.4193 2.8474
1.6910 19.4710 2.8474
1.5138 19.5177 2.8474
1.3357 19.5592 2.8474
1.1567 19.5956 2.8474
0.9770 19.6267 2.8474
0.7967 19.6527 2.8474
0.6159 19.6733 2.8474
0.4346 19.6887 2.8474
0.2531 19.6988 2.8474
0.0714 19.7036 2.8474
-0.1103 19.7030 2.8474
-0.2920 19.6971 2.8474
-0.4734 19.6859 2.8474
-0.6546 19.6694 2.8474
-0.8353 19.6476 2.8474
-1.0155 19.6205 2.8474
-1.1951 19.5882 2.8474
-1.3739 19.5508 2.8474
-1.5518 19.5081 2.8474
-1.7288 19.4604 2.8474
-1.9046 19.4076 2.8474
-2.0792 19.3499 2.8474
-2.2526 19.2872 2.8474
-2.4245 19.2197 2.8474
-2.5949 19.1475 2.8474
-2.7638 19.0705 2.8474
-2.9309 18.9890 2.8474
-3.0963 18.9029 2.8474
-3.2598 18.8125 2.8474
-3.4213 18.7177 2.8474
-3.5808 18.6187 2.8474
-3.7382 18.5156 2.8474
-3.8935 18.4084 2.8474
-4.0464 18.2974 2.8474
-4.1971 18.1825 2.8474
-4.2747 17.7701 2.8010
-4.3220 17.2661 2.7401
-4.3866 16.8626 2.6950
-4.5198 16.7412 2.6950
-4.6507 16.6164 2.6950
-4.7790 16.4886 2.6950
-4.9048 16.3580 2.6950
-5.0281 16.2248 2.6950
-5.1488 16.0890 2.6950
-5.2668 15.9509 2.6950
-5.3823 15.8103 2.6950
-5.4950 15.6676 2.6950
-5.6051 15.5228 2.6950
-5.7125 15.3760 2.6950
-5.8172 15.2274 2.6950
-5.9192 15.0770 2.6950
-6.0184 14.9251 2.6950
-6.1150 14.7716 2.6950
-6.2088 14.6167 2.6950
-6.2999 14.4605 2.6950
-6.3884 14.3031 2.6950
-6.4741 14.1446 2.6950
-6.5571 13.9851 2.6950
-6.6375 13.8247 2.6950
-6.7152 13.6636 2.6950
-6.7903 13.5018 2.6950
-6.8628 13.3393 2.6950
-6.9326 13.1764 2.6950
-7.2438 12.3570 2.6950
-6.9999 13.0130 2.6950
-7.2986 12.1928 2.6950
-7.0647 12.8493 2.6950
-6.4249 10.5133 2.3556
-7.1269 12.6854 2.6950
-7.4010 11.8646 2.6950
-7.1866 12.5213 2.6950
-7.5372 11.3739 2.6950
-7.4487 11.7007 2.6950
-7.5781 11.2110 2.6950
-7.4941 11.5371 2.6950
-7.6167 11.0486 2.6950
-7.7501 10.4045 2.6950
-7.6532 10.8867 2.6950
-7.7783 10.2451 2.6950
-7.6876 10.7253 2.6950
-7.8045 10.0865 2.6950
-7.7198 10.5646 2.6950
-7.8288 9.9286 2.6950
-7.8903 9.4602 2.6950
-7.8511 9.7717 2.6950
-7.9072 9.3060 2.6950
-7.8717 9.6155 2.6950
-7.9224 9.1526 2.6950
-7.9663 8.5496 2.6950
-7.9358 9.0003 2.6950
-7.9732 8.4015 2.6950
-7.9476 8.8490 2.6950
-7.9787 8.2546 2.6950
-7.9577 8.6987 2.6950
-7.9826 8.1088 2.6950
-7.9859 7.6785 2.6950
-7.9843 7.5375 2.6950
-7.9851 7.9642 2.6950
-7.9813 7.3977 2.6950
-7.9862 7.8208 2.6950
-7.9771 7.2592 2.6950
-7.9716 7.1218 2.6950
-7.9649 6.9857 2.6950
-7.9570 6.8509 2.6950
-7.8866 6.0688 2.6950
-7.9480 6.7174 2.6950
-7.8713 5.9430 2.6950
-7.8551 5.8185 2.6950
-7.9378 6.5851 2.6950
-7.8379 5.6952 2.6950
-7.9266 6.4541 2.6950
-7.8198 5.5733 2.6950
-7.9143 6.3244 2.6950
-7.8009 5.4526 2.6950
-7.7812 5.3332 2.6950
-7.9009 6.1960 2.6950
-7.6464 4.6436 2.6950
-7.7606 5.2151 2.6950
-7.4873 3.9992 2.6950
-7.6215 4.5331 2.6950
-7.7392 5.0982 2.6950
-7.4588 3.8961 2.6950
-7.5959 4.4239 2.6950
-7.7171 4.9827 2.6950
-7.4297 3.7941 2.6950
-7.5696 4.3159 2.6950
-7.6943 4.8684 2.6950
-7.4001 3.6934 2.6950
-7.5428 4.2091 2.6950
-7.6707 4.7554 2.6950
-7.3700 3.5939 2.6950
-7.5153 4.1035 2.6950
-7.3394 3.4955 2.6950
-7.3083 3.3983 2.6950
-7.2768 3.3023 2.6950
-7.2449 3.2074 2.6950
-7.2125 3.1136 2.6950
-7.1798 3.0210 2.6950
-7.1467 2.9295 2.6950
-7.1131 2.8391 2.6950
5.6616 10.0814 2.7100
5.6731 10.3195 2.7429
5.6849 10.5665 2.7776
5.6970 10.8228 2.8140
5.6993 11.0692 2.8474
5.6322 11.1867 2.8474
5.5633 11.3035 2.8474
5.4924 11.4195 2.8474
5.4197 11.5346 2.8474
5.3450 11.6488 2.8474
5.2685 11.7620 2.8474
5.1901 11.8740 2.8474
5.1097 11.9850 2.8474
5.0275 12.0948 2.8474
4.9433 12.2033 2.8474
4.8573 12.3105 2.8474
4.7695 12.4163 2.8474
4.6797 12.5207 2.8474
4.5881 12.6235 2.8474
4.4947 12.7247 2.8474
4.3995 12.8243 2.8474
4.3025 12.9221 2.8474
4.2037 13.0182 2.8474
4.1031 13.1124 2.8474
4.0009 13.2047 2.8474
3.8969 13.2950 2.8474
3.7912 13.3833 2.8474
3.6839 13.4694 2.8474
3.5750 13.5533 2.8474
3.4645 13.6350 2.8474
3.3525 13.7144 2.8474
3.2389 13.7914 2.8474
3.1239 13.8660 2.8474
3.0074 13.9381 2.8474
2.8896 14.0077 2.8474
2.7704 14.0746 2.8474
2.6499 14.1389 2.8474
2.5282 14.2005 2.8474
2.4053 14.2593 2.8474
2.2812 14.3153 2.8474
2.1561 14.3685 2.8474
2.0299 14.4187 2.8474
1.9027 14.4660 2.8474
1.7746 14.5103 2.8474
1.6456 14.5516 2.8474
1.5158 14.5899 2.8474
1.3853 14.6250 2.8474
1.2540 14.6570 2.8474
1.1222 14.6859 2.8474
0.9898 14.7116 2.8474
0.8569 14.7340 2.8474
0.7236 14.7533 2.8474
0.5899 14.7693 2.8474
0.4559 14.7820 2.8474
0.3217 14.7916 2.8474
0.1873 14.7978 2.8474
0.0529 14.8007 2.8474
-0.0816 14.8003 2.8474
-0.2161 14.7967 2.8474
-0.3504 14.7898 2.8474
-0.4846 14.7796 2.8474
-0.6185 14.7661 2.8474
-0.7521 14.7494 2.8474
-0.8854 14.7295 2.8474
-1.0182 14.7063 2.8474
-1.1505 14.6800 2.8474
-1.2822 14.6505 2.8474
-1.4133 14.6177 2.8474
-1.5436 14.5820 2.8474
-1.6733 14.5431 2.8474
-1.8021 14.5011 2.8474
-1.9300 14.4562 2.8474
-2.0569 14.4082 2.8474
-2.1829 14.3573 2.8474
-2.3079 14.3036 2.8474
-2.4317 14.2470 2.8474
-2.5543 14.1875 2.8474
-2.6758 14.1254 2.8474
-2.7960 14.0605 2.8474
-2.9149 13.9930 2.8474
-3.0325 13.9229 2.8474
-3.1486 13.8502 2.8474
-3.2633 13.7751 2.8474
-3.3766 13.6976 2.8474
-3.4883 13.6177 2.8474
-4.1248 13.0924 2.8474
-3.5984 13.5355 2.8474
-4.2250 12.9978 2.8474
-3.7070 13.4511 2.8474
-4.3234 12.9014 2.8474
-3.8140 13.3646 2.8474
-4.4200 12.8031 2.8474
-3.9193 13.2758 2.8474
-4.5149 12.7032 2.8474
-4.0229 13.1852 2.8474
-4.6079 12.6015 2.8474
-4.6658 12.4100 2.8272
-4.6917 12.1435 2.7899
-4.9283 11.2159 2.6950
-4.7166 11.8863 2.7544
-5.0022 11.1095 2.6950
-4.7406 11.6379 2.7206
-5.3445 10.5642 2.6950
-5.0742 11.0022 2.6950
-5.4076 10.4528 2.6950
-4.7752 11.4253 2.6950
-5.1445 10.8940 2.6950
-5.6964 9.8872 2.6950
-5.4689 10.3408 2.6950
-4.8526 11.3211 2.6950
-5.7488 9.7727 2.6950
-5.5284 10.2281 2.6950
-5.9856 9.1962 2.6950
-5.2130 10.7849 2.6950
-5.7996 9.6578 2.6950
-5.5861 10.1150 2.6950
-6.0279 9.0804 2.6950
-5.2796 10.6749 2.6950
-5.8486 9.5428 2.6950
-5.6421 10.0013 2.6950
-6.0685 8.9645 2.6950
-6.2151 8.5014 2.6950
-5.8960 9.4274 2.6950
-6.3887 7.8113 2.6950
-6.1076 8.8487 2.6950
-6.2478 8.3858 2.6950
-5.9416 9.3119 2.6950
-6.2790 8.2704 2.6950
-6.4126 7.6972 2.6950
-6.1450 8.7328 2.6950
-6.5109 7.1330 2.6950
-6.5863 6.4721 2.6950
-6.3086 8.1552 2.6950
-6.4350 7.5836 2.6950
-6.1808 8.6170 2.6950
-6.5266 7.0215 2.6950
-6.5946 6.3640 2.6950
-6.3368 8.0403 2.6950
-6.4560 7.4703 2.6950
-6.6195 5.8330 2.6950
-6.5410 6.9105 2.6950
-6.6018 6.2566 2.6950
-6.3635 7.9256 2.6950
-6.4756 7.3574 2.6950
-6.6213 5.7289 2.6950
-6.5542 6.8001 2.6950
-6.6079 6.1497 2.6950
-6.6154 5.2189 2.6950
-6.4939 7.2450 2.6950
-6.6221 5.6254 2.6950
-6.5661 6.6902 2.6950
-6.6128 6.0434 2.6950
-6.6114 5.1191 2.6950
-6.5768 6.5809 2.6950
-6.5783 4.6317 2.6950
-6.6219 5.5227 2.6950
-6.6167 5.9379 2.6950
-6.6065 5.0201 2.6950
-6.5123 4.0729 2.6950
-6.5692 4.5365 2.6950
-6.6207 5.4207 2.6950
-6.6007 4.9218 2.6950
-6.4214 3.5431 2.6950
-6.4988 3.9825 2.6950
-6.5593 4.4422 2.6950
-6.6185 5.3194 2.6950
-6.5940 4.8243 2.6950
-6.4846 3.8930 2.6950
-6.4041 3.4576 2.6950
-6.5487 4.3487 2.6950
-6.5866 4.7276 2.6950
-6.4698 3.8043 2.6950
-6.3862 3.3730 2.6950
-6.3090 3.0424 2.6950
-6.5373 4.2559 2.6950
-6.4543 3.7164 2.6950
-6.5252 4.1640 2.6950
-6.2884 2.9618 2.6950
-6.3677 3.2891 2.6950
-6.4382 3.6293 2.6950
-6.2673 2.8819 2.6950
-6.3487 3.2061 2.6950
-6.2457 2.8029 2.6950
-6.3291 3.1238 2.6950
-6.2237 2.7246 2.6950
-6.2012 2.6472 2.6950
-6.1782 2.5705 2.6950
4.8529 8.7962 2.8474
4.7991 8.8853 2.8474
4.7439 8.9738 2.8474
4.6873 9.0617 2.8474
4.5093 9.3213 2.8474
4.1163 9.8183 2.8474
4.6294 9.1490 2.8474
4.0461 9.8979 2.8474
4.4472 9.4064 2.8474
4.5700 9.2355 2.8474
3.9745 9.9763 2.8474
3.1881 10.6929 2.8474
4.3838 9.4905 2.8474
3.9016 10.0536 2.8474
3.1027 10.7569 2.8474
3.6751 10.2786 2.8474
3.8274 10.1298 2.8474
4.3190 9.5739 2.8474
3.0163 10.8194 2.8474
2.6594 11.0528 2.8474
3.5970 10.3510 2.8474
3.7519 10.2048 2.8474
4.2528 9.6563 2.8474
2.9286 10.8802 2.8474
2.5675 11.1069 2.8474
3.5177 10.4222 2.8474
2.0942 11.3501 2.8474
2.8399 10.9395 2.8474
4.1852 9.7378 2.8474
3.4371 10.4920 2.8474
2.4747 11.1592 2.8474
1.9969 11.3930 2.8474
2.7502 10.9970 2.8474
3.3553 10.5604 2.8474
2.3809 11.2098 2.8474
1.4993 11.5776 2.8474
1.8988 11.4340 2.8474
0.8826 11.7298 2.8474
3.2723 10.6274 2.8474
1.8000 11.4730 2.8474
2.2862 11.2584 2.8474
0.7783 11.7476 2.8474
1.3978 11.6084 2.8474
0.2528 11.8028 2.8474
1.7005 11.5099 2.8474
2.1907 11.3052 2.8474
0.6737 11.7631 2.8474
1.2958 11.6369 2.8474
0.1472 11.8070 2.8474
1.6002 11.5448 2.8474
-0.3808 11.7945 2.8474
0.5688 11.7764 2.8474
0.0415 11.8091 2.8474
1.1932 11.6634 2.8474
-0.4861 11.7852 2.8474
0.4636 11.7874 2.8474
-1.0087 11.7053 2.8474
-0.0641 11.8088 2.8474
1.0901 11.6877 2.8474
-0.5912 11.7737 2.8474
-1.1122 11.6827 2.8474
0.3583 11.7962 2.8474
-0.1698 11.8063 2.8474
0.9865 11.7099 2.8474
-1.2152 11.6579 2.8474
-1.6217 11.5375 2.8474
-0.6961 11.7599 2.8474
-0.2754 11.8015 2.8474
-2.2112 11.2954 2.8474
-1.7218 11.5022 2.8474
-1.3177 11.6310 2.8474
-0.8006 11.7440 2.8474
-2.7695 10.9848 2.8474
-1.8212 11.4648 2.8474
-1.4196 11.6020 2.8474
-0.9049 11.7257 2.8474
-2.8590 10.9269 2.8474
-2.3066 11.2481 2.8474
-1.9199 11.4254 2.8474
-1.5210 11.5708 2.8474
-2.9475 10.8673 2.8474
-3.2901 10.6132 2.8474
-2.0178 11.3840 2.8474
-2.4011 11.1991 2.8474
-3.0349 10.8061 2.8474
-3.7681 10.1888 2.8474
-2.1149 11.3406 2.8474
-3.3729 10.5459 2.8474
-2.4947 11.1482 2.8474
-3.1211 10.7434 2.8474
-3.8434 10.1136 2.8474
-2.5873 11.0955 2.8474
-3.4544 10.4772 2.8474
-3.2062 10.6791 2.8474
-3.9173 10.0372 2.8474
-3.5347 10.4071 2.8474
-4.5829 9.2170 2.8474
-3.9899 9.9596 2.8474
-3.6138 10.3356 2.8474
-4.6419 9.1303 2.8474
-4.0612 9.8809 2.8474
-3.6916 10.2629 2.8474
-4.6996 9.0430 2.8474
-4.1998 9.7205 2.8474
-4.1312 9.8012 2.8474
-2.6789 11.0410 2.8474
-4.9164 8.6873 2.8474
-4.7558 8.9549 2.8474
-5.1457 7.1754 2.6950
-5.0158 7.8502 2.7462
-4.2670 9.6387 2.8474
-4.9481 8.5639 2.8364
-4.8107 8.8663 2.8474
-5.1786 7.0868 2.6950
-5.0282 7.7169 2.7306
-4.3329 9.5561 2.8474
-4.9624 8.4144 2.8166
-5.2103 6.9982 2.6950
-4.8643 8.7771 2.8474
-5.0403 7.5866 2.7158
-4.3975 9.4726 2.8474
-4.9763 8.2684 2.7977
-5.2408 6.9095 2.6950
-5.0521 7.4589 2.7017
-5.3253 6.6434 2.6950
-4.9899 8.1258 2.7797
-4.4606 9.3882 2.8474
-5.2702 6.8208 2.6950
-5.0762 7.3522 2.6950
-5.3512 6.5548 2.6950
-5.0030 7.9865 2.7625
-5.2983 6.7321 2.6950
-4.5224 9.3030 2.8474
-5.1115 7.2639 2.6950
-5.3759 6.4663 2.6950
-5.5631 5.5903 2.6950
-5.4636 6.1135 2.6950
-5.6271 5.0777 2.6950
-5.5762 5.5041 2.6950
-5.6583 4.5789 2.6950
-5.3994 6.3779 2.6950
-5.4828 6.0257 2.6950
-5.6345 4.9936 2.6950
-5.5883 5.4181 2.6950
-5.6606 4.4973 2.6950
-5.4219 6.2896 2.6950
-5.5009 5.9382 2.6950
-5.5994 5.3325 2.6950
-5.6410 4.9098 2.6950
-5.6621 4.4161 2.6950
-5.4433 6.2015 2.6950
-5.6095 5.2472 2.6950
-5.5180 5.8508 2.6950
-5.6466 4.8265 2.6950
-5.6187 5.1623 2.6950
-5.6627 4.3354 2.6950
-5.6601 4.0962 2.6950
-5.6513 4.7435 2.6950
-5.5341 5.7637 2.6950
-5.6353 3.6315 2.6950
-5.6626 4.2552 2.6950
-5.6577 4.0175 2.6950
-5.6288 3.5559 2.6950
-5.6553 4.6610 2.6950
-5.5491 5.6769 2.6950
-5.6617 4.1755 2.6950
-5.6216 3.4808 2.6950
-5.6546 3.9392 2.6950
-5.5868 3.1859 2.6950
-5.6139 3.4062 2.6950
-5.6508 3.8615 2.6950
-5.5766 3.1136 2.6950
-5.6054 3.3323 2.6950
-5.6463 3.7843 2.6950
-5.5964 3.2588 2.6950
-5.5659 3.0419 2.6950
-5.6412 3.7076 2.6950
-5.5545 2.9707 2.6950
-5.5427 2.9000 2.6950
-5.5303 2.8299 2.6950
-5.5173 2.7604 2.6950
-5.5039 2.6915 2.6950
-5.4899 2.6231 2.6950
-5.4755 2.5553 2.6950
-5.4606 2.4881 2.6950
-5.4452 2.4214 2.6950
-5.4294 2.3554 2.6950
