ply
format ascii 1.0
element vertex 1827
property float32 x
property float32 y
property float32 z
end_header
-2.4701 21.2985 -10.6182
-2.6699 20.9963 -10.4726
-2.7747 20.0523 -10.0069
-4.0158 4.7661 -2.6316
-4.1353 4.8043 -2.6628
-4.2587 4.8436 -2.6951
-4.3863 4.8842 -2.7287
-4.5184 4.9263 -2.7636
-4.6576 4.9724 -2.8013
-23.0465 23.5944 -13.4102
-6.0043 6.0199 -3.4372
-6.0314 5.9223 -3.3974
-4.3179 4.0666 -2.3558
-6.0582 5.8259 -3.3582
-5.7663 4.2185 -2.6231
-6.3785 4.5669 -2.8597
-4.9953 4.1505 -2.4840
-4.5216 4.1707 -2.4283
-5.7314 4.0156 -2.5327
-4.7407 4.2826 -2.5065
-5.1834 4.2172 -2.5389
-6.4883 4.4478 -2.8262
-6.5735 4.4084 -2.8226
-5.8798 5.2020 -3.0610
-5.3822 4.2875 -2.5971
-6.0048 3.9390 -2.5418
-6.0683 5.2577 -3.1108
-5.5490 4.3279 -2.6380
-6.0091 3.8550 -2.5078
-6.0134 3.7721 -2.4744
-5.7846 4.9082 -2.9204
-5.6206 4.2916 -2.6329
-6.0177 3.6902 -2.4415
-6.1094 3.4144 -2.3441
-6.0220 3.6094 -2.4092
-5.6931 4.2552 -2.6279
-6.0261 3.5295 -2.3774
-6.0705 3.3128 -2.2971
-5.9663 2.8770 -2.1076
-6.0303 3.4506 -2.3461
-6.0327 3.2137 -2.2515
-5.8045 2.3820 -1.8894
-5.9232 2.7835 -2.0640
-5.9959 3.1171 -2.2071
-5.8811 2.6922 -2.0215
-5.9600 3.0228 -2.1639
-5.8401 2.6032 -1.9802
-6.0106 2.9730 -2.1526
-5.7999 2.5162 -1.9400
-5.7607 2.4313 -1.9008
-1.4926 21.1954 -9.3450
-1.7299 21.2627 -9.3769
-1.8861 20.4326 -9.0133
-2.2078 21.3778 -9.4332
-2.4258 21.2285 -9.3706
-2.0481 12.0718 -5.3408
-1.5112 12.0620 -5.3264
-2.1915 12.1189 -5.3646
-1.6354 11.9960 -5.2994
-2.3537 12.2555 -5.4284
-1.7682 11.9955 -5.3017
-1.9056 12.0214 -5.3157
-4.0779 4.7268 -2.2796
-4.1974 4.7642 -2.3051
-4.4483 4.8424 -2.3589
-4.3208 4.8027 -2.3316
-4.5803 4.8834 -2.3873
-5.4639 5.2532 -2.6177
-4.7170 4.9259 -2.4168
-4.8971 5.0092 -2.4669
-5.6366 5.3086 -2.6563
-5.0866 5.0965 -2.5195
-4.4383 4.0948 -2.0576
-5.2867 5.1888 -2.5752
-4.6481 4.2007 -2.1201
-5.5986 4.7553 -2.4333
-4.8645 4.3064 -2.1832
-5.6477 4.6984 -2.4159
-6.1383 5.3228 -2.7109
-5.6968 4.6416 -2.3987
-5.4232 4.0626 -2.1450
-5.7460 4.5849 -2.3816
-5.6311 4.1297 -2.1930
-5.7952 4.5282 -2.3646
-5.8446 4.4717 -2.3478
-5.8521 4.2011 -2.2441
-5.9107 3.8907 -2.1319
-5.8959 4.1426 -2.2264
-5.8406 3.7606 -2.0748
-5.9009 4.0575 -2.1944
-5.9204 3.7281 -2.0714
-5.9058 3.9736 -2.1629
-6.0396 3.7188 -2.0813
-5.9270 3.4076 -1.9520
-6.0010 3.6123 -2.0370
-5.8915 3.3090 -1.9112
-5.9634 3.5086 -1.9938
-5.8570 3.2129 -1.8716
-5.9538 2.9631 -1.7912
-5.9109 2.8686 -1.7516
-6.5975 3.5337 -2.0767
-5.8691 2.7765 -1.7131
-6.4599 3.3774 -2.0029
-5.8283 2.6867 -1.6757
-5.9978 3.0600 -1.8318
-5.7885 2.5989 -1.6392
-5.7589 2.4496 -1.5821
-5.7495 2.5132 -1.6037
-6.5535 2.7113 -1.7731
-6.5288 2.6257 -1.7397
-6.5045 2.5415 -1.7069
-6.4806 2.4588 -1.6747
-1.1967 20.4013 -7.8794
-1.4362 20.6897 -7.9920
-1.6681 20.8003 -8.0360
-1.9091 20.9818 -8.1077
-2.1568 21.1867 -8.1887
-2.3473 20.8400 -8.0567
-2.5562 20.6992 -8.0044
-2.7548 20.5006 -7.9299
-2.9261 20.1398 -7.7928
-3.0853 19.7483 -7.6440
-3.6613 12.5867 -4.9021
-3.9659 12.6258 -4.9243
-4.7908 12.8272 -5.0232
-4.9654 12.8766 -5.0470
-6.6548 13.3283 -5.2744
-6.8636 13.3920 -5.3062
-4.1409 4.6897 -1.9398
-4.2604 4.7262 -1.9597
-4.3839 4.7640 -1.9804
-4.5116 4.8029 -2.0018
-4.6436 4.8429 -2.0239
-4.7802 4.8844 -2.0468
-4.9587 4.9642 -2.0861
-5.1491 5.0504 -2.1285
-4.7221 4.0971 -1.7602
-5.3492 5.1406 -2.1730
-4.9175 4.1799 -1.8021
-5.5460 5.2221 -2.2142
-5.1259 4.2683 -1.8469
-5.7195 5.2765 -2.2444
-5.9668 4.8671 -2.1139
-5.9450 5.3737 -2.2931
-5.9711 4.7708 -2.0800
-5.9495 5.2688 -2.2558
-5.9753 4.6761 -2.0468
-5.9795 4.5828 -2.0141
-5.9712 4.0292 -1.8195
-5.9848 4.4919 -1.9824
-5.9330 3.9175 -1.7779
-6.0319 4.4330 -1.9649
-5.8959 3.8087 -1.7375
-6.0791 4.3741 -1.9474
-5.8597 3.7028 -1.6983
-6.1264 4.3153 -1.9301
-5.8246 3.5997 -1.6601
-6.1737 4.2566 -1.9128
-5.7905 3.4992 -1.6230
-6.8055 4.0205 -1.8758
-5.9068 3.0300 -1.4711
-6.7683 3.9081 -1.8345
-5.8661 2.9361 -1.4362
-6.7427 3.8043 -1.7970
-5.8264 2.8444 -1.4022
-6.9047 3.8057 -1.8094
-5.7877 2.7550 -1.3691
-5.7499 2.6676 -1.3369
-5.9914 3.2251 -1.5438
-5.7859 2.6152 -1.3220
-5.9485 3.1263 -1.5069
-6.5217 2.8706 -1.4643
-6.4972 2.7838 -1.4334
-6.4732 2.6983 -1.4031
-6.4496 2.6143 -1.3733
-6.4264 2.5316 -1.3441
-40.6693 4.1920 -4.7286
-37.8718 3.5343 -4.2902
-37.5943 3.1427 -4.1470
-37.4228 2.7650 -4.0174
-1.0028 21.2284 -7.0807
-1.2077 20.8807 -6.9651
-1.3996 20.4466 -6.8208
-1.6409 20.7519 -6.9232
-1.8576 20.7053 -6.9083
-2.1007 20.9287 -6.9835
-2.3218 20.9067 -6.9770
-2.5321 20.7956 -6.9409
-2.7007 20.3843 -6.8046
-2.8262 19.7292 -6.5869
-3.0526 19.8176 -6.6175
-3.3291 20.1941 -6.7444
-3.7826 21.5281 -7.1913
-4.2202 12.6849 -4.2544
-21.4921 25.8344 -8.8899
-21.6619 25.5048 -8.7866
-21.8098 24.6435 -8.5104
-4.2041 4.6542 -1.6093
-4.3237 4.6898 -1.6237
-4.4473 4.7267 -1.6386
-4.5752 4.7648 -1.6541
-4.7074 4.8041 -1.6701
-4.8442 4.8446 -1.6866
-5.0217 4.9216 -1.7160
-5.2125 5.0062 -1.7481
-5.4134 5.0952 -1.7820
-5.6293 5.1923 -1.8189
-5.6394 5.0973 -1.7886
-5.7122 5.0596 -1.7785
-5.7845 5.0207 -1.7679
-5.7901 4.9244 -1.7371
-5.7956 4.8297 -1.7069
-4.9727 4.0601 -1.4377
-5.1808 4.1442 -1.4704
-5.4021 4.2331 -1.5051
-5.8171 4.4651 -1.5909
-5.8223 4.3773 -1.5630
-6.0050 4.4215 -1.5824
-6.0013 4.3271 -1.5522
-5.8286 4.1149 -1.4797
-5.7930 4.0039 -1.4433
-5.7582 3.8958 -1.4079
-5.7244 3.7905 -1.3735
-6.3038 4.0846 -1.4842
-6.3332 4.0150 -1.4630
-6.3406 3.9321 -1.4370
-6.2668 3.8008 -1.3933
-6.6178 3.9246 -1.4432
-5.9732 3.4630 -1.2776
-5.9302 3.3602 -1.2439
-5.8883 3.2600 -1.2110
-5.8475 3.1624 -1.1791
-5.8077 3.0673 -1.1479
-5.7689 2.9745 -1.1176
-5.7310 2.8839 -1.0880
-5.8887 2.8909 -1.0953
-5.8137 2.7835 -1.0592
-5.7412 2.6798 -1.0245
-6.4661 2.9412 -1.1298
-6.4424 2.8545 -1.1020
-6.4190 2.7692 -1.0747
-6.3960 2.6853 -1.0478
-6.3734 2.6027 -1.0214
-45.9614 17.7286 -7.0434
-44.0753 4.7003 -3.0039
-42.2728 4.0962 -2.7577
-39.4934 3.4429 -2.4615
1.3720 37.2020 -10.5109
0.9756 36.8980 -10.4251
-0.5299 20.6121 -5.8237
-0.7644 21.1485 -5.9752
-0.9884 21.2149 -5.9939
-1.2138 21.2780 -6.0115
-1.4370 21.2851 -6.0134
-1.6224 20.8031 -5.8770
-1.8459 20.8620 -5.8935
-2.0711 20.9210 -5.9099
-2.3124 21.1125 -5.9637
-2.4552 20.4461 -5.7752
-2.7519 21.0611 -5.9486
-2.8163 19.9360 -5.6305
-3.1416 20.6816 -5.8407
-3.3047 20.3281 -5.7404
-3.5317 20.3832 -5.7556
-18.6997 20.6581 -5.7520
-4.2670 4.6196 -1.2856
-4.3866 4.6544 -1.2946
-4.5102 4.6903 -1.3038
-4.6382 4.7275 -1.3134
-4.7707 4.7661 -1.3233
-4.9078 4.8059 -1.3336
-5.0848 4.8804 -1.3534
-5.2757 4.9633 -1.3755
-5.4774 5.0508 -1.3988
-5.6566 5.1126 -1.4149
-5.3837 4.7692 -1.3189
-5.4511 4.7328 -1.3079
-5.5190 4.6961 -1.2968
-5.5873 4.6593 -1.2855
-5.6562 4.6221 -1.2742
-5.7255 4.5846 -1.2629
-5.7953 4.5469 -1.2514
-5.2341 4.0233 -1.1063
-5.4551 4.1078 -1.1285
-5.6916 4.1982 -1.1522
-6.0369 4.3614 -1.1958
-6.0459 4.2775 -1.1715
-6.0547 4.1946 -1.1476
-6.0634 4.1126 -1.1239
-6.0720 4.0316 -1.1005
-5.8496 3.8013 -1.0364
-6.2168 3.9534 -1.0765
-5.9551 3.7052 -1.0076
-5.9119 3.5981 -0.9772
-5.8699 3.4939 -0.9476
-5.8290 3.3925 -0.9187
-5.7891 3.2936 -0.8906
-5.7502 3.1972 -0.8632
-5.7122 3.1032 -0.8364
-5.8568 3.1078 -0.8362
-5.7842 2.9971 -0.8050
-5.7141 2.8902 -0.7748
-6.4589 3.1880 -0.8529
-6.4350 3.0984 -0.8273
-6.4116 3.0104 -0.8020
-6.3885 2.9238 -0.7772
-6.3658 2.8387 -0.7528
-6.3435 2.7549 -0.7287
-6.3215 2.6724 -0.7051
-45.7535 18.8194 -4.9514
-45.6559 17.7488 -4.6416
-45.4547 17.1639 -4.4740
-45.4907 16.6743 -4.3313
-45.5265 16.1878 -4.1894
-36.8774 6.2368 -1.3867
-37.5238 5.9746 -1.3022
-37.6079 5.6169 -1.1963
-37.2963 5.2034 -1.0787
-37.2090 4.8262 -0.9691
-43.3485 4.3531 -0.7562
2.1592 37.8836 -8.8196
1.7471 37.4251 -8.7140
1.3646 37.5086 -8.7344
0.9759 37.4145 -8.7132
0.5919 37.4772 -8.7282
-0.5209 20.5389 -4.7832
-0.7385 20.7124 -4.8232
-0.9600 20.8887 -4.8637
-1.1197 19.8986 -4.6326
-1.3974 20.9837 -4.8844
-1.6121 20.9553 -4.8769
-1.8265 20.9268 -4.8693
-2.0407 20.8984 -4.8615
-2.2538 20.8613 -4.8516
-2.4673 20.8299 -4.8428
-2.5826 20.0389 -4.6574
-2.6986 19.3670 -4.4997
-3.1596 21.0887 -4.8979
-3.3207 20.7100 -4.8080
-3.4887 20.4149 -4.7374
-4.2418 12.6776 -2.9123
-23.2902 27.2730 -5.8466
-23.4597 26.9231 -5.7535
-23.6278 26.5765 -5.6610
-24.2834 26.7722 -5.6836
-24.6868 26.6784 -5.6441
-4.3286 4.5855 -0.9666
-4.4310 4.6015 -0.9664
-4.5350 4.6168 -0.9660
-4.6416 4.6325 -0.9654
-4.7511 4.6486 -0.9648
-4.8634 4.6651 -0.9642
-4.9789 4.6820 -0.9635
-5.0975 4.6994 -0.9627
-5.2452 4.7405 -0.9665
-5.3413 4.7323 -0.9602
-5.4275 4.7138 -0.9517
-5.5149 4.6951 -0.9429
-5.6383 4.7050 -0.9398
-5.7750 4.7233 -0.9382
-5.8931 4.7238 -0.9329
-5.8810 4.6198 -0.9068
-5.8692 4.5179 -0.8813
-5.8575 4.4179 -0.8561
-6.0957 4.5043 -0.8670
-5.5047 3.9847 -0.7615
-6.1659 4.3718 -0.8293
-6.2088 4.3114 -0.8116
-6.2494 4.2494 -0.7935
-5.9364 3.9522 -0.7319
-5.8931 3.8407 -0.7050
-5.8510 3.7322 -0.6788
-5.8099 3.6267 -0.6533
-5.7700 3.5239 -0.6284
-5.7310 3.4237 -0.6041
-5.6930 3.3261 -0.5804
-5.8172 3.3230 -0.5732
-5.7450 3.2080 -0.5465
-5.6754 3.0970 -0.5208
-6.4621 3.4451 -0.5715
-6.4161 3.3409 -0.5463
-6.3958 3.2516 -0.5236
-6.3758 3.1639 -0.5012
-6.3561 3.0775 -0.4792
-6.3355 2.9920 -0.4574
-6.3134 2.9070 -0.4358
-6.2917 2.8234 -0.4145
-44.2645 18.8415 -2.6402
-44.8597 18.5839 -2.5373
-45.9080 18.4995 -2.4558
-45.8938 17.9796 -2.3152
-36.3547 8.4605 -0.2342
-36.9926 8.2343 -0.1328
-37.0491 7.8733 -0.0276
-37.1326 7.5183 0.0778
-37.1798 7.1561 0.1833
-37.3268 6.8126 0.2896
-37.4105 6.4566 0.3960
-20.9330 3.4058 0.2806
-20.9770 3.2061 0.3404
-21.0211 3.0062 0.4003
-21.0652 2.8061 0.4604
-21.1094 2.6056 0.5208
-21.1537 2.4048 0.5814
2.9047 37.9142 -6.9769
2.4948 37.5643 -6.9154
2.1012 37.3670 -6.8815
1.7257 37.4688 -6.9023
1.3465 37.5157 -6.9126
0.7285 28.3093 -5.2172
0.5665 36.3571 -6.7011
0.2063 37.9927 -7.0030
-0.7225 20.5377 -3.7843
-0.9373 20.6712 -3.8080
-1.0981 19.7793 -3.6427
-1.3760 20.9433 -3.8557
-1.6313 21.4940 -3.9554
-1.7780 20.6482 -3.7980
-2.0302 21.0743 -3.8743
-2.2513 21.1229 -3.8809
-2.4329 20.8205 -3.8229
-2.6525 20.8633 -3.8280
-2.6487 19.2700 -3.5329
-3.1527 21.3313 -3.9076
-3.3507 21.1850 -3.8773
-3.5290 20.9350 -3.8278
-3.7245 20.8069 -3.8005
-3.9196 20.6869 -3.7744
-4.1132 20.5677 -3.7483
-4.1927 12.7099 -2.2719
-4.6347 4.4434 -0.6086
-4.7406 4.4566 -0.6032
-4.8493 4.4700 -0.5976
-4.9607 4.4837 -0.5917
-5.0752 4.4976 -0.5856
-5.1798 4.5006 -0.5779
-5.2608 4.4815 -0.5670
-5.3428 4.4620 -0.5559
-5.4260 4.4422 -0.5445
-5.5103 4.4221 -0.5330
-5.5958 4.4016 -0.5211
-5.6824 4.3807 -0.5090
-5.7703 4.3595 -0.4967
-5.8781 4.3517 -0.4856
-5.9148 4.2903 -0.4683
-6.0531 4.3014 -0.4587
-5.8733 4.0883 -0.4254
-5.8311 3.9753 -0.4029
-5.7899 3.8654 -0.3810
-5.7499 3.7585 -0.3596
-5.7109 3.6544 -0.3387
-5.6728 3.5530 -0.3183
-5.7761 3.5401 -0.3058
-5.7044 3.4206 -0.2840
-5.6352 3.3054 -0.2630
-6.2845 3.6049 -0.2738
-6.2655 3.5138 -0.2537
-6.2467 3.4243 -0.2339
-6.2282 3.3363 -0.2143
-6.2100 3.2497 -0.1950
-6.1921 3.1645 -0.1759
-6.1743 3.0806 -0.1570
-6.1568 2.9980 -0.1384
-45.1709 20.9270 -0.7503
-20.2355 7.1027 0.2411
-20.1708 6.8629 0.2967
-20.2152 6.6619 0.3538
-20.2594 6.4613 0.4109
-20.3035 6.2611 0.4682
-20.3476 6.0613 0.5256
-20.3916 5.8618 0.5832
-20.3538 5.6399 0.6383
-20.3975 5.4417 0.6959
-20.4421 5.2439 0.7538
-20.5662 5.0658 0.8150
-20.6100 4.8673 0.8734
-20.6538 4.6688 0.9320
-20.6976 4.4703 0.9909
-20.7413 4.2719 1.0500
-20.7851 4.0733 1.1093
-20.8289 3.8747 1.1689
-20.8727 3.6760 1.2287
-20.9166 3.4771 1.2889
-20.9605 3.2780 1.3493
-21.0044 3.0787 1.4101
-21.0485 2.8790 1.4711
-21.0926 2.6791 1.5325
15.4551 38.1668 -4.7525
15.9939 40.6534 -5.0887
16.6258 43.5238 -5.4756
3.1892 37.2309 -5.0642
2.8353 37.5113 -5.1069
2.4244 36.9989 -5.0412
2.0922 37.7124 -5.1419
1.6832 37.0421 -5.0533
1.3342 37.6761 -5.1421
0.9258 36.4631 -4.9783
0.5812 37.8081 -5.1631
0.1986 37.0745 -5.0635
-0.5121 20.7432 -2.8321
-0.7235 20.8451 -2.8451
-0.9371 20.9478 -2.8578
-1.1500 20.9950 -2.8627
-1.3038 20.1146 -2.7408
-1.5196 20.2936 -2.7630
-1.7182 20.2249 -2.7512
-1.9632 20.6560 -2.8070
-2.2098 21.0158 -2.8526
-2.4215 21.0057 -2.8477
-2.6531 21.1530 -2.8638
-2.8626 21.1102 -2.8537
-3.0634 21.0108 -2.8358
-3.2629 20.9121 -2.8176
-3.4610 20.8139 -2.7991
-3.6577 20.7148 -2.7803
-3.7378 19.9991 -2.6786
-4.2637 12.6788 -1.6252
-32.7878 30.8201 -2.0195
-32.8589 30.2913 -1.9126
-5.7180 5.1694 -0.3137
-4.8313 4.2833 -0.2491
-4.9389 4.2940 -0.2385
-5.0495 4.3049 -0.2275
-5.1630 4.3160 -0.2161
-5.2796 4.3274 -0.2042
-5.3995 4.3390 -0.1919
-5.3395 4.2064 -0.1732
-5.4196 4.1853 -0.1592
-5.5008 4.1637 -0.1448
-5.5831 4.1418 -0.1301
-5.9272 4.3090 -0.1203
-5.9619 4.2469 -0.1033
-5.9972 4.1854 -0.0862
-5.6893 3.8895 -0.0652
-5.6513 3.7841 -0.0483
-5.7326 3.7591 -0.0324
-5.6615 3.6349 -0.0158
-5.5929 3.5153 0.0003
-6.0711 3.7349 0.0175
-6.1028 3.6740 0.0348
-6.0995 3.5925 0.0519
-6.0825 3.5042 0.0687
-6.0658 3.4173 0.0853
-6.0493 3.3319 0.1018
-6.0330 3.2478 0.1181
-19.4297 10.2203 0.4333
-19.4766 10.0076 0.4874
-19.5233 9.7959 0.5416
-19.5697 9.5853 0.5958
-19.6160 9.3758 0.6501
-19.6620 9.1673 0.7045
-19.7077 8.9597 0.7589
-19.7533 8.7530 0.8135
-19.7987 8.5471 0.8682
-19.8440 8.3420 0.9230
-19.8890 8.1377 0.9779
-19.9339 7.9341 1.0330
-19.9787 7.7312 1.0882
-20.0233 7.5289 1.1436
-20.0678 7.3272 1.1991
-20.1121 7.1260 1.2549
-20.1564 6.9253 1.3108
-20.2006 6.7251 1.3670
-20.2446 6.5253 1.4233
-20.2886 6.3259 1.4799
-20.3325 6.1268 1.5368
-20.3763 5.9280 1.5938
-20.3385 5.7065 1.6446
-20.3820 5.5090 1.7020
-20.4256 5.3116 1.7596
-20.5504 5.1347 1.8248
-20.5940 4.9368 1.8833
-20.6376 4.7389 1.9421
-20.6813 4.5411 2.0012
-20.7249 4.3433 2.0607
-20.7685 4.1454 2.1205
-20.8122 3.9474 2.1807
-20.8559 3.7492 2.2412
-20.8996 3.5509 2.3022
-20.9434 3.3524 2.3635
-20.9873 3.1536 2.4253
-21.0312 2.9545 2.4875
15.7162 39.3779 -2.9146
16.2980 42.0283 -3.1459
16.9362 44.9784 -3.4030
3.1676 37.4815 -3.3253
2.8079 37.6540 -3.3466
2.3717 36.6861 -3.2656
2.0512 37.4745 -3.3403
1.6897 37.6885 -3.3630
1.3036 37.3116 -3.3324
0.9561 38.1683 -3.4111
0.5756 37.9489 -3.3930
0.1985 37.5574 -3.3588
-0.1715 37.3334 -3.3388
-0.5209 21.3866 -1.9114
-0.7344 21.4468 -1.9156
-0.9170 20.7762 -1.8540
-1.1267 20.8497 -1.8586
-1.3381 20.9237 -1.8627
-1.4931 20.2107 -1.7965
-1.7644 21.0520 -1.8680
-1.9628 20.9329 -1.8537
-2.1612 20.8341 -1.8409
-2.3802 20.9290 -1.8447
-2.5676 20.7508 -1.8241
-2.7851 20.8198 -1.8248
-2.9809 20.7249 -1.8107
-3.1754 20.6305 -1.7964
-3.3576 20.4691 -1.7758
-3.5134 20.1713 -1.7431
-4.2059 12.6854 -0.9981
-29.9839 35.5619 -0.9631
-30.5705 35.5543 -0.8845
-30.6979 35.0123 -0.7916
-30.8235 34.4780 -0.6991
-30.9474 33.9510 -0.6070
-31.0695 33.4313 -0.5152
-31.1901 32.9184 -0.4237
-31.0640 32.1585 -0.3300
-31.6564 32.1458 -0.2435
-32.2572 32.1308 -0.1545
-32.8863 32.1326 -0.0630
-33.5611 32.1662 0.0312
-31.4208 29.5402 0.1178
-32.8568 30.3002 0.2150
-32.9691 29.8224 0.3071
-33.0802 29.3498 0.3991
-5.6106 4.8824 0.0830
-5.6303 4.8053 0.0985
-5.6497 4.7289 0.1141
-5.3065 4.3557 0.1213
-5.1282 4.1276 0.1308
-5.2403 4.1358 0.1475
-5.3556 4.1441 0.1648
-5.4741 4.1525 0.1827
-5.5959 4.1611 0.2013
-5.7213 4.1698 0.2206
-5.9245 4.2317 0.2436
-5.6857 3.9796 0.2483
-5.6153 3.8508 0.2596
-5.5474 3.7267 0.2705
-5.9846 3.9380 0.3070
-5.9688 3.8463 0.3212
-5.9532 3.7563 0.3353
-5.9378 3.6677 0.3493
-5.9226 3.5806 0.3632
-5.9076 3.4950 0.3770
-5.8927 3.4107 0.3907
-19.2000 10.8696 1.3206
-19.2397 10.6510 1.3710
-19.2867 10.4379 1.4221
-19.4179 10.2707 1.4798
-19.4646 10.0590 1.5314
-19.5110 9.8485 1.5831
-19.5572 9.6390 1.6351
-19.6032 9.4306 1.6872
-19.6490 9.2231 1.7396
-19.6945 9.0165 1.7921
-19.7399 8.8107 1.8449
-19.7851 8.6058 1.8979
-19.8301 8.4017 1.9511
-19.8750 8.1983 2.0046
-19.9197 7.9956 2.0583
-19.9642 7.7936 2.1123
-20.0087 7.5922 2.1665
-20.0530 7.3913 2.2211
-20.0971 7.1909 2.2759
-20.1412 6.9911 2.3310
-20.1852 6.7916 2.3865
-20.2291 6.5926 2.4423
-20.2729 6.3940 2.4984
-20.3166 6.1956 2.5548
-20.3603 5.9975 2.6116
-20.6166 5.8602 2.6966
-20.2245 5.5410 2.6966
-19.8459 5.2345 2.6966
-19.4799 4.9399 2.6966
-19.1259 4.6565 2.6966
-18.7832 4.3840 2.6966
-18.7647 4.1912 2.7424
-18.7944 4.0101 2.7955
-18.8240 3.8290 2.8489
-18.5050 3.5806 2.8490
-18.1945 3.3407 2.8490
-17.8928 3.1090 2.8490
-17.5995 2.8851 2.8490
-17.3143 2.6688 2.8490
16.0064 40.6925 -0.9779
16.6187 43.4808 -1.0888
17.2862 46.5755 -1.2118
3.1695 38.0167 -1.5897
2.8044 38.1203 -1.6013
2.3143 36.2871 -1.5304
2.0092 37.2092 -1.5746
1.6335 36.9332 -1.5673
1.2951 37.5727 -1.5981
0.9243 37.4022 -1.5935
0.5571 37.2331 -1.5881
0.1919 36.8031 -1.5707
-0.7177 21.2449 -0.9037
-0.9264 21.2758 -0.9030
-1.1359 21.3066 -0.9018
-1.3462 21.3372 -0.9001
-1.5582 21.3801 -0.8984
-1.7091 20.6707 -0.8646
-1.9186 20.7423 -0.8632
-2.1161 20.6783 -0.8556
-2.4007 21.3988 -0.8798
-2.5593 20.9677 -0.8561
-2.7439 20.7942 -0.8425
-2.9164 20.5557 -0.8260
-3.0839 20.3126 -0.8089
-3.2480 20.0741 -0.7916
-4.2845 12.6897 -0.3657
-16.4422 23.7489 0.2768
-16.5230 23.3827 0.3210
-16.6024 23.0230 0.3651
-16.6804 22.6695 0.4091
-16.7571 22.3220 0.4530
-16.8324 21.9804 0.4969
-16.9066 21.6443 0.5407
-16.9795 21.3137 0.5844
-16.9815 20.9023 0.6256
-17.0543 20.5860 0.6691
-17.1893 20.3494 0.7154
-17.2578 20.0386 0.7590
-17.3254 19.7323 0.8026
-17.3920 19.4304 0.8463
-17.4577 19.1328 0.8899
-17.5225 18.8392 0.9336
-17.5864 18.5495 0.9773
-17.6494 18.2637 1.0211
-17.7117 17.9815 1.0648
-17.7731 17.7030 1.1087
-17.8338 17.4279 1.1526
-17.8938 17.1561 1.1965
-17.9530 16.8875 1.2406
-18.0116 16.6221 1.2847
-18.0695 16.3596 1.3289
-18.1268 16.1001 1.3732
-18.1081 15.7778 1.4118
-18.1672 15.5278 1.4564
-18.2915 15.3353 1.5066
-18.3464 15.0866 1.5513
-18.4007 14.8404 1.5962
-18.4545 14.5965 1.6413
-18.5078 14.3549 1.6864
-18.5606 14.1155 1.7318
-18.6129 13.8784 1.7773
-5.4192 3.9613 0.5293
-5.9249 4.2452 0.5916
-5.8352 4.0977 0.5954
-5.8211 4.0059 0.6066
-5.8071 3.9156 0.6178
-5.7932 3.8268 0.6290
-5.7796 3.7396 0.6401
-5.7660 3.6537 0.6513
-19.0650 11.8289 2.1951
-19.1134 11.6095 2.2426
-19.1615 11.3915 2.2903
-19.2092 11.1749 2.3382
-19.2567 10.9597 2.3864
-19.2275 10.7032 2.4253
-19.2742 10.4913 2.4738
-19.3207 10.2806 2.5226
-19.4515 10.1150 2.5830
-19.9731 10.1472 2.6968
-19.6467 9.7484 2.6966
-19.3309 9.3646 2.6966
-19.0242 8.9946 2.6966
-18.7261 8.6376 2.6966
-18.4362 8.2931 2.6966
-18.1541 7.9604 2.6966
-18.0021 7.6913 2.7151
-18.0344 7.5039 2.7613
-18.0665 7.3173 2.8077
-18.0639 7.1179 2.8490
-17.8023 6.8207 2.8490
-17.5469 6.5329 2.8490
-17.2977 6.2541 2.8490
-17.0544 5.9840 2.8490
-16.8166 5.7222 2.8490
-16.5843 5.4683 2.8490
-16.3571 5.2220 2.8490
-16.1350 4.9829 2.8490
-15.9176 4.7509 2.8490
-15.7049 4.5256 2.8490
-15.4966 4.3068 2.8490
-15.2926 4.0941 2.8490
-15.0928 3.8874 2.8490
-14.8969 3.6865 2.8490
-14.7050 3.4911 2.8490
-14.5167 3.3009 2.8490
-14.3320 3.1160 2.8490
-14.1508 2.9359 2.8490
-13.9729 2.7607 2.8490
-13.7983 2.5900 2.8490
-13.6269 2.4237 2.8490
-13.4585 2.2617 2.8490
16.3123 42.0830 1.0797
16.9413 44.9775 1.1010
1.9979 37.5096 0.1617
1.6389 37.5664 0.1567
1.2749 37.4981 0.1523
-1.4977 20.8344 0.0971
-1.7015 20.8627 0.1018
-1.9060 20.8907 0.1072
-2.1115 20.9186 0.1131
-2.3115 20.8888 0.1194
-2.5026 20.7873 0.1258
-2.6877 20.6508 0.1324
-11.0535 48.1981 0.5624
-11.2874 47.1381 0.5827
-11.5127 46.1212 0.6035
-11.7290 45.1411 0.6249
-11.9373 44.1973 0.6467
-12.1381 43.2879 0.6689
-12.3317 42.4106 0.6916
-12.4637 41.3816 0.7116
-12.6937 40.7282 0.7380
-12.8682 39.9375 0.7619
-4.2178 12.6734 0.2543
-13.2005 38.4319 0.8108
-13.3589 37.7142 0.8357
-13.5124 37.0185 0.8610
-13.6073 36.1996 0.8832
-13.8085 35.6946 0.9128
-13.9490 35.0579 0.9391
-14.0855 34.4392 0.9656
-14.2183 33.8374 0.9925
-14.3476 33.2519 1.0196
-14.4734 32.6818 1.0470
-14.5959 32.1265 1.0747
-14.7154 31.5853 1.1027
-14.7664 30.9207 1.1259
-14.9387 30.5290 1.1589
-15.0495 30.0267 1.1876
-15.1578 29.5363 1.2166
-15.2635 29.0571 1.2458
-15.3668 28.5888 1.2753
-15.4679 28.1309 1.3050
-15.5667 27.6830 1.3350
-15.6635 27.2447 1.3652
-15.7582 26.8155 1.3956
-15.8509 26.3952 1.4263
-15.8787 25.8806 1.4514
-16.0357 25.5874 1.4888
-16.1230 25.1914 1.5202
-16.2087 24.8031 1.5518
-16.2928 24.4220 1.5837
-16.3754 24.0479 1.6158
-16.4564 23.6806 1.6481
-16.5361 23.3197 1.6806
-16.6143 22.9651 1.7134
-16.6912 22.6166 1.7464
-16.7668 22.2739 1.7797
-16.8412 21.9368 1.8132
-16.9144 21.6051 1.8469
-16.9864 21.2787 1.8809
-16.9875 20.8715 1.9072
-17.0594 20.5592 1.9418
-17.1935 20.3263 1.9839
-17.2613 20.0192 2.0188
-17.3281 19.7164 2.0540
-17.3940 19.4179 2.0894
-17.4589 19.1235 2.1251
-17.5230 18.8331 2.1610
-17.5863 18.5465 2.1971
-17.6487 18.2636 2.2336
-17.7103 17.9844 2.2702
-17.7711 17.7086 2.3071
-17.8312 17.4361 2.3443
-17.8906 17.1669 2.3818
-17.9493 16.9008 2.4195
-18.0074 16.6378 2.4575
-18.0647 16.3778 2.4958
-18.1215 16.1205 2.5343
-18.1024 15.8003 2.5625
-18.1577 15.5496 2.6014
-18.5988 15.6260 2.6967
-18.3787 15.1480 2.6966
-18.1629 14.6851 2.6966
-17.9510 14.2362 2.6966
-17.7427 13.8009 2.6966
-17.5380 13.3786 2.6966
-17.3368 12.9687 2.6966
-5.9227 4.3442 0.9319
-5.8911 4.2362 0.9375
-6.0059 4.2336 0.9667
-17.0869 11.8057 2.7816
-17.1258 11.5960 2.8194
-17.1134 11.3543 2.8490
-16.9241 11.0008 2.8490
-16.7378 10.6571 2.8490
-16.5543 10.3228 2.8490
-16.3737 9.9975 2.8490
-16.1959 9.6810 2.8490
-16.0208 9.3729 2.8490
-15.8483 9.0730 2.8490
-15.6783 8.7810 2.8490
-15.5109 8.4966 2.8490
-15.3459 8.2195 2.8490
-15.1832 7.9495 2.8490
-15.0230 7.6864 2.8490
-14.8649 7.4300 2.8490
-14.7091 7.1799 2.8490
-14.5555 6.9361 2.8490
-14.4039 6.6983 2.8490
-14.2544 6.4663 2.8490
-14.1070 6.2400 2.8490
-13.9615 6.0192 2.8490
-13.8179 5.8036 2.8490
-13.6762 5.5932 2.8490
-13.5364 5.3877 2.8490
-13.3983 5.1871 2.8490
-13.2620 4.9912 2.8490
-13.1274 4.7998 2.8490
-12.9945 4.6127 2.8490
-12.8633 4.4300 2.8490
-12.7336 4.2514 2.8490
-12.6056 4.0769 2.8490
-12.4790 3.9062 2.8490
-12.3540 3.7394 2.8490
-12.2305 3.5763 2.8490
-12.1083 3.4167 2.8490
-11.9876 3.2606 2.8490
-11.8683 3.1080 2.8490
-11.7504 2.9586 2.8490
-11.6337 2.8124 2.8490
-11.5184 2.6694 2.8490
-11.4043 2.5293 2.8490
-11.2915 2.3922 2.8490
-11.1799 2.2581 2.8490
-11.0695 2.1267 2.8490
-10.9603 1.9980 2.8490
13.6837 35.8302 2.6966
13.5386 36.4798 2.6966
13.5950 37.7197 2.7394
13.9633 39.9195 2.8490
13.7757 40.6099 2.8490
13.5761 41.3002 2.8490
13.3643 41.9892 2.8490
13.1401 42.6761 2.8490
12.9032 43.3601 2.8490
12.6535 44.0400 2.8490
12.3909 44.7146 2.8490
12.1151 45.3830 2.8490
11.8261 46.0439 2.8490
11.5238 46.6962 2.8490
11.2082 47.3385 2.8490
10.8793 47.9697 2.8490
10.5370 48.5884 2.8490
1.2593 37.5555 1.9029
-2.2815 20.9079 1.0988
-9.0480 48.4871 2.7411
-9.3035 47.3641 2.7084
-9.6131 46.5998 2.6966
-9.9501 46.0298 2.6966
-10.2749 45.4452 2.6966
-10.5872 44.8487 2.6966
-10.8868 44.2414 2.6966
-11.1738 43.6246 2.6966
-11.4482 42.9996 2.6966
-11.7101 42.3674 2.6966
-11.9596 41.7292 2.6966
-12.1968 41.0859 2.6966
-12.4218 40.4389 2.6966
-12.6349 39.7888 2.6966
-12.8362 39.1367 2.6966
-13.0259 38.4835 2.6966
-13.2043 37.8301 2.6966
-13.3715 37.1771 2.6966
-13.5280 36.5254 2.6966
-13.6738 35.8758 2.6966
-13.8094 35.2288 2.6966
-13.9350 34.5852 2.6966
-14.0508 33.9453 2.6966
-14.1572 33.3099 2.6966
-14.2545 32.6793 2.6966
-14.3430 32.0540 2.6966
-14.4229 31.4346 2.6966
-14.4946 30.8213 2.6966
-14.5583 30.2144 2.6966
-14.6145 29.6143 2.6966
-14.6632 29.0212 2.6966
-14.7049 28.4355 2.6966
-14.7398 27.8572 2.6966
-14.7681 27.2866 2.6966
-14.7903 26.7239 2.6966
-14.8065 26.1691 2.6966
-14.8169 25.6225 2.6966
-14.8219 25.0840 2.6966
-14.8217 24.5539 2.6966
-14.8164 24.0319 2.6966
-14.8065 23.5184 2.6966
-14.7921 23.0130 2.6966
-14.7732 22.5164 2.6966
-14.8313 22.1489 2.7114
-14.9023 21.8096 2.7294
-14.9720 21.4760 2.7478
-15.0403 21.1485 2.7667
-15.1072 20.8263 2.7861
-15.1730 20.5094 2.8060
-15.2374 20.1981 2.8263
-15.3008 19.8913 2.8471
-15.2593 19.4574 2.8490
-15.2049 19.0186 2.8490
-15.1482 18.5880 2.8490
-15.0890 18.1654 2.8490
-15.0276 17.7508 2.8490
-14.9642 17.3441 2.8490
-14.8988 16.9451 2.8490
-14.8316 16.5538 2.8490
-14.7626 16.1699 2.8490
-14.6921 15.7934 2.8490
-14.6200 15.4243 2.8490
-14.5466 15.0623 2.8490
-14.4718 14.7073 2.8490
-14.3959 14.3592 2.8490
-14.3188 14.0178 2.8490
-14.2407 13.6832 2.8490
-14.1616 13.3551 2.8490
-14.0816 13.0333 2.8490
-14.0009 12.7179 2.8490
-13.9194 12.4087 2.8490
-13.8372 12.1055 2.8490
-13.7544 11.8082 2.8490
-13.6710 11.5168 2.8490
-13.5872 11.2310 2.8490
-13.5029 10.9508 2.8490
-13.4182 10.6761 2.8490
-13.3332 10.4068 2.8490
-13.2478 10.1427 2.8490
-13.1623 9.8837 2.8490
-5.9131 4.3546 1.2883
-5.8823 4.2478 1.2901
-5.9354 4.2025 1.3104
-6.0984 4.2330 1.3555
-12.7317 8.6625 2.8490
-12.6454 8.4322 2.8490
-12.5590 8.2064 2.8490
-12.4726 7.9849 2.8490
-12.3863 7.7676 2.8490
-12.3000 7.5545 2.8490
-12.2138 7.3455 2.8490
-12.1277 7.1405 2.8490
-12.0418 6.9393 2.8490
-11.9559 6.7420 2.8490
-11.8703 6.5484 2.8490
-11.7848 6.3584 2.8490
-11.6995 6.1720 2.8490
-11.6145 5.9892 2.8490
-11.5296 5.8097 2.8490
-11.4450 5.6336 2.8490
-11.3607 5.4608 2.8490
-11.2766 5.2912 2.8490
-11.1928 5.1247 2.8490
-11.1092 4.9613 2.8490
-11.0259 4.8009 2.8490
-10.9430 4.6434 2.8490
-10.8603 4.4888 2.8490
-10.7780 4.3371 2.8490
-10.6960 4.1882 2.8490
-10.6143 4.0419 2.8490
-10.5329 3.8982 2.8490
-10.4519 3.7572 2.8490
-10.3712 3.6187 2.8490
-10.2909 3.4827 2.8490
-10.2109 3.3491 2.8490
-10.1312 3.2179 2.8490
-10.0519 3.0890 2.8490
-9.9730 2.9625 2.8490
-9.8944 2.8381 2.8490
-9.8162 2.7160 2.8490
-9.7383 2.5960 2.8490
-9.6608 2.4781 2.8490
-9.5837 2.3622 2.8490
-9.5070 2.2484 2.8490
-9.4306 2.1366 2.8490
-9.3545 2.0267 2.8490
-9.2789 1.9187 2.8490
-9.2036 1.8125 2.8490
8.5737 22.7922 2.8490
8.4332 23.0685 2.8490
8.2877 23.3424 2.8490
8.1371 23.6138 2.8490
7.9813 23.8822 2.8490
7.8205 24.1475 2.8490
7.6546 24.4093 2.8490
7.4837 24.6674 2.8490
7.3077 24.9214 2.8490
7.1266 25.1711 2.8490
6.9406 25.4162 2.8490
6.7496 25.6564 2.8490
6.5538 25.8914 2.8490
6.3531 26.1209 2.8490
6.1476 26.3445 2.8490
5.9375 26.5621 2.8490
5.7228 26.7733 2.8490
5.5036 26.9778 2.8490
5.2801 27.1752 2.8490
5.0523 27.3655 2.8490
4.8205 27.5481 2.8490
4.5846 27.7230 2.8490
4.3449 27.8898 2.8490
4.1016 28.0482 2.8490
3.8548 28.1981 2.8490
3.6046 28.3391 2.8490
3.3514 28.4711 2.8490
3.0952 28.5938 2.8490
2.8363 28.7072 2.8490
2.5749 28.8108 2.8490
2.3112 28.9046 2.8490
2.0454 28.9885 2.8490
1.7777 29.0622 2.8490
1.5085 29.1257 2.8490
1.2378 29.1788 2.8490
0.9574 28.9572 2.8233
0.6562 27.6834 2.6961
0.3977 27.7093 2.6966
0.1387 27.7197 2.6966
-0.1205 27.7200 2.6966
-0.3795 27.7104 2.6966
-0.6382 27.6906 2.6966
-0.8963 27.6609 2.6966
-1.1536 27.6211 2.6966
-1.4098 27.5715 2.6966
-1.6648 27.5121 2.6966
-1.9182 27.4430 2.6966
-2.1699 27.3643 2.6966
-2.4197 27.2762 2.6966
-2.6673 27.1788 2.6966
-2.2403 20.8240 2.0743
-2.4418 20.8621 2.0870
-3.5870 28.3487 2.8490
-3.8373 28.2083 2.8490
-4.0844 28.0590 2.8490
-4.3279 27.9012 2.8490
-4.5679 27.7350 2.8490
-4.8040 27.5606 2.8490
-5.0362 27.3785 2.8490
-5.2642 27.1888 2.8490
-5.4881 26.9918 2.8490
-5.7075 26.7879 2.8490
-5.9226 26.5772 2.8490
-6.1330 26.3600 2.8490
-6.3388 26.1368 2.8490
-6.5398 25.9077 2.8490
-6.7360 25.6731 2.8490
-6.9273 25.4333 2.8490
-7.1137 25.1885 2.8490
-7.2951 24.9391 2.8490
-7.4715 24.6853 2.8490
-7.6428 24.4276 2.8490
-7.8090 24.1659 2.8490
-4.2249 12.6697 1.5102
-8.1263 23.6327 2.8490
-8.2773 23.3616 2.8490
-8.4232 23.0878 2.8490
-8.5640 22.8117 2.8490
-8.6999 22.5335 2.8490
-8.8307 22.2533 2.8490
-8.9566 21.9716 2.8490
-9.0775 21.6885 2.8490
-9.1936 21.4043 2.8490
-9.3048 21.1192 2.8490
-9.4113 20.8334 2.8490
-9.5131 20.5471 2.8490
-9.6102 20.2605 2.8490
-9.7027 19.9739 2.8490
-9.7908 19.6873 2.8490
-9.8744 19.4010 2.8490
-9.9537 19.1152 2.8490
-10.0286 18.8300 2.8490
-10.0994 18.5456 2.8490
-10.1661 18.2621 2.8490
-10.2287 17.9797 2.8490
-10.2874 17.6984 2.8490
-10.3422 17.4186 2.8490
-10.3932 17.1401 2.8490
-10.4406 16.8633 2.8490
-10.4843 16.5881 2.8490
-10.5245 16.3146 2.8490
-10.5613 16.0431 2.8490
-10.5947 15.7735 2.8490
-10.6249 15.5059 2.8490
-10.6519 15.2404 2.8490
-10.6759 14.9771 2.8490
-10.6968 14.7160 2.8490
-10.7148 14.4573 2.8490
-10.7300 14.2008 2.8490
-10.7424 13.9469 2.8490
-10.7522 13.6952 2.8490
-10.7594 13.4462 2.8490
-10.7640 13.1996 2.8490
-10.7662 12.9556 2.8490
-10.7661 12.7142 2.8490
-10.7637 12.4754 2.8490
-10.7590 12.2392 2.8490
-10.7522 12.0057 2.8490
-10.7434 11.7748 2.8490
-10.7326 11.5466 2.8490
-10.7198 11.3211 2.8490
-10.7052 11.0982 2.8490
-10.6887 10.8780 2.8490
-10.6706 10.6605 2.8490
-10.6507 10.4458 2.8490
-10.6293 10.2336 2.8490
-10.6062 10.0242 2.8490
-10.5817 9.8174 2.8490
-10.5557 9.6133 2.8490
-10.5284 9.4118 2.8490
-10.4997 9.2130 2.8490
-10.4697 9.0168 2.8490
-10.4385 8.8232 2.8490
-10.4061 8.6322 2.8490
-10.3726 8.4437 2.8490
-10.3379 8.2578 2.8490
-10.3022 8.0744 2.8490
-10.2655 7.8936 2.8490
-10.2278 7.7152 2.8490
-5.9215 4.3815 1.6557
-5.8901 4.2746 1.6533
-5.8601 4.1706 1.6515
-5.9965 4.1847 1.6968
-10.0263 6.8599 2.8490
-9.9837 6.6960 2.8490
-9.9403 6.5344 2.8490
-9.8962 6.3751 2.8490
-9.8515 6.2181 2.8490
-9.8062 6.0633 2.8490
-9.7603 5.9107 2.8490
-9.7138 5.7603 2.8490
-9.6668 5.6121 2.8490
-9.6193 5.4660 2.8490
-9.5713 5.3221 2.8490
-9.5229 5.1802 2.8490
-9.4740 5.0404 2.8490
-9.4247 4.9026 2.8490
-9.3751 4.7668 2.8490
-9.3250 4.6330 2.8490
-9.2747 4.5011 2.8490
-9.2240 4.3712 2.8490
-9.1729 4.2431 2.8490
-9.1216 4.1169 2.8490
-9.0701 3.9926 2.8490
-9.0183 3.8701 2.8490
-8.9662 3.7494 2.8490
-8.9139 3.6305 2.8490
-8.8614 3.5133 2.8490
-8.8088 3.3978 2.8490
-8.0354 2.5931 2.6966
-8.7559 3.2841 2.8490
-7.9846 2.4945 2.6966
-8.2374 3.0022 2.6966
-7.9337 2.3974 2.6966
-8.1871 2.8976 2.6966
-8.1366 2.7946 2.6966
-7.8828 2.3017 2.6966
-8.0860 2.6931 2.6966
-7.8318 2.2074 2.6966
-7.7808 2.1145 2.6966
-7.7296 2.0229 2.6966
-7.6785 1.9327 2.6966
-7.6273 1.8438 2.6966
-7.5761 1.7563 2.6966
-7.5249 1.6699 2.6966
-7.4736 1.5849 2.6966
6.0270 16.2717 2.8490
5.9132 16.4265 2.8490
5.7967 16.5793 2.8490
5.6773 16.7298 2.8490
5.5551 16.8779 2.8490
5.4301 17.0237 2.8490
5.3024 17.1668 2.8490
5.1719 17.3072 2.8490
5.0388 17.4448 2.8490
4.9029 17.5795 2.8490
4.7645 17.7111 2.8490
4.6235 17.8394 2.8490
4.4799 17.9645 2.8490
4.3339 18.0861 2.8490
4.1854 18.2042 2.8490
4.0346 18.3186 2.8490
3.8814 18.4292 2.8490
3.7261 18.5359 2.8490
3.5685 18.6387 2.8490
3.4088 18.7372 2.8490
3.2472 18.8316 2.8490
3.0836 18.9217 2.8490
2.9181 19.0073 2.8490
2.7509 19.0884 2.8490
2.5820 19.1650 2.8490
2.4115 19.2368 2.8490
2.2395 19.3039 2.8490
2.0661 19.3661 2.8490
1.8914 19.4234 2.8490
1.7155 19.4757 2.8490
1.5386 19.5231 2.8490
1.3606 19.5652 2.8490
1.1818 19.6023 2.8490
1.0023 19.6342 2.8490
0.8221 19.6609 2.8490
0.6414 19.6822 2.8490
0.4602 19.6984 2.8490
0.2788 19.7092 2.8490
0.0972 19.7147 2.8490
-0.0845 19.7149 2.8490
-0.2661 19.7097 2.8490
-0.4475 19.6993 2.8490
-0.6286 19.6838 2.8490
-0.8094 19.6625 2.8490
-0.9896 19.6363 2.8490
-1.1537 19.3434 2.8110
-1.2930 18.7689 2.7327
-1.4445 18.4817 2.6966
-1.6120 18.4373 2.6966
-1.7785 18.3880 2.6966
-1.9440 18.3341 2.6966
-2.1082 18.2756 2.6966
-2.2711 18.2124 2.6966
-2.4325 18.1447 2.6966
-2.5925 18.0726 2.6966
-2.7509 17.9961 2.6966
-2.9077 17.9153 2.6966
-3.0627 17.8304 2.6966
-3.2158 17.7414 2.6966
-3.3671 17.6483 2.6966
-3.5163 17.5514 2.6966
-3.6635 17.4507 2.6966
-3.8086 17.3462 2.6966
-3.9515 17.2381 2.6966
-4.0922 17.1266 2.6966
-4.2306 17.0117 2.6966
-4.3667 16.8936 2.6966
-4.5003 16.7723 2.6966
-4.6315 16.6479 2.6966
-4.7603 16.5207 2.6966
-4.8865 16.3906 2.6966
-5.0102 16.2579 2.6966
-5.1312 16.1226 2.6966
-4.1834 12.7380 2.1489
-4.2980 12.6921 2.1601
-5.4788 15.7025 2.6966
-5.9052 16.4373 2.8490
-6.0191 16.2827 2.8490
-6.1302 16.1261 2.8490
-6.2384 15.9676 2.8490
-6.3437 15.8073 2.8490
-6.4462 15.6455 2.8490
-6.5459 15.4822 2.8490
-6.6426 15.3174 2.8490
-6.7365 15.1514 2.8490
-6.8276 14.9842 2.8490
-6.9159 14.8160 2.8490
-7.0013 14.6468 2.8490
-7.0839 14.4767 2.8490
-7.1637 14.3059 2.8490
-7.2408 14.1345 2.8490
-7.3151 13.9625 2.8490
-7.3866 13.7900 2.8490
-7.4555 13.6172 2.8490
-7.5218 13.4441 2.8490
-7.5853 13.2707 2.8490
-7.6463 13.0973 2.8490
-7.7047 12.9238 2.8490
-7.7605 12.7504 2.8490
-7.8139 12.5771 2.8490
-7.8647 12.4040 2.8490
-7.9131 12.2312 2.8490
-7.9591 12.0587 2.8490
-8.0027 11.8866 2.8490
-8.0440 11.7149 2.8490
-8.0830 11.5438 2.8490
-8.1198 11.3733 2.8490
-8.1543 11.2034 2.8490
-8.1867 11.0341 2.8490
-8.2169 10.8656 2.8490
-8.2450 10.6979 2.8490
-8.2711 10.5310 2.8490
-8.2951 10.3650 2.8490
-8.3172 10.1999 2.8490
-8.3374 10.0357 2.8490
-8.3556 9.8725 2.8490
-8.3720 9.7104 2.8490
-8.3866 9.5493 2.8490
-8.3994 9.3892 2.8490
-8.4104 9.2303 2.8490
-8.4198 9.0725 2.8490
-8.4276 8.9159 2.8490
-8.4337 8.7604 2.8490
-8.4382 8.6062 2.8490
-8.4412 8.4532 2.8490
-8.4426 8.3014 2.8490
-8.4426 8.1509 2.8490
-8.4412 8.0016 2.8490
-8.4384 7.8537 2.8490
-8.4342 7.7070 2.8490
-8.4287 7.5617 2.8490
-8.4219 7.4177 2.8490
-8.4139 7.2750 2.8490
-8.4046 7.1336 2.8490
-8.3942 6.9936 2.8490
-8.3826 6.8549 2.8490
-8.3698 6.7176 2.8490
-8.3560 6.5817 2.8490
-8.3411 6.4471 2.8490
-8.3252 6.3139 2.8490
-5.9314 4.4135 2.0340
-5.8999 4.3067 2.0275
-5.8693 4.2025 2.0216
-5.8950 4.1397 2.0353
-7.6571 4.6738 2.6966
-6.0473 4.1644 2.0931
-7.6323 4.5630 2.6966
-7.7704 5.2466 2.6966
-7.6069 4.4535 2.6966
-7.7492 5.1295 2.6966
-7.5808 4.3452 2.6966
-7.7273 5.0136 2.6966
-7.5541 4.2381 2.6966
-7.7046 4.8991 2.6966
-7.5269 4.1323 2.6966
-7.6812 4.7858 2.6966
-7.4990 4.0277 2.6966
-7.3208 3.4252 2.6966
-7.4706 3.9243 2.6966
-7.2895 3.3289 2.6966
-7.4417 3.8221 2.6966
-7.2576 3.2337 2.6966
-7.4122 3.7211 2.6966
-7.2254 3.1397 2.6966
-7.3822 3.6213 2.6966
-7.1928 3.0469 2.6966
-7.3517 3.5227 2.6966
-7.1597 2.9551 2.6966
-7.1263 2.8644 2.6966
-6.9187 2.3433 2.6966
-7.0926 2.7749 2.6966
-6.8830 2.2601 2.6966
-7.0584 2.6864 2.6966
-6.8471 2.1780 2.6966
-7.0240 2.5990 2.6966
-6.8109 2.0969 2.6966
-6.9892 2.5127 2.6966
-6.7744 2.0168 2.6966
-6.9541 2.4275 2.6966
-6.7377 1.9377 2.6966
-6.7007 1.8596 2.6966
-6.6636 1.7825 2.6966
-6.6262 1.7063 2.6966
-6.5886 1.6311 2.6966
-6.5508 1.5568 2.6966
-6.5128 1.4835 2.6966
4.6007 12.6200 2.8490
4.5075 12.7213 2.8490
4.4125 12.8211 2.8490
4.3157 12.9191 2.8490
4.2171 13.0153 2.8490
4.1168 13.1097 2.8490
4.0147 13.2022 2.8490
3.9110 13.2927 2.8490
3.8056 13.3811 2.8490
3.6985 13.4674 2.8490
3.5898 13.5516 2.8490
3.4795 13.6335 2.8490
3.3677 13.7131 2.8490
3.2543 13.7905 2.8490
3.1395 13.8653 2.8490
3.0233 13.9377 2.8490
2.9056 14.0075 2.8490
2.7867 14.0748 2.8490
2.6664 14.1394 2.8490
2.5448 14.2013 2.8490
2.4221 14.2604 2.8490
2.2982 14.3168 2.8490
2.1732 14.3702 2.8490
2.0472 14.4209 2.8490
1.9202 14.4685 2.8490
1.7923 14.5132 2.8490
1.6634 14.5549 2.8490
1.5338 14.5935 2.8490
1.4034 14.6290 2.8490
1.2723 14.6614 2.8490
1.1406 14.6907 2.8490
1.0083 14.7168 2.8490
0.8755 14.7397 2.8490
0.7423 14.7594 2.8490
0.6087 14.7759 2.8490
0.4748 14.7891 2.8490
0.3407 14.7990 2.8490
0.2064 14.8056 2.8490
0.0719 14.8091 2.8490
-0.0625 14.8092 2.8490
-0.1969 14.8060 2.8490
-0.3312 14.7995 2.8490
-0.4654 14.7899 2.8490
-0.5993 14.7769 2.8490
-0.7329 14.7606 2.8490
-0.8662 14.7412 2.8490
-0.9990 14.7185 2.8490
-1.1313 14.6926 2.8490
-1.2631 14.6636 2.8490
-1.3942 14.6314 2.8490
-1.5247 14.5961 2.8490
-1.6544 14.5577 2.8490
-1.7832 14.5162 2.8490
-1.9112 14.4718 2.8490
-2.0383 14.4243 2.8490
-2.1644 14.3739 2.8490
-2.2738 14.2226 2.8295
-2.3525 13.9045 2.7771
-2.4280 13.5991 2.7274
-2.5157 13.3872 2.6966
-2.6296 13.3262 2.6966
-2.7423 13.2628 2.6966
-2.8538 13.1968 2.6966
-2.9639 13.1285 2.6966
-3.0726 13.0578 2.6966
-3.1800 12.9848 2.6966
-3.2860 12.9096 2.6966
-3.3905 12.8322 2.6966
-3.4934 12.7527 2.6966
-3.5949 12.6711 2.6966
-3.6948 12.5875 2.6966
-3.7931 12.5020 2.6966
-3.8898 12.4146 2.6966
-3.9849 12.3254 2.6966
-4.0783 12.2344 2.6966
-4.1701 12.1418 2.6966
-4.2601 12.0475 2.6966
-4.3484 11.9516 2.6966
-4.4350 11.8543 2.6966
-4.5198 11.7555 2.6966
-4.6029 11.6554 2.6966
-4.6843 11.5539 2.6966
-4.7638 11.4512 2.6966
-4.8416 11.3473 2.6966
-4.9175 11.2422 2.6966
-4.9917 11.1362 2.6966
-5.0641 11.0291 2.6966
-5.1347 10.9210 2.6966
-5.2034 10.8121 2.6966
-5.2704 10.7023 2.6966
-5.3356 10.5918 2.6966
-5.3990 10.4806 2.6966
-5.4606 10.3687 2.6966
-5.5205 10.2561 2.6966
-5.5785 10.1431 2.6966
-5.6349 10.0295 2.6966
-5.6894 9.9156 2.6966
-5.7422 9.8012 2.6966
-5.7933 9.6864 2.6966
-5.8426 9.5714 2.6966
-5.9805 9.2251 2.6966
-5.8903 9.4562 2.6966
-6.0232 9.1094 2.6966
-5.9363 9.3407 2.6966
-6.0641 8.9935 2.6966
-6.2120 8.5304 2.6966
-6.1035 8.8777 2.6966
-6.1412 8.7619 2.6966
-6.2450 8.4149 2.6966
-6.1774 8.6461 2.6966
-6.2765 8.2995 2.6966
-6.3874 7.8403 2.6966
-6.3064 8.1843 2.6966
-6.4115 7.7262 2.6966
-6.3349 8.0694 2.6966
-6.4342 7.6125 2.6966
-6.3619 7.9547 2.6966
-6.4556 7.4992 2.6966
-6.5113 7.1617 2.6966
-6.4755 7.3862 2.6966
-6.5273 7.0501 2.6966
-6.4941 7.2737 2.6966
-6.5420 6.9391 2.6966
-6.5883 6.5003 2.6966
-6.5554 6.8286 2.6966
-6.5969 6.3921 2.6966
-6.5676 6.7186 2.6966
-6.6043 6.2845 2.6966
-6.5785 6.6092 2.6966
-6.6107 6.1775 2.6966
-6.6231 5.8606 2.6966
-6.6159 6.0712 2.6966
-6.6251 5.7563 2.6966
-6.6200 5.9655 2.6966
-6.6203 5.2455 2.6966
-6.6261 5.6527 2.6966
-5.8510 4.1387 2.3963
-6.6165 5.1456 2.6966
-6.6261 5.5498 2.6966
-5.9336 4.1169 2.4334
-6.6118 5.0464 2.6966
-6.0855 4.1408 2.4994
-6.6251 5.4476 2.6966
-5.9432 4.4514 2.4260
-6.2437 4.1660 2.5684
-6.6231 5.3462 2.6966
-5.9117 4.3447 2.4155
-6.5441 4.2810 2.6966
-6.5195 4.0976 2.6966
-5.8809 4.2405 2.4056
-6.5322 4.1890 2.6966
-6.5062 4.0072 2.6966
-6.4296 3.5668 2.6966
-6.3181 3.0651 2.6966
-6.4922 3.9175 2.6966
-6.4124 3.4812 2.6966
-6.2976 2.9843 2.6966
-6.4775 3.8286 2.6966
-6.3947 3.3964 2.6966
-6.2766 2.9042 2.6966
-6.3763 3.3123 2.6966
-6.4622 3.7405 2.6966
-6.2552 2.8250 2.6966
-6.3575 3.2291 2.6966
-6.4462 3.6533 2.6966
-6.2333 2.7466 2.6966
-6.3380 3.1467 2.6966
-6.1880 2.5921 2.6966
-6.2109 2.6689 2.6966
-6.0423 2.1473 2.6966
-6.1648 2.5160 2.6966
-6.0167 2.0759 2.6966
-6.1411 2.4407 2.6966
-5.9907 2.0052 2.6966
-6.1170 2.3662 2.6966
-5.9643 1.9352 2.6966
-6.0925 2.2925 2.6966
-5.9377 1.8660 2.6966
-6.0676 2.2195 2.6966
-5.9107 1.7976 2.6966
-5.8833 1.7298 2.6966
-5.8557 1.6629 2.6966
-5.8278 1.5966 2.6966
-5.7996 1.5311 2.6966
-5.7711 1.4663 2.6966
-5.7423 1.4021 2.6966
3.6854 10.2767 2.8490
3.6075 10.3493 2.8490
3.5284 10.4206 2.8490
3.4479 10.4905 2.8490
3.3663 10.5591 2.8490
3.2835 10.6262 2.8490
3.1994 10.6919 2.8490
3.1143 10.7560 2.8490
3.0279 10.8186 2.8490
2.9405 10.8796 2.8490
2.8519 10.9390 2.8490
2.7623 10.9967 2.8490
2.6716 11.0527 2.8490
2.5800 11.1071 2.8490
2.4873 11.1596 2.8490
2.3937 11.2103 2.8490
2.2991 11.2592 2.8490
2.2037 11.3062 2.8490
2.1074 11.3512 2.8490
2.0102 11.3944 2.8490
1.9123 11.4356 2.8490
1.8136 11.4748 2.8490
1.7141 11.5120 2.8490
1.6140 11.5472 2.8490
1.5132 11.5803 2.8490
1.4118 11.6112 2.8490
1.3099 11.6401 2.8490
1.2074 11.6669 2.8490
1.1044 11.6914 2.8490
1.0010 11.7138 2.8490
0.8971 11.7341 2.8490
0.7929 11.7521 2.8490
0.6883 11.7679 2.8490
0.5835 11.7815 2.8490
0.4784 11.7928 2.8490
0.3731 11.8020 2.8490
0.2677 11.8088 2.8490
0.1621 11.8134 2.8490
0.0565 11.8158 2.8490
-0.0491 11.8159 2.8490
-0.1547 11.8137 2.8490
-0.2603 11.8092 2.8490
-0.3657 11.8025 2.8490
-0.4710 11.7936 2.8490
-0.5761 11.7824 2.8490
-0.6810 11.7689 2.8490
-0.7855 11.7533 2.8490
-0.8898 11.7354 2.8490
-0.9937 11.7154 2.8490
-1.0971 11.6931 2.8490
-1.2002 11.6687 2.8490
-1.3027 11.6421 2.8490
-1.4047 11.6133 2.8490
-1.5061 11.5825 2.8490
-1.6069 11.5496 2.8490
-1.7071 11.5145 2.8490
-1.8066 11.4775 2.8490
-1.9054 11.4384 2.8490
-2.0033 11.3974 2.8490
-2.1006 11.3543 2.8490
-2.1969 11.3094 2.8490
-2.2924 11.2625 2.8490
-2.3871 11.2137 2.8490
-2.4807 11.1632 2.8490
-2.5735 11.1108 2.8490
-2.6652 11.0566 2.8490
-2.7560 11.0007 2.8490
-2.8457 10.9431 2.8490
-2.9343 10.8839 2.8490
-3.0190 10.8127 2.8463
-3.0674 10.6190 2.8116
-3.1143 10.4311 2.7783
-3.1597 10.2486 2.7466
-3.2038 10.0712 2.7162
-3.2581 9.9340 2.6966
-3.3343 9.8679 2.6966
-3.4093 9.8005 2.6966
-3.4832 9.7318 2.6966
-3.5558 9.6620 2.6966
-3.6272 9.5911 2.6966
-3.6974 9.5189 2.6966
-3.7663 9.4457 2.6966
-3.8340 9.3715 2.6966
-3.9004 9.2962 2.6966
-3.9656 9.2200 2.6966
-4.0294 9.1428 2.6966
-4.0920 9.0648 2.6966
-4.1533 8.9859 2.6966
-4.2133 8.9063 2.6966
-4.2721 8.8258 2.6966
-4.3295 8.7446 2.6966
-4.6466 8.2440 2.6966
-4.3856 8.6627 2.6966
-4.6949 8.1587 2.6966
-4.7419 8.0729 2.6966
-4.4404 8.5801 2.6966
-4.7876 7.9868 2.6966
-4.4939 8.4969 2.6966
-4.8320 7.9002 2.6966
-4.8752 7.8133 2.6966
-4.5461 8.4132 2.6966
-4.9170 7.7261 2.6966
-4.5970 8.3288 2.6966
-4.9576 7.6386 2.6966
-4.9970 7.5509 2.6966
-5.1419 7.1981 2.6966
-5.0351 7.4629 2.6966
-5.1750 7.1096 2.6966
-5.0719 7.3748 2.6966
-5.1075 7.2865 2.6966
-5.2070 7.0210 2.6966
-5.3230 6.6663 2.6966
-5.2378 6.9323 2.6966
-5.3490 6.5777 2.6966
-5.3740 6.4892 2.6966
-5.2673 6.8436 2.6966
-5.3978 6.4008 2.6966
-5.2957 6.7549 2.6966
-5.4205 6.3125 2.6966
-5.4421 6.2244 2.6966
-5.4626 6.1364 2.6966
-5.5635 5.6130 2.6966
-5.5768 5.5267 2.6966
-5.4820 6.0486 2.6966
-5.5891 5.4407 2.6966
-5.5004 5.9610 2.6966
-5.6004 5.3551 2.6966
-5.6107 5.2698 2.6966
-5.5177 5.8736 2.6966
-5.6202 5.1848 2.6966
-5.5340 5.7865 2.6966
-5.6287 5.1002 2.6966
-5.6363 5.0159 2.6966
-5.5493 5.6996 2.6966
-5.6430 4.9321 2.6966
-5.6612 4.6009 2.6966
-5.6488 4.8487 2.6966
-5.6538 4.7656 2.6966
-5.6636 4.5192 2.6966
-5.6640 4.1177 2.6966
-5.6579 4.6830 2.6966
-5.6653 4.4379 2.6966
-5.6403 3.6524 2.6966
-5.6618 4.0388 2.6966
-5.6339 3.5766 2.6966
-5.6661 4.3572 2.6966
-5.6589 3.9605 2.6966
-5.6269 3.5014 2.6966
-5.6193 3.4268 2.6966
-5.6662 4.2768 2.6966
-5.6553 3.8827 2.6966
-5.6110 3.3527 2.6966
-5.6510 3.8054 2.6966
-5.6655 4.1971 2.6966
-5.6022 3.2791 2.6966
-5.5241 2.7799 2.6966
-5.6459 3.7286 2.6966
-5.5927 3.2062 2.6966
-5.5108 2.7108 2.6966
-5.5827 3.1337 2.6966
-5.4369 2.3741 2.6966
-5.3334 1.9887 2.6966
-5.4970 2.6423 2.6966
-5.5720 3.0618 2.6966
-5.4207 2.3084 2.6966
-5.4827 2.5744 2.6966
-5.3147 1.9265 2.6966
-5.5609 2.9905 2.6966
-5.4679 2.5071 2.6966
-5.4041 2.2433 2.6966
-5.2957 1.8649 2.6966
-5.4526 2.4403 2.6966
-5.5491 2.9197 2.6966
-5.3870 2.1788 2.6966
-5.2762 1.8037 2.6966
-5.2157 1.6239 2.6966
-5.5369 2.8495 2.6966
-5.3696 2.1149 2.6966
-5.1949 1.5650 2.6966
-5.2564 1.7432 2.6966
-5.1737 1.5067 2.6966
-5.3517 2.0515 2.6966
-5.2362 1.6832 2.6966
-5.1522 1.4490 2.6966
-5.1303 1.3918 2.6966
-5.1215 1.3387 2.7037
