ply
format ascii 1.0
element vertex 2151
property float32 x
property float32 y
property float32 z
end_header
13.2252 -20.5739 1.6343
14.1561 -20.6655 1.5554
13.5349 -20.6104 1.6094
14.4677 -20.6848 1.5265
15.0957 -20.7111 1.4651
14.7804 -20.6992 1.4964
15.4104 -20.7159 1.4324
15.7312 -20.7228 1.3990
16.3724 -20.7179 1.3279
16.0490 -20.7198 1.3639
16.6996 -20.7147 1.2908
17.6961 -20.6875 1.1724
17.0262 -20.7049 1.2524
18.0334 -20.6724 1.1304
17.3593 -20.6970 1.2130
18.3775 -20.6590 1.0875
19.0875 -20.6375 0.9983
18.7287 -20.6474 1.0434
19.4511 -20.6264 0.9519
20.5671 -20.5794 0.8042
19.8151 -20.6091 0.9039
20.9559 -20.5671 0.7524
20.1869 -20.5934 0.8547
21.3470 -20.5498 0.6990
22.1466 -20.5108 0.5875
21.7421 -20.5295 0.6440
22.5607 -20.4936 0.5295
23.8360 -20.4260 0.3450
22.9823 -20.4756 0.4698
24.2789 -20.4034 0.2799
23.4040 -20.4501 0.4082
24.7314 -20.3808 0.2130
25.6464 -20.3193 0.0731
25.1831 -20.3495 0.1440
26.1220 -20.2904 0.0001
27.6091 -20.1976 -0.2324
26.6081 -20.2612 -0.0751
28.1308 -20.1677 -0.3146
26.9813 -20.1389 -0.1519
28.6677 -20.1390 -0.3995
29.0850 -19.6102 -0.5640
28.5250 -19.6330 -0.4755
29.6626 -19.5887 -0.6554
30.2587 -19.5687 -0.7500
30.8745 -19.5501 -0.8479
19.0261 -11.7939 -0.5733
8.2622 -5.0128 -0.2709
7.7999 -4.4312 -0.3173
8.0775 -4.7956 -0.2862
7.7569 -4.3092 -0.3359
7.9029 -4.5902 -0.3008
7.7148 -4.1899 -0.3541
7.6332 -3.9586 -0.3900
7.6736 -4.0730 -0.3722
7.5937 -3.8465 -0.4077
7.5694 -3.7438 -0.4259
7.5437 -3.5535 -0.4633
7.5565 -3.6481 -0.4446
7.5311 -3.4602 -0.4818
7.4942 -3.1868 -0.5371
7.5186 -3.3680 -0.5003
7.4821 -3.0977 -0.5553
7.5063 -3.2768 -0.5187
7.4731 -3.0108 -0.5738
7.4739 -2.8468 -0.6120
7.4735 -2.9285 -0.5929
7.4743 -2.7656 -0.6312
7.4756 -2.5255 -0.6887
7.4747 -2.6851 -0.6503
7.4760 -2.4465 -0.7079
7.4752 -2.6050 -0.6695
7.4764 -2.3680 -0.7271
7.4768 -2.2900 -0.7463
7.4828 -2.2140 -0.7662
7.5252 -1.9179 -0.8483
7.4934 -2.1397 -0.7866
7.5358 -1.8442 -0.8691
7.5041 -2.0656 -0.8071
7.5464 -1.7707 -0.8900
7.5147 -1.9916 -0.8277
7.5569 -1.6973 -0.9110
7.5674 -1.6240 -0.9321
7.5779 -1.5508 -0.9533
7.6041 -1.4807 -0.9767
7.6320 -1.4107 -1.0005
7.6600 -1.3404 -1.0245
0.6607 -16.9934 2.7235
0.8306 -16.9647 2.7179
1.0002 -16.9372 2.7123
1.1694 -16.9084 2.7063
1.3382 -16.8798 2.7001
1.5061 -16.8444 2.6926
1.6722 -16.7961 2.6828
1.8333 -16.7078 2.6664
1.9984 -16.6643 2.6570
2.1631 -16.6221 2.6475
2.3275 -16.5809 2.6381
2.4916 -16.5409 2.6285
2.6557 -16.5020 2.6190
2.8196 -16.4642 2.6094
2.9834 -16.4274 2.5998
3.1473 -16.3917 2.5901
3.3113 -16.3570 2.5803
3.4755 -16.3234 2.5706
3.6398 -16.2907 2.5607
3.8044 -16.2591 2.5508
3.9693 -16.2284 2.5408
4.1347 -16.1988 2.5308
4.3005 -16.1700 2.5207
4.6337 -16.1155 2.5002
4.4668 -16.1423 2.5105
4.8012 -16.0896 2.4898
5.3084 -16.0176 2.4582
5.4792 -15.9955 2.4474
4.9695 -16.0647 2.4794
5.6510 -15.9742 2.4366
5.1385 -16.0407 2.4688
5.8238 -15.9539 2.4256
5.9978 -15.9345 2.4145
6.6961 -15.8417 2.3652
6.1729 -15.9161 2.4033
6.8562 -15.7798 2.3465
6.3494 -15.8985 2.3920
7.0139 -15.7127 2.3268
6.5272 -15.8818 2.3805
7.1701 -15.6422 2.3063
7.3220 -15.5628 2.2843
8.0714 -15.5219 2.2340
7.4886 -15.5142 2.2666
8.2707 -15.5264 2.2228
7.6805 -15.5158 2.2559
8.4726 -15.5320 2.2113
7.8748 -15.5183 2.2451
8.6773 -15.5386 2.1996
8.8849 -15.5463 2.1877
9.7473 -15.5882 2.1376
9.0956 -15.5551 2.1756
9.9716 -15.6017 2.1244
9.3095 -15.5650 2.1632
10.1997 -15.6163 2.1110
9.5267 -15.5760 2.1505
10.4318 -15.6322 2.0972
10.6681 -15.6494 2.0831
11.6585 -15.7320 2.0235
10.9086 -15.6679 2.0687
11.9185 -15.7562 2.0076
11.1538 -15.6878 2.0540
12.1840 -15.7821 1.9914
11.4036 -15.7092 2.0389
12.4551 -15.8095 1.9748
12.7323 -15.8386 1.9577
13.8124 -15.8649 1.8720
13.0157 -15.8694 1.9402
14.1573 -15.9428 1.8572
13.3052 -15.9015 1.9221
14.4457 -15.9502 1.8334
13.5832 -15.9139 1.9010
14.7375 -15.9558 1.8087
15.0358 -15.9626 1.7833
16.2596 -15.9637 1.6710
15.3376 -15.9673 1.7569
16.5740 -15.9580 1.6402
15.6382 -15.9650 1.7290
16.8912 -15.9490 1.6082
15.9454 -15.9638 1.7004
17.2157 -15.9410 1.5754
17.5478 -15.9340 1.5418
18.9125 -15.8762 1.3944
17.8796 -15.9206 1.5065
19.2675 -15.8578 1.3545
18.2158 -15.9050 1.4701
18.5600 -15.8902 1.4327
19.6256 -15.8355 1.3132
19.9925 -15.8138 1.2708
20.2789 -15.7232 1.2218
21.2830 -15.2196 1.0073
20.7538 -15.7717 1.1824
21.6871 -15.1937 0.9580
21.1374 -15.7426 1.1356
22.1038 -15.1691 0.9073
21.5310 -15.7140 1.0876
22.5322 -15.1450 0.8551
22.9696 -15.1190 0.8011
8.2267 -4.9710 0.1877
23.4082 -15.0858 0.7451
23.8596 -15.0529 0.6873
8.0427 -4.7546 0.1597
7.8687 -4.5500 0.1331
17.0622 -10.5357 0.4402
7.7908 -4.4054 0.1090
7.7477 -4.2832 0.0859
7.5842 -3.8196 -0.0028
7.7055 -4.1635 0.0632
7.5661 -3.7198 -0.0242
7.6642 -4.0465 0.0409
7.5532 -3.6238 -0.0454
7.6238 -3.9319 0.0189
7.5404 -3.5290 -0.0664
7.5277 -3.4354 -0.0873
7.4787 -3.0720 -0.1695
7.5152 -3.3429 -0.1081
7.4732 -2.9864 -0.1899
7.5029 -3.2515 -0.1287
7.4736 -2.9038 -0.2104
7.4907 -3.1613 -0.1492
7.4740 -2.8218 -0.2308
7.4745 -2.7405 -0.2512
7.4761 -2.4205 -0.3323
7.4749 -2.6597 -0.2715
7.4765 -2.3418 -0.3525
7.4753 -2.5794 -0.2918
7.4769 -2.2636 -0.3728
7.4757 -2.4997 -0.3121
7.4864 -2.1885 -0.3934
7.4971 -2.1139 -0.4142
7.5396 -1.8176 -0.4978
7.5078 -2.0396 -0.4350
7.5502 -1.7439 -0.5189
7.5184 -1.9654 -0.4559
7.5608 -1.6703 -0.5400
7.5290 -1.8914 -0.4768
7.5713 -1.5968 -0.5612
7.5867 -1.5244 -0.5829
7.6146 -1.4543 -0.6056
7.6426 -1.3840 -0.6286
7.6708 -1.3134 -0.6517
7.6990 -1.2425 -0.6750
0.2300 -5.8375 1.2167
0.2892 -5.8278 1.2145
0.3483 -5.8184 1.2123
0.4072 -5.8092 1.2100
0.4661 -5.8003 1.2078
0.5249 -5.7917 1.2056
0.5836 -5.7833 1.2034
0.6423 -5.7751 1.2012
0.7010 -5.7672 1.1990
0.7597 -5.7595 1.1968
0.8185 -5.7521 1.1946
0.8772 -5.7449 1.1924
2.1668 -13.2820 2.7549
2.3036 -13.2688 2.7503
2.4406 -13.2558 2.7456
2.5779 -13.2433 2.7409
2.7156 -13.2312 2.7361
2.8536 -13.2195 2.7314
2.9921 -13.2082 2.7265
3.1310 -13.1974 2.7217
3.2704 -13.1870 2.7168
3.4104 -13.1770 2.7119
3.5476 -13.1547 2.7043
3.6842 -13.1296 2.6960
3.8212 -13.1049 2.6877
3.9585 -13.0806 2.6794
4.0962 -13.0566 2.6709
4.2344 -13.0330 2.6625
4.3731 -13.0098 2.6540
4.5123 -12.9870 2.6454
4.6521 -12.9645 2.6368
4.7926 -12.9424 2.6282
4.9337 -12.9206 2.6194
5.0755 -12.8992 2.6106
5.2181 -12.8781 2.6018
5.3615 -12.8573 2.5928
5.5058 -12.8369 2.5838
5.6509 -12.8168 2.5748
5.7971 -12.7971 2.5656
5.9342 -12.7561 2.5520
6.0649 -12.7009 2.5355
6.1919 -12.6381 2.5174
6.3441 -12.6254 2.5090
6.4989 -12.6156 2.5011
6.6552 -12.6061 2.4931
6.8130 -12.5969 2.4850
6.9725 -12.5881 2.4767
7.1337 -12.5797 2.4684
7.2967 -12.5716 2.4599
7.4615 -12.5638 2.4513
7.6283 -12.5563 2.4426
7.7970 -12.5493 2.4338
7.9679 -12.5426 2.4248
8.1409 -12.5362 2.4156
8.3162 -12.5302 2.4064
8.4627 -12.4788 2.3881
8.6421 -12.4735 2.3786
8.8565 -12.5145 2.3776
9.0418 -12.5100 2.3676
9.2299 -12.5059 2.3575
9.4208 -12.5023 2.3473
9.6147 -12.4990 2.3368
9.8118 -12.4961 2.3261
10.0121 -12.4937 2.3152
10.2158 -12.4916 2.3041
10.4229 -12.4901 2.2928
10.6338 -12.4889 2.2813
10.8485 -12.4883 2.2695
11.0672 -12.4881 2.2575
11.2900 -12.4884 2.2452
11.5172 -12.4892 2.2326
11.7489 -12.4904 2.2198
11.9853 -12.4923 2.2067
12.2266 -12.4947 2.1932
12.4731 -12.4976 2.1795
12.7249 -12.5010 2.1654
12.9824 -12.5051 2.1510
13.2458 -12.5098 2.1362
14.0325 -12.4910 2.0833
13.5105 -12.5108 2.1203
14.3022 -12.4816 2.0642
13.7687 -12.5007 2.1020
14.5780 -12.4724 2.0446
15.1295 -12.4391 2.0012
14.8518 -12.4567 2.0233
15.4135 -12.4217 1.9786
16.2886 -12.3566 1.9052
15.7042 -12.4044 1.9555
15.9771 -11.8763 1.8096
15.9989 -12.3851 1.9314
16.2789 -11.8556 1.7842
16.8910 -11.8042 1.7298
16.5821 -11.8306 1.7574
17.2078 -11.7777 1.7014
18.2075 -11.6963 1.6113
17.5328 -11.7511 1.6723
17.8664 -11.7243 1.6423
18.5483 -11.6621 1.5787
8.0103 -4.7166 0.6019
15.4637 -9.5143 1.2643
7.8369 -4.5126 0.5633
8.1938 -4.9323 0.6427
7.7823 -4.3813 0.5342
7.6968 -4.1388 0.4791
7.7390 -4.2587 0.5064
7.6554 -4.0215 0.4524
7.5631 -3.6971 0.3764
7.6149 -3.9067 0.4261
7.5501 -3.6008 0.3526
7.5763 -3.7947 0.4004
7.5372 -3.5057 0.3290
7.5120 -3.3191 0.2825
7.5245 -3.4118 0.3057
7.4997 -3.2275 0.2596
7.4733 -2.9631 0.1924
7.4874 -3.1370 0.2369
7.4737 -2.8802 0.1705
7.4754 -3.0475 0.2144
7.4742 -2.7980 0.1487
7.4750 -2.6354 0.1054
7.4746 -2.7164 0.1270
7.4754 -2.5549 0.0839
7.4767 -2.3168 0.0198
7.4758 -2.4750 0.0625
7.4792 -2.2390 -0.0014
7.4762 -2.3957 0.0411
7.4899 -2.1640 -0.0226
7.5114 -2.0147 -0.0651
7.5007 -2.0892 -0.0439
7.5220 -1.9403 -0.0863
7.5539 -1.7181 -0.1502
7.5327 -1.8661 -0.1076
7.5645 -1.6443 -0.1715
7.5433 -1.7920 -0.1289
7.5750 -1.5707 -0.1929
7.5967 -1.4993 -0.2146
7.6247 -1.4289 -0.2366
7.6529 -1.3583 -0.2588
7.6811 -1.2875 -0.2811
7.7094 -1.2163 -0.3036
7.7379 -1.1448 -0.3262
0.1883 -4.7152 1.2144
0.2369 -4.7084 1.2125
0.2853 -4.7017 1.2107
0.3336 -4.6950 1.2089
0.3819 -4.6885 1.2071
0.4301 -4.6820 1.2053
0.4783 -4.6756 1.2035
0.5265 -4.6693 1.2016
0.5746 -4.6630 1.1998
0.6227 -4.6568 1.1980
0.6709 -4.6507 1.1962
0.7190 -4.6446 1.1944
0.7672 -4.6387 1.1926
1.9290 -10.9596 2.8170
2.0435 -10.9472 2.8131
2.1586 -10.9371 2.8097
2.2737 -10.9261 2.8061
2.3888 -10.9139 2.8021
2.5042 -10.9022 2.7982
2.6199 -10.8905 2.7943
2.7359 -10.8789 2.7903
2.8523 -10.8676 2.7863
2.9690 -10.8562 2.7823
3.0860 -10.8441 2.7781
3.2035 -10.8327 2.7740
3.3216 -10.8220 2.7700
3.4402 -10.8113 2.7660
3.5593 -10.8004 2.7619
3.6788 -10.7893 2.7577
3.7990 -10.7788 2.7536
3.9200 -10.7684 2.7495
4.0415 -10.7579 2.7453
4.1637 -10.7476 2.7410
4.2866 -10.7373 2.7368
4.4103 -10.7271 2.7325
4.5349 -10.7170 2.7282
4.6602 -10.7070 2.7239
4.7864 -10.6970 2.7195
4.9135 -10.6871 2.7150
5.0411 -10.6762 2.7103
5.1644 -10.6546 2.7028
5.2884 -10.6330 2.6952
5.4099 -10.6049 2.6860
5.5182 -10.5507 2.6700
5.6681 -10.5740 2.6737
5.7988 -10.5586 2.6674
5.9305 -10.5432 2.6611
6.0633 -10.5278 2.6548
6.1973 -10.5124 2.6483
6.3325 -10.4970 2.6419
6.4689 -10.4816 2.6353
6.6067 -10.4662 2.6287
6.7458 -10.4509 2.6220
6.8869 -10.4364 2.6155
7.0294 -10.4218 2.6088
7.1735 -10.4072 2.6021
7.3192 -10.3926 2.5953
7.4665 -10.3780 2.5884
7.6155 -10.3633 2.5814
7.7663 -10.3486 2.5743
7.9190 -10.3339 2.5672
8.0736 -10.3191 2.5599
8.2302 -10.3043 2.5525
8.3888 -10.2894 2.5450
8.5495 -10.2744 2.5374
8.7125 -10.2595 2.5297
8.8778 -10.2444 2.5219
9.0455 -10.2292 2.5139
9.2155 -10.2139 2.5058
9.3878 -10.1981 2.4975
9.5628 -10.1824 2.4890
9.7405 -10.1665 2.4804
9.9212 -10.1505 2.4717
10.1048 -10.1344 2.4628
10.2914 -10.1182 2.4537
10.4813 -10.1019 2.4445
10.6746 -10.0854 2.4350
10.8713 -10.0689 2.4255
11.0716 -10.0522 2.4157
11.2353 -9.9994 2.3971
11.4837 -10.0183 2.3956
11.6958 -10.0012 2.3852
11.9121 -9.9838 2.3746
12.1301 -9.9641 2.3632
12.3457 -9.9386 2.3503
12.5614 -9.9095 2.3364
12.2422 -9.4632 2.2242
12.4616 -9.4381 2.2112
12.6868 -9.4135 2.1980
12.9118 -9.3849 2.1837
13.1405 -9.3550 2.1689
13.3742 -9.3246 2.1537
13.6130 -9.2937 2.1382
13.8572 -9.2624 2.1224
14.1070 -9.2305 2.1062
14.3627 -9.1980 2.0895
14.6241 -9.1647 2.0724
14.3015 -8.7688 1.9735
8.1625 -4.8955 1.0963
7.9795 -4.6803 1.0426
7.8184 -4.4838 0.9934
7.7741 -4.3580 0.9601
7.7307 -4.2351 0.9275
7.6883 -4.1150 0.8955
7.6469 -3.9974 0.8643
7.6063 -3.8823 0.8336
7.5733 -3.7730 0.8043
7.5601 -3.6751 0.7775
7.5470 -3.5784 0.7510
7.5342 -3.4831 0.7248
7.5215 -3.3889 0.6990
7.5089 -3.2960 0.6734
7.4965 -3.2041 0.6481
7.4842 -3.1134 0.6231
7.4730 -3.0241 0.5984
7.4734 -2.9404 0.5749
7.4739 -2.8573 0.5515
7.4743 -2.7748 0.5282
7.4747 -2.6930 0.5052
7.4751 -2.6118 0.4822
7.4755 -2.5311 0.4594
7.4760 -2.4510 0.4367
7.4764 -2.3714 0.4141
7.4768 -2.2924 0.3917
7.4826 -2.2154 0.3696
7.4934 -2.1402 0.3478
7.5041 -2.0652 0.3261
7.5148 -1.9904 0.3044
7.5255 -1.9158 0.2827
7.5362 -1.8414 0.2610
7.5469 -1.7671 0.2394
7.5575 -1.6930 0.2178
7.5681 -1.6191 0.1962
7.5787 -1.5452 0.1745
7.6065 -1.4748 0.1533
7.6346 -1.4042 0.1319
7.6628 -1.3333 0.1105
7.6912 -1.2622 0.0889
7.7196 -1.1907 0.0672
7.7482 -1.1190 0.0454
7.7769 -1.0469 0.0235
0.1595 -3.9394 1.2127
0.2006 -3.9343 1.2112
0.2417 -3.9292 1.2097
0.2827 -3.9241 1.2081
0.3236 -3.9189 1.2066
0.3645 -3.9138 1.2050
0.4054 -3.9087 1.2035
0.4462 -3.9035 1.2020
0.4870 -3.8983 1.2004
0.5279 -3.8932 1.1989
0.5687 -3.8880 1.1974
0.6095 -3.8827 1.1958
0.6503 -3.8775 1.1943
0.6911 -3.8723 1.1928
0.7320 -3.8670 1.1912
1.8395 -9.1912 2.8316
1.9393 -9.1898 2.8314
2.0395 -9.1884 2.8312
2.1400 -9.1868 2.8310
2.2410 -9.1853 2.8308
2.3424 -9.1837 2.8306
2.4442 -9.1820 2.8304
2.5465 -9.1804 2.8302
2.6494 -9.1786 2.8300
2.7511 -9.1716 2.8281
2.8524 -9.1615 2.8254
2.9533 -9.1492 2.8219
3.0546 -9.1367 2.8185
3.1561 -9.1239 2.8149
3.2583 -9.1116 2.8116
3.3613 -9.1006 2.8086
3.4642 -9.0879 2.8051
3.5675 -9.0750 2.8016
3.6714 -9.0622 2.7981
3.7758 -9.0493 2.7946
3.8806 -9.0362 2.7911
3.9861 -9.0231 2.7875
4.0922 -9.0100 2.7840
4.1987 -8.9964 2.7804
4.3057 -8.9826 2.7767
4.4137 -8.9691 2.7731
4.5223 -8.9557 2.7695
4.6317 -8.9419 2.7659
4.7417 -8.9281 2.7622
4.8524 -8.9136 2.7584
4.9640 -8.8995 2.7547
5.0765 -8.8852 2.7510
5.1897 -8.8707 2.7472
5.3038 -8.8560 2.7434
5.4188 -8.8411 2.7396
5.5348 -8.8261 2.7357
5.6518 -8.8109 2.7318
5.7697 -8.7955 2.7278
5.8888 -8.7799 2.7238
6.0089 -8.7642 2.7198
6.1302 -8.7482 2.7158
6.2525 -8.7320 2.7116
6.3753 -8.7146 2.7072
6.4991 -8.6967 2.7026
6.6242 -8.6786 2.6979
6.7506 -8.6602 2.6932
6.8784 -8.6416 2.6885
7.0075 -8.6228 2.6837
7.1380 -8.6038 2.6789
7.2700 -8.5844 2.6740
7.4036 -8.5648 2.6690
7.5387 -8.5449 2.6640
7.6748 -8.5239 2.6587
7.8116 -8.5018 2.6530
7.9501 -8.4792 2.6473
8.0904 -8.4564 2.6415
8.2324 -8.4332 2.6356
8.3763 -8.4097 2.6296
8.5222 -8.3858 2.6236
8.6432 -8.3358 2.6094
8.8199 -8.3370 2.6113
8.9719 -8.3119 2.6050
9.1261 -8.2865 2.5986
9.2826 -8.2606 2.5921
9.4410 -8.2339 2.5854
9.6012 -8.2062 2.5784
9.7640 -8.1780 2.5714
9.9293 -8.1494 2.5642
9.6314 -7.7455 2.4389
9.7946 -7.7175 2.4319
9.9612 -7.6894 2.4250
10.1307 -7.6607 2.4179
10.3032 -7.6315 2.4107
10.4779 -7.6010 2.4031
10.6526 -7.5677 2.3948
10.8305 -7.5337 2.3862
11.0117 -7.4991 2.3775
11.1963 -7.4638 2.3687
11.3844 -7.4277 2.3597
11.5763 -7.3909 2.3505
11.7719 -7.3534 2.3411
11.9715 -7.3150 2.3315
8.1318 -4.8594 1.5507
7.9492 -4.6447 1.4840
7.8104 -4.4611 1.4272
7.7660 -4.3350 1.3887
7.7225 -4.2118 1.3511
7.6800 -4.0914 1.3143
7.6385 -3.9735 1.2784
7.5978 -3.8582 1.2432
7.5704 -3.7515 1.2108
7.5571 -3.6533 1.1811
7.5441 -3.5563 1.1518
7.5311 -3.4607 1.1229
7.5184 -3.3663 1.0944
7.5058 -3.2731 1.0662
7.4934 -3.1810 1.0384
7.4811 -3.0901 1.0110
7.4731 -3.0019 0.9844
7.4735 -2.9179 0.9592
7.4740 -2.8345 0.9342
7.4744 -2.7519 0.9095
7.4748 -2.6698 0.8849
7.4752 -2.5883 0.8605
7.4757 -2.5075 0.8363
7.4761 -2.4272 0.8122
7.4765 -2.3474 0.7884
7.4769 -2.2681 0.7647
7.4859 -2.1919 0.7420
7.4968 -2.1165 0.7196
7.5075 -2.0413 0.6972
7.5183 -1.9663 0.6750
7.5290 -1.8915 0.6528
7.5397 -1.8169 0.6306
7.5504 -1.7424 0.6086
7.5611 -1.6681 0.5865
7.5717 -1.5940 0.5646
7.5880 -1.5211 0.5431
7.6162 -1.4504 0.5224
7.6444 -1.3796 0.5016
7.6728 -1.3084 0.4808
7.7012 -1.2370 0.4599
7.7298 -1.1653 0.4389
7.7584 -1.0933 0.4179
7.7872 -1.0210 0.3967
7.8162 -0.9483 0.3755
0.1434 -3.4935 1.2563
0.1805 -3.4908 1.2555
0.2176 -3.4880 1.2546
0.2546 -3.4853 1.2538
0.2916 -3.4826 1.2530
0.3287 -3.4799 1.2522
0.3657 -3.4772 1.2514
0.4028 -3.4745 1.2507
0.4399 -3.4718 1.2500
0.4770 -3.4691 1.2493
0.5142 -3.4664 1.2486
0.5514 -3.4636 1.2480
0.5886 -3.4609 1.2473
0.6260 -3.4582 1.2467
0.6634 -3.4554 1.2462
0.7008 -3.4527 1.2456
1.6806 -7.8516 2.8336
1.7669 -7.8481 2.8334
1.8535 -7.8445 2.8333
1.9404 -7.8406 2.8331
2.0276 -7.8367 2.8329
2.1151 -7.8325 2.8327
2.2029 -7.8282 2.8326
2.2911 -7.8238 2.8324
2.3796 -7.8191 2.8322
2.4685 -7.8143 2.8321
2.5578 -7.8094 2.8319
2.6475 -7.8042 2.8317
2.7376 -7.7989 2.8315
2.8281 -7.7934 2.8313
2.9191 -7.7877 2.8312
3.0106 -7.7819 2.8310
3.1026 -7.7758 2.8308
3.1950 -7.7696 2.8306
3.2880 -7.7632 2.8305
3.3816 -7.7566 2.8303
3.4757 -7.7498 2.8301
3.5703 -7.7428 2.8299
3.6642 -7.7324 2.8286
3.7568 -7.7184 2.8260
3.8494 -7.7030 2.8229
3.9424 -7.6874 2.8199
4.0357 -7.6713 2.8167
4.1296 -7.6550 2.8136
4.2242 -7.6389 2.8106
4.3196 -7.6230 2.8077
4.4151 -7.6061 2.8046
4.5112 -7.5890 2.8014
4.6080 -7.5717 2.7983
4.7054 -7.5542 2.7952
4.8034 -7.5364 2.7920
4.9021 -7.5184 2.7888
5.0015 -7.5001 2.7857
5.1016 -7.4815 2.7825
5.2022 -7.4624 2.7792
5.3038 -7.4432 2.7759
5.4062 -7.4238 2.7727
5.5094 -7.4041 2.7694
5.6134 -7.3840 2.7662
5.7183 -7.3636 2.7629
5.8240 -7.3427 2.7595
5.9306 -7.3216 2.7561
6.0383 -7.3002 2.7528
6.1468 -7.2784 2.7493
6.2563 -7.2561 2.7459
6.3668 -7.2335 2.7424
6.4784 -7.2104 2.7388
6.5911 -7.1870 2.7352
6.7049 -7.1632 2.7316
6.8199 -7.1389 2.7280
6.9361 -7.1142 2.7243
7.0537 -7.0892 2.7207
7.1724 -7.0636 2.7170
7.2924 -7.0375 2.7132
7.4133 -7.0105 2.7092
7.5350 -6.9825 2.7049
7.6581 -6.9540 2.7006
7.7827 -6.9250 2.6963
7.9088 -6.8954 2.6919
7.6532 -6.5378 2.5593
7.7762 -6.5086 2.5550
7.9014 -6.4792 2.5508
8.0283 -6.4494 2.5467
8.1570 -6.4191 2.5425
8.2874 -6.3881 2.5382
8.4197 -6.3565 2.5339
8.5538 -6.3242 2.5295
8.6899 -6.2913 2.5251
8.8280 -6.2577 2.5206
8.9682 -6.2235 2.5160
9.1105 -6.1885 2.5114
9.2551 -6.1528 2.5067
9.4020 -6.1163 2.5019
9.5513 -6.0790 2.4971
9.7030 -6.0409 2.4922
8.2938 -5.0499 2.0927
8.1006 -4.8228 2.0078
7.9185 -4.6086 1.9278
7.8023 -4.4381 1.8657
7.7577 -4.3117 1.8219
7.7142 -4.1882 1.7791
7.6716 -4.0674 1.7373
7.6299 -3.9493 1.6966
7.5892 -3.8338 1.6567
7.5675 -3.7297 1.6216
7.5542 -3.6311 1.5889
7.5410 -3.5339 1.5566
7.5281 -3.4380 1.5249
7.5153 -3.3433 1.4936
7.5027 -3.2498 1.4627
7.4902 -3.1575 1.4323
7.4779 -3.0664 1.4023
7.4732 -2.9793 1.3741
7.4737 -2.8950 1.3472
7.4741 -2.8115 1.3205
7.4745 -2.7286 1.2941
7.4749 -2.6463 1.2679
7.4754 -2.5646 1.2419
7.4758 -2.4835 1.2162
7.4762 -2.4030 1.1908
7.4766 -2.3231 1.1655
7.4785 -2.2441 1.1407
7.4893 -2.1682 1.1174
7.5002 -2.0925 1.0943
7.5110 -2.0171 1.0713
7.5218 -1.9419 1.0484
7.5326 -1.8669 1.0256
7.5433 -1.7921 1.0029
7.5540 -1.7175 0.9803
7.5647 -1.6430 0.9578
7.5753 -1.5686 0.9354
7.5977 -1.4968 0.9145
7.6260 -1.4258 0.8943
7.6543 -1.3547 0.8741
7.6828 -1.2833 0.8538
7.7113 -1.2116 0.8335
7.7400 -1.1396 0.8132
7.7688 -1.0674 0.7929
7.7977 -0.9948 0.7725
7.8267 -0.9219 0.7520
7.8670 -0.8498 0.7326
0.1455 -3.4932 1.4432
0.1831 -3.4904 1.4423
0.2207 -3.4877 1.4414
0.2582 -3.4849 1.4405
0.2958 -3.4822 1.4397
0.3333 -3.4794 1.4389
0.3709 -3.4767 1.4382
0.4085 -3.4739 1.4375
0.4461 -3.4712 1.4368
0.4838 -3.4684 1.4362
0.5215 -3.4657 1.4357
0.5592 -3.4629 1.4351
0.5970 -3.4602 1.4347
0.6349 -3.4574 1.4342
0.6728 -3.4546 1.4338
0.7109 -3.4518 1.4335
1.4818 -6.8235 2.8353
1.5576 -6.8189 2.8352
1.6336 -6.8141 2.8350
1.7099 -6.8091 2.8349
1.7863 -6.8038 2.8347
1.8629 -6.7984 2.8346
1.9398 -6.7927 2.8344
2.0169 -6.7867 2.8343
2.0942 -6.7806 2.8341
2.1719 -6.7742 2.8340
2.2498 -6.7676 2.8338
2.3279 -6.7607 2.8337
2.4064 -6.7536 2.8335
2.4852 -6.7463 2.8334
2.5642 -6.7387 2.8332
2.6436 -6.7309 2.8331
2.7234 -6.7228 2.8329
2.8035 -6.7145 2.8328
2.8840 -6.7059 2.8326
2.9648 -6.6970 2.8325
3.0461 -6.6879 2.8323
3.1277 -6.6786 2.8322
3.2097 -6.6690 2.8320
3.2922 -6.6590 2.8318
3.3752 -6.6489 2.8317
3.4586 -6.6384 2.8315
3.5424 -6.6276 2.8314
3.6268 -6.6166 2.8312
3.7116 -6.6053 2.8311
3.7970 -6.5936 2.8309
3.8829 -6.5817 2.8307
3.9693 -6.5695 2.8306
4.0564 -6.5570 2.8304
4.1439 -6.5441 2.8303
4.2322 -6.5309 2.8301
4.3210 -6.5174 2.8299
4.4104 -6.5035 2.8298
4.4975 -6.4850 2.8277
4.5841 -6.4646 2.8250
4.6712 -6.4440 2.8223
4.7588 -6.4229 2.8195
4.8468 -6.4014 2.8167
4.9354 -6.3794 2.8139
5.0246 -6.3571 2.8111
5.1148 -6.3350 2.8084
5.2053 -6.3120 2.8056
5.2964 -6.2887 2.8028
5.3881 -6.2650 2.8000
5.4807 -6.2409 2.7972
5.5739 -6.2164 2.7944
5.6678 -6.1915 2.7915
5.7625 -6.1662 2.7887
5.8579 -6.1404 2.7858
5.9541 -6.1142 2.7829
6.0511 -6.0875 2.7800
6.1490 -6.0603 2.7771
6.2478 -6.0327 2.7742
6.3489 -6.0061 2.7720
6.4516 -5.9795 2.7699
6.5552 -5.9522 2.7678
6.6598 -5.9244 2.7657
6.7655 -5.8960 2.7636
6.5613 -5.6016 2.6365
6.6444 -5.5567 2.6265
6.7486 -5.5283 2.6246
6.8540 -5.4994 2.6226
6.9607 -5.4700 2.6207
7.0671 -5.4388 2.6182
7.1727 -5.4054 2.6149
7.2818 -5.3731 2.6124
7.3922 -5.3403 2.6100
7.5039 -5.3067 2.6075
7.6170 -5.2724 2.6049
7.7313 -5.2373 2.6023
7.8404 -5.1970 2.5974
7.9508 -5.1560 2.5925
8.0667 -5.1171 2.5890
8.1854 -5.0781 2.5858
8.2608 -5.0111 2.5686
8.0681 -4.7846 2.4693
7.8866 -4.5711 2.3758
7.7938 -4.4140 2.3109
7.7491 -4.2873 2.2615
7.7055 -4.1635 2.2134
7.6628 -4.0424 2.1664
7.6210 -3.9241 2.1206
7.5802 -3.8084 2.0759
7.5644 -3.7069 2.0387
7.5510 -3.6081 2.0028
7.5379 -3.5105 1.9674
7.5249 -3.4144 1.9326
7.5121 -3.3194 1.8984
7.4994 -3.2257 1.8647
7.4869 -3.1332 1.8316
7.4746 -3.0419 1.7989
7.4733 -2.9560 1.7693
7.4738 -2.8714 1.7405
7.4742 -2.7876 1.7120
7.4746 -2.7045 1.6838
7.4751 -2.6220 1.6559
7.4755 -2.5401 1.6283
7.4759 -2.4589 1.6010
7.4763 -2.3782 1.5740
7.4768 -2.2980 1.5473
7.4819 -2.2198 1.5218
7.4929 -2.1437 1.4976
7.5037 -2.0678 1.4737
7.5146 -1.9922 1.4499
7.5254 -1.9168 1.4262
7.5362 -1.8416 1.4028
7.5469 -1.7666 1.3794
7.5577 -1.6918 1.3562
7.5684 -1.6171 1.3332
7.5794 -1.5427 1.3103
7.6077 -1.4717 1.2905
7.6361 -1.4005 1.2707
7.6645 -1.3291 1.2510
7.6931 -1.2574 1.2312
7.7217 -1.1855 1.2115
7.7505 -1.1133 1.1918
7.7794 -1.0407 1.1721
7.8084 -0.9679 1.1523
7.8375 -0.8947 1.1326
7.8854 -0.8232 1.1155
7.9350 -0.7510 1.0985
0.1476 -3.4929 1.6374
0.1857 -3.4901 1.6364
0.2239 -3.4873 1.6354
0.2620 -3.4845 1.6345
0.3001 -3.4817 1.6337
0.3382 -3.4789 1.6329
0.3763 -3.4761 1.6322
0.4144 -3.4734 1.6316
0.4526 -3.4706 1.6310
0.4908 -3.4678 1.6305
0.5291 -3.4650 1.6300
0.5674 -3.4622 1.6296
0.6057 -3.4594 1.6293
0.6442 -3.4566 1.6290
0.6827 -3.4537 1.6288
0.7213 -3.4509 1.6287
1.3237 -6.0058 2.8367
1.3912 -6.0006 2.8365
1.4589 -5.9952 2.8364
1.5267 -5.9895 2.8363
1.5946 -5.9836 2.8362
1.6627 -5.9774 2.8360
1.7310 -5.9710 2.8359
1.7994 -5.9643 2.8358
1.8680 -5.9573 2.8356
1.9368 -5.9501 2.8355
2.0058 -5.9426 2.8354
2.0750 -5.9348 2.8352
2.1444 -5.9268 2.8351
2.2140 -5.9185 2.8350
2.2838 -5.9099 2.8348
2.3539 -5.9011 2.8347
2.4242 -5.8919 2.8346
2.4948 -5.8825 2.8345
2.5656 -5.8728 2.8343
2.6367 -5.8628 2.8342
2.7080 -5.8525 2.8341
2.7797 -5.8419 2.8339
2.8516 -5.8311 2.8338
2.9239 -5.8198 2.8337
2.9964 -5.8084 2.8335
3.0693 -5.7966 2.8334
3.1425 -5.7844 2.8333
3.2160 -5.7720 2.8331
3.2899 -5.7592 2.8330
3.3642 -5.7462 2.8329
3.4388 -5.7327 2.8327
3.5138 -5.7190 2.8326
3.5892 -5.7049 2.8325
3.6650 -5.6905 2.8323
3.7412 -5.6757 2.8322
3.8178 -5.6606 2.8320
3.8949 -5.6451 2.8319
3.9724 -5.6292 2.8318
4.0504 -5.6130 2.8316
4.1288 -5.5963 2.8315
4.2078 -5.5793 2.8314
4.2872 -5.5619 2.8312
4.3671 -5.5442 2.8311
4.4476 -5.5260 2.8309
4.5286 -5.5074 2.8308
4.6102 -5.4884 2.8307
4.6923 -5.4689 2.8305
4.7750 -5.4491 2.8304
4.8583 -5.4287 2.8302
4.9422 -5.4080 2.8301
5.0268 -5.3868 2.8299
5.1120 -5.3651 2.8298
5.1964 -5.3414 2.8288
5.2787 -5.3146 2.8265
5.3615 -5.2873 2.8241
5.4450 -5.2594 2.8216
5.5289 -5.2311 2.8192
5.6133 -5.2022 2.8167
5.6983 -5.1728 2.8142
5.7868 -5.1453 2.8130
5.8771 -5.1183 2.8124
5.9678 -5.0904 2.8116
6.0593 -5.0620 2.8108
6.1517 -5.0330 2.8100
6.0914 -4.8803 2.7401
6.0468 -4.7439 2.6789
6.1207 -4.7017 2.6709
6.2125 -4.6722 2.6704
6.3053 -4.6422 2.6698
6.3989 -4.6115 2.6693
6.4936 -4.5801 2.6688
6.5893 -4.5481 2.6683
6.6860 -4.5155 2.6678
6.7838 -4.4821 2.6673
6.8826 -4.4480 2.6668
6.9826 -4.4132 2.6663
7.0837 -4.3777 2.6658
7.1860 -4.3414 2.6653
7.2895 -4.3044 2.6648
7.3943 -4.2665 2.6643
7.4994 -4.2273 2.6635
7.6046 -4.1866 2.6622
7.6961 -4.1370 2.6558
7.6534 -4.0158 2.6034
7.6116 -3.8973 2.5524
7.5747 -3.7833 2.5039
7.5611 -3.6827 2.4639
7.5477 -3.5836 2.4246
7.5345 -3.4858 2.3859
7.5215 -3.3893 2.3480
7.5087 -3.2942 2.3107
7.4960 -3.2003 2.2740
7.4835 -3.1076 2.2379
7.4730 -3.0168 2.2030
7.4735 -2.9313 2.1718
7.4739 -2.8465 2.1409
7.4743 -2.7625 2.1105
7.4748 -2.6791 2.0804
7.4752 -2.5964 2.0507
7.4756 -2.5144 2.0213
7.4761 -2.4329 1.9923
7.4765 -2.3520 1.9637
7.4769 -2.2717 1.9353
7.4856 -2.1944 1.9094
7.4965 -2.1180 1.8843
7.5075 -2.0419 1.8595
7.5183 -1.9661 1.8348
7.5292 -1.8905 1.8104
7.5400 -1.8151 1.7861
7.5508 -1.7399 1.7620
7.5615 -1.6649 1.7381
7.5723 -1.5901 1.7144
7.5898 -1.5168 1.6924
7.6181 -1.4455 1.6729
7.6466 -1.3741 1.6535
7.6752 -1.3024 1.6341
7.7038 -1.2304 1.6148
7.7326 -1.1582 1.5956
7.7615 -1.0857 1.5764
7.7904 -1.0129 1.5573
7.8196 -0.9398 1.5382
7.8551 -0.8671 1.5203
7.9045 -0.7953 1.5051
7.9545 -0.7228 1.4899
8.0049 -0.6495 1.4746
0.1498 -3.4926 1.8403
0.1885 -3.4897 1.8392
0.2272 -3.4869 1.8381
0.2659 -3.4841 1.8372
0.3046 -3.4812 1.8363
0.3432 -3.4784 1.8356
0.3819 -3.4756 1.8349
0.4206 -3.4727 1.8343
0.4594 -3.4699 1.8338
0.4982 -3.4671 1.8334
0.5370 -3.4642 1.8330
0.5759 -3.4614 1.8328
0.6148 -3.4585 1.8326
0.6538 -3.4557 1.8325
0.6929 -3.4528 1.8325
0.7321 -3.4500 1.8326
1.1944 -5.3372 2.8378
1.2552 -5.3317 2.8377
1.3161 -5.3260 2.8376
1.3770 -5.3200 2.8374
1.4381 -5.3138 2.8373
1.4993 -5.3072 2.8372
1.5606 -5.3004 2.8371
1.6220 -5.2934 2.8370
1.6836 -5.2860 2.8369
1.7452 -5.2784 2.8367
1.8071 -5.2704 2.8366
1.8690 -5.2622 2.8365
1.9311 -5.2538 2.8364
1.9934 -5.2450 2.8363
2.0558 -5.2359 2.8362
2.1184 -5.2266 2.8360
2.1812 -5.2169 2.8359
2.2441 -5.2070 2.8358
2.3072 -5.1967 2.8357
2.3706 -5.1862 2.8356
2.4341 -5.1754 2.8355
2.4978 -5.1642 2.8354
2.5617 -5.1527 2.8352
2.6258 -5.1410 2.8351
2.6902 -5.1289 2.8350
2.7548 -5.1164 2.8349
2.8196 -5.1037 2.8348
2.8846 -5.0906 2.8347
2.9499 -5.0772 2.8346
3.0155 -5.0635 2.8344
3.0813 -5.0494 2.8343
3.1474 -5.0350 2.8342
3.2137 -5.0202 2.8341
3.2804 -5.0051 2.8340
3.3473 -4.9896 2.8339
3.4145 -4.9738 2.8337
3.4820 -4.9576 2.8336
3.5499 -4.9410 2.8335
3.6180 -4.9241 2.8334
3.6865 -4.9067 2.8333
3.7553 -4.8890 2.8332
3.8245 -4.8709 2.8330
3.8940 -4.8524 2.8329
3.9639 -4.8335 2.8328
4.0341 -4.8142 2.8327
4.1047 -4.7944 2.8326
4.1757 -4.7743 2.8324
4.2471 -4.7537 2.8323
4.3189 -4.7327 2.8322
4.3912 -4.7112 2.8321
4.4638 -4.6893 2.8320
4.5369 -4.6670 2.8318
4.6104 -4.6442 2.8317
4.6844 -4.6209 2.8316
4.7589 -4.5971 2.8315
4.8338 -4.5728 2.8314
4.9093 -4.5481 2.8312
4.9852 -4.5228 2.8311
5.0616 -4.4970 2.8310
5.1440 -4.4755 2.8339
5.2265 -4.4527 2.8364
5.3094 -4.4292 2.8388
5.3923 -4.4045 2.8408
5.4730 -4.3770 2.8413
5.5536 -4.3482 2.8415
5.6349 -4.3189 2.8416
5.7166 -4.2888 2.8417
5.7989 -4.2581 2.8417
5.8094 -4.1747 2.8067
5.7913 -4.0723 2.7588
5.7758 -3.9737 2.7131
5.8228 -3.9189 2.6973
5.9049 -3.8871 2.6977
5.9876 -3.8546 2.6980
6.0710 -3.8214 2.6983
6.1551 -3.7874 2.6985
6.2399 -3.7528 2.6988
6.3256 -3.7174 2.6990
6.4120 -3.6814 2.6993
6.4994 -3.6446 2.6996
6.5876 -3.6070 2.6999
6.6767 -3.5686 2.7002
6.7667 -3.5295 2.7005
6.8576 -3.4896 2.7008
6.9494 -3.4488 2.7011
7.0421 -3.4071 2.7014
7.1359 -3.3645 2.7017
7.2306 -3.3210 2.7020
7.3264 -3.2766 2.7023
7.4232 -3.2313 2.7026
7.4923 -3.1728 2.6925
7.4797 -3.0799 2.6533
7.4732 -2.9905 2.6169
7.4736 -2.9048 2.5834
7.4740 -2.8198 2.5504
7.4745 -2.7355 2.5179
7.4749 -2.6520 2.4858
7.4754 -2.5691 2.4541
7.4758 -2.4868 2.4229
7.4762 -2.4052 2.3920
7.4766 -2.3241 2.3616
7.4785 -2.2441 2.3320
7.4895 -2.1672 2.3056
7.5005 -2.0907 2.2794
7.5114 -2.0144 2.2535
7.5223 -1.9383 2.2279
7.5332 -1.8625 2.2025
7.5440 -1.7870 2.1774
7.5548 -1.7116 2.1525
7.5656 -1.6364 2.1278
7.5764 -1.5614 2.1034
7.6007 -1.4892 2.0829
7.6292 -1.4177 2.0637
7.6578 -1.3460 2.0445
7.6865 -1.2740 2.0255
7.7152 -1.2018 2.0066
7.7441 -1.1293 1.9878
7.7731 -1.0565 1.9690
7.8022 -0.9835 1.9504
7.8314 -0.9101 1.9318
7.8752 -0.8380 1.9169
7.9249 -0.7658 1.9033
7.9751 -0.6928 1.8898
8.0258 -0.6191 1.8763
8.0771 -0.5447 1.8628
0.1521 -3.4922 2.0533
0.1914 -3.4893 2.0521
0.2307 -3.4865 2.0510
0.2700 -3.4836 2.0500
0.3093 -3.4807 2.0491
0.3486 -3.4779 2.0484
0.3878 -3.4750 2.0477
0.4272 -3.4721 2.0472
0.4665 -3.4692 2.0468
0.5059 -3.4664 2.0464
0.5453 -3.4635 2.0462
0.5848 -3.4606 2.0461
0.6244 -3.4577 2.0461
0.6640 -3.4548 2.0463
0.7037 -3.4519 2.0465
0.7435 -3.4490 2.0468
0.8748 -3.8478 2.2860
1.1415 -4.7726 2.8386
1.1967 -4.7668 2.8385
1.2520 -4.7607 2.8384
1.3073 -4.7543 2.8383
1.3628 -4.7476 2.8382
1.4183 -4.7407 2.8381
1.4739 -4.7334 2.8380
1.5297 -4.7259 2.8379
1.5855 -4.7181 2.8378
1.6414 -4.7101 2.8377
1.6973 -4.7017 2.8376
1.7535 -4.6930 2.8375
1.8097 -4.6841 2.8374
1.8660 -4.6749 2.8373
1.9225 -4.6654 2.8372
1.9790 -4.6555 2.8371
2.0357 -4.6454 2.8370
2.0925 -4.6350 2.8369
2.1495 -4.6242 2.8368
2.2066 -4.6132 2.8366
2.2639 -4.6018 2.8365
2.3213 -4.5902 2.8364
2.3788 -4.5782 2.8363
2.4365 -4.5659 2.8362
2.4943 -4.5533 2.8361
2.5524 -4.5404 2.8360
2.6106 -4.5271 2.8359
2.6689 -4.5135 2.8358
2.7275 -4.4996 2.8357
2.7862 -4.4853 2.8356
2.8451 -4.4707 2.8355
2.9042 -4.4558 2.8354
2.9635 -4.4405 2.8353
3.0230 -4.4248 2.8352
3.0827 -4.4088 2.8351
3.1426 -4.3924 2.8350
3.2028 -4.3757 2.8349
3.2631 -4.3586 2.8348
3.3237 -4.3412 2.8347
3.3845 -4.3233 2.8346
3.4456 -4.3051 2.8345
3.5069 -4.2864 2.8344
3.5684 -4.2674 2.8343
3.6302 -4.2480 2.8342
3.6923 -4.2282 2.8341
3.7546 -4.2080 2.8340
3.8172 -4.1874 2.8339
3.8800 -4.1663 2.8338
3.9432 -4.1449 2.8337
4.0066 -4.1230 2.8336
4.0704 -4.1006 2.8335
4.1344 -4.0778 2.8334
4.1988 -4.0546 2.8333
4.2659 -4.0332 2.8348
4.3343 -4.0123 2.8370
4.4033 -3.9909 2.8392
4.4722 -3.9685 2.8411
4.5414 -3.9454 2.8428
4.6110 -3.9218 2.8446
4.6809 -3.8976 2.8463
4.7507 -3.8724 2.8476
4.8210 -3.8467 2.8490
4.8918 -3.8204 2.8504
4.9627 -3.7933 2.8516
5.0338 -3.7655 2.8527
5.1054 -3.7371 2.8537
5.1772 -3.7078 2.8546
5.2491 -3.6778 2.8554
5.3205 -3.6465 2.8556
5.3924 -3.6146 2.8558
5.4646 -3.5820 2.8559
5.5373 -3.5488 2.8561
5.6105 -3.5150 2.8562
5.6413 -3.4543 2.8348
5.6334 -3.3706 2.7945
5.6259 -3.2885 2.7552
5.6245 -3.2111 2.7196
5.6684 -3.1599 2.7062
5.7405 -3.1240 2.7063
5.8132 -3.0874 2.7064
5.8865 -3.0501 2.7065
5.9603 -3.0121 2.7066
6.0345 -2.9733 2.7067
6.1092 -2.9338 2.7067
6.1845 -2.8935 2.7067
6.2604 -2.8524 2.7067
6.3369 -2.8106 2.7067
6.4139 -2.7679 2.7067
6.4916 -2.7245 2.7067
6.5700 -2.6802 2.7067
6.6490 -2.6351 2.7067
6.7287 -2.5891 2.7067
6.8090 -2.5423 2.7067
6.8901 -2.4945 2.7067
6.9718 -2.4459 2.7067
7.0543 -2.3963 2.7067
7.1376 -2.3457 2.7067
7.2215 -2.2942 2.7067
7.3063 -2.2416 2.7067
7.3919 -2.1880 2.7067
7.4783 -2.1334 2.7067
7.5047 -2.0611 2.6849
7.5157 -1.9846 2.6579
7.5266 -1.9083 2.6312
7.5375 -1.8323 2.6048
7.5484 -1.7566 2.5787
7.5592 -1.6810 2.5529
7.5700 -1.6057 2.5273
7.5840 -1.5312 2.5031
7.6126 -1.4595 2.4839
7.6412 -1.3877 2.4648
7.6699 -1.3157 2.4459
7.6986 -1.2434 2.4271
7.7275 -1.1709 2.4085
7.7565 -1.0982 2.3900
7.7856 -1.0251 2.3717
7.8148 -0.9518 2.3535
7.8472 -0.8785 2.3364
7.8967 -0.8066 2.3244
7.9468 -0.7340 2.3125
7.9973 -0.6606 2.3006
8.0483 -0.5865 2.2889
8.0999 -0.5116 2.2772
8.1520 -0.4359 2.2657
0.1546 -3.4919 2.2783
0.1945 -3.4889 2.2770
0.2345 -3.4860 2.2758
0.2744 -3.4831 2.2748
0.3143 -3.4802 2.2739
0.3542 -3.4773 2.2731
0.3941 -3.4744 2.2725
0.4340 -3.4714 2.2720
0.4740 -3.4685 2.2717
0.5141 -3.4656 2.2715
0.5541 -3.4627 2.2714
0.5943 -3.4597 2.2714
0.6345 -3.4568 2.2717
0.6748 -3.4538 2.2720
0.7151 -3.4509 2.2725
0.7556 -3.4479 2.2731
0.8540 -3.6953 2.4391
0.9166 -3.7700 2.4915
1.0951 -4.2905 2.8393
1.1455 -4.2844 2.8392
1.1961 -4.2780 2.8391
1.2467 -4.2713 2.8390
1.2973 -4.2644 2.8389
1.3480 -4.2572 2.8388
1.3988 -4.2497 2.8388
1.4496 -4.2419 2.8387
1.5005 -4.2338 2.8386
1.5515 -4.2255 2.8385
1.6025 -4.2168 2.8384
1.6537 -4.2079 2.8383
1.7049 -4.1987 2.8382
1.7562 -4.1892 2.8381
1.8076 -4.1794 2.8380
1.8590 -4.1692 2.8379
1.9106 -4.1588 2.8378
1.9622 -4.1481 2.8377
2.0140 -4.1371 2.8376
2.0659 -4.1258 2.8376
2.1178 -4.1142 2.8375
2.1699 -4.1023 2.8374
2.2220 -4.0900 2.8373
2.2743 -4.0775 2.8372
2.3267 -4.0646 2.8371
2.3792 -4.0514 2.8370
2.4318 -4.0379 2.8369
2.4846 -4.0240 2.8368
2.5375 -4.0099 2.8367
2.5905 -3.9954 2.8367
2.6436 -3.9805 2.8366
2.6969 -3.9653 2.8365
2.7503 -3.9498 2.8364
2.8039 -3.9339 2.8363
2.8576 -3.9177 2.8362
2.9114 -3.9012 2.8361
2.9654 -3.8843 2.8360
3.0196 -3.8670 2.8359
3.0739 -3.8493 2.8359
3.1284 -3.8313 2.8358
3.1830 -3.8130 2.8357
3.2378 -3.7942 2.8356
3.2928 -3.7751 2.8355
3.3479 -3.7555 2.8354
3.4033 -3.7356 2.8353
3.4588 -3.7153 2.8352
3.5145 -3.6946 2.8352
3.5715 -3.6746 2.8359
3.6301 -3.6557 2.8378
3.6891 -3.6363 2.8397
3.7482 -3.6164 2.8416
3.8072 -3.5956 2.8431
3.8665 -3.5744 2.8447
3.9261 -3.5528 2.8462
3.9857 -3.5304 2.8476
4.0453 -3.5073 2.8488
4.1053 -3.4838 2.8500
4.1655 -3.4599 2.8512
4.2257 -3.4352 2.8522
4.2862 -3.4099 2.8532
4.3468 -3.3841 2.8541
4.4075 -3.3576 2.8549
4.4686 -3.3306 2.8557
4.5296 -3.3029 2.8563
4.5908 -3.2746 2.8568
4.6523 -3.2457 2.8573
4.7140 -3.2163 2.8578
4.7760 -3.1863 2.8583
4.8378 -3.1554 2.8585
4.8999 -3.1240 2.8586
4.9623 -3.0920 2.8588
5.0250 -3.0594 2.8590
5.0879 -3.0262 2.8591
5.1510 -2.9923 2.8591
5.2143 -2.9578 2.8591
5.2780 -2.9226 2.8591
5.3420 -2.8869 2.8591
5.4063 -2.8506 2.8591
5.4710 -2.8136 2.8591
5.5360 -2.7759 2.8591
5.5627 -2.7188 2.8393
5.5670 -2.6510 2.8086
5.5745 -2.5854 2.7799
5.5818 -2.5203 2.7516
5.5890 -2.4558 2.7238
5.6174 -2.4008 2.7067
5.6815 -2.3606 2.7067
5.7458 -2.3197 2.7067
5.8106 -2.2781 2.7067
5.8758 -2.2357 2.7067
5.9413 -2.1927 2.7067
6.0072 -2.1489 2.7067
6.0736 -2.1043 2.7067
6.1404 -2.0589 2.7067
6.2076 -2.0127 2.7067
6.2752 -1.9658 2.7067
6.3432 -1.9180 2.7067
6.4117 -1.8693 2.7067
6.4807 -1.8198 2.7067
6.5501 -1.7695 2.7067
6.6200 -1.7182 2.7067
6.6903 -1.6661 2.7067
6.7612 -1.6130 2.7067
6.8325 -1.5590 2.7067
6.9044 -1.5040 2.7067
6.9767 -1.4480 2.7067
7.0496 -1.3911 2.7067
7.1230 -1.3331 2.7067
7.1969 -1.2740 2.7067
7.2714 -1.2139 2.7067
7.3464 -1.1528 2.7067
7.6523 -0.8967 2.7067
7.4220 -1.0905 2.7067
7.7303 -0.8298 2.7067
7.4982 -1.0271 2.7067
7.8089 -0.7616 2.7067
7.5749 -0.9625 2.7067
7.8881 -0.6921 2.7067
7.9679 -0.6214 2.7067
8.0485 -0.5493 2.7067
8.1246 -0.4757 2.7050
8.1771 -0.3995 2.6953
8.2353 -0.3227 2.6875
0.1572 -3.4915 2.5173
0.1978 -3.4885 2.5159
0.2384 -3.4856 2.5146
0.2790 -3.4826 2.5135
0.3196 -3.4796 2.5126
0.3601 -3.4767 2.5119
0.4007 -3.4737 2.5113
0.4414 -3.4707 2.5109
0.4820 -3.4677 2.5106
0.5227 -3.4648 2.5105
0.5635 -3.4618 2.5106
0.6043 -3.4588 2.5109
0.6452 -3.4558 2.5113
0.6862 -3.4528 2.5119
0.7272 -3.4498 2.5126
0.8683 -3.8948 2.8403
0.9145 -3.8896 2.8402
0.9608 -3.8841 2.8401
1.0071 -3.8784 2.8400
1.0534 -3.8723 2.8399
1.0998 -3.8660 2.8398
1.1462 -3.8594 2.8398
1.1926 -3.8526 2.8397
1.2391 -3.8455 2.8396
1.2857 -3.8381 2.8395
1.3322 -3.8304 2.8394
1.3789 -3.8224 2.8393
1.4255 -3.8142 2.8392
1.4723 -3.8057 2.8392
1.5190 -3.7968 2.8391
1.5659 -3.7878 2.8390
1.6128 -3.7784 2.8389
1.6597 -3.7687 2.8388
1.7067 -3.7588 2.8387
1.7538 -3.7485 2.8387
1.8009 -3.7380 2.8386
1.8481 -3.7271 2.8385
1.8954 -3.7160 2.8384
1.9427 -3.7046 2.8383
1.9901 -3.6928 2.8383
2.0376 -3.6808 2.8382
2.0852 -3.6684 2.8381
2.1328 -3.6558 2.8380
2.1805 -3.6428 2.8379
2.2283 -3.6296 2.8379
2.2762 -3.6159 2.8378
2.3241 -3.6020 2.8377
2.3722 -3.5878 2.8376
2.4203 -3.5733 2.8375
2.4685 -3.5584 2.8375
2.5168 -3.5432 2.8374
2.5652 -3.5277 2.8373
2.6138 -3.5118 2.8372
2.6624 -3.4956 2.8371
2.7111 -3.4790 2.8371
2.7599 -3.4621 2.8370
2.8088 -3.4449 2.8369
2.8578 -3.4273 2.8368
2.9069 -3.4094 2.8368
2.9562 -3.3911 2.8367
3.0062 -3.3731 2.8372
3.0575 -3.3562 2.8389
3.1091 -3.3388 2.8406
3.1609 -3.3211 2.8423
3.2125 -3.3027 2.8437
3.2642 -3.2837 2.8450
3.3161 -3.2644 2.8464
3.3682 -3.2447 2.8478
3.4201 -3.2242 2.8488
3.4721 -3.2033 2.8499
3.5244 -3.1820 2.8510
3.5768 -3.1603 2.8520
3.6292 -3.1379 2.8529
3.6817 -3.1150 2.8537
3.7343 -3.0917 2.8545
3.7870 -3.0678 2.8552
3.8398 -3.0435 2.8559
3.8926 -3.0185 2.8564
3.9455 -2.9930 2.8569
3.9985 -2.9671 2.8573
4.0517 -2.9407 2.8578
4.1051 -2.9138 2.8583
4.1583 -2.8862 2.8584
4.2116 -2.8580 2.8586
4.2651 -2.8294 2.8587
4.3188 -2.8003 2.8589
4.3726 -2.7707 2.8591
4.4265 -2.7404 2.8591
4.4805 -2.7097 2.8591
4.5346 -2.6784 2.8591
4.5890 -2.6466 2.8591
4.6435 -2.6143 2.8591
4.6982 -2.5815 2.8591
4.7531 -2.5481 2.8591
4.8082 -2.5141 2.8591
4.8635 -2.4796 2.8591
4.9190 -2.4446 2.8591
4.9748 -2.4089 2.8591
5.0307 -2.3727 2.8591
5.0868 -2.3359 2.8591
5.1432 -2.2985 2.8591
5.1997 -2.2605 2.8591
5.2565 -2.2219 2.8591
5.3135 -2.1826 2.8591
5.3707 -2.1428 2.8591
5.4281 -2.1023 2.8591
5.4858 -2.0611 2.8591
5.5437 -2.0192 2.8591
5.6018 -1.9767 2.8591
5.6218 -1.9205 2.8397
5.6374 -1.8628 2.8184
5.6529 -1.8053 2.7974
5.6683 -1.7479 2.7766
5.6836 -1.6906 2.7561
5.6989 -1.6334 2.7359
5.7199 -1.5779 2.7186
5.7516 -1.5252 2.7067
5.8088 -1.4788 2.7067
5.8661 -1.4316 2.7067
5.9238 -1.3836 2.7067
5.9816 -1.3349 2.7067
6.0398 -1.2854 2.7067
6.0982 -1.2351 2.7067
6.1568 -1.1840 2.7067
6.2157 -1.1320 2.7067
6.2749 -1.0792 2.7067
6.3344 -1.0256 2.7067
6.3941 -0.9711 2.7067
6.4541 -0.9157 2.7067
6.5143 -0.8594 2.7067
6.5749 -0.8022 2.7067
6.6357 -0.7441 2.7067
6.6968 -0.6850 2.7067
6.7582 -0.6250 2.7067
6.8199 -0.5640 2.7067
6.8819 -0.5020 2.7067
6.9442 -0.4389 2.7067
7.0068 -0.3748 2.7067
7.0697 -0.3097 2.7067
7.1329 -0.2435 2.7067
7.1964 -0.1762 2.7067
0.1640 -3.5783 2.8421
0.2065 -3.5771 2.8420
0.2489 -3.5756 2.8419
0.2914 -3.5738 2.8419
0.3339 -3.5718 2.8418
0.3764 -3.5696 2.8417
0.4189 -3.5671 2.8416
0.4614 -3.5643 2.8415
0.5039 -3.5613 2.8414
0.5465 -3.5580 2.8414
0.5890 -3.5545 2.8413
0.6316 -3.5507 2.8412
0.6741 -3.5466 2.8411
0.7167 -3.5423 2.8410
0.7593 -3.5377 2.8410
0.8019 -3.5328 2.8409
0.8446 -3.5277 2.8408
0.8872 -3.5224 2.8407
0.9299 -3.5167 2.8406
0.9726 -3.5108 2.8406
1.0154 -3.5046 2.8405
1.0581 -3.4982 2.8404
1.1009 -3.4915 2.8403
1.1437 -3.4845 2.8402
1.1865 -3.4773 2.8402
1.2294 -3.4698 2.8401
1.2723 -3.4620 2.8400
1.3152 -3.4539 2.8399
1.3582 -3.4456 2.8399
1.4012 -3.4370 2.8398
1.4442 -3.4281 2.8397
1.4873 -3.4190 2.8396
1.5304 -3.4095 2.8396
1.5735 -3.3998 2.8395
1.6167 -3.3898 2.8394
1.6599 -3.3795 2.8393
1.7032 -3.3689 2.8393
1.7465 -3.3580 2.8392
1.7898 -3.3469 2.8391
1.8332 -3.3354 2.8390
1.8767 -3.3237 2.8390
1.9202 -3.3116 2.8389
1.9637 -3.2993 2.8388
2.0073 -3.2867 2.8387
2.0509 -3.2737 2.8387
2.0946 -3.2605 2.8386
2.1384 -3.2470 2.8385
2.1822 -3.2331 2.8385
2.2260 -3.2189 2.8384
2.2699 -3.2045 2.8383
2.3139 -3.1897 2.8382
2.3579 -3.1746 2.8382
2.4020 -3.1592 2.8381
2.4462 -3.1434 2.8380
2.4904 -3.1274 2.8380
2.5354 -3.1119 2.8387
2.5812 -3.0968 2.8402
2.6270 -3.0815 2.8417
2.6731 -3.0658 2.8432
2.7190 -3.0494 2.8445
2.7649 -3.0327 2.8457
2.8110 -3.0156 2.8469
2.8572 -2.9981 2.8481
2.9032 -2.9801 2.8491
2.9494 -2.9616 2.8500
2.9956 -2.9427 2.8510
3.0420 -2.9235 2.8519
3.0883 -2.9038 2.8528
3.1347 -2.8836 2.8535
3.1811 -2.8630 2.8543
3.2276 -2.8420 2.8550
3.2741 -2.8205 2.8556
3.3207 -2.7986 2.8562
3.3672 -2.7762 2.8566
3.4138 -2.7533 2.8570
3.4605 -2.7300 2.8574
3.5072 -2.7063 2.8578
3.5541 -2.6822 2.8583
3.6008 -2.6575 2.8585
3.6476 -2.6323 2.8586
3.6944 -2.6067 2.8587
3.7413 -2.5806 2.8589
3.7884 -2.5542 2.8590
3.8354 -2.5272 2.8591
3.8824 -2.4997 2.8591
3.9296 -2.4718 2.8591
3.9768 -2.4435 2.8591
4.0241 -2.4147 2.8591
4.0716 -2.3854 2.8591
4.1191 -2.3557 2.8591
4.1667 -2.3255 2.8591
4.2145 -2.2948 2.8591
4.2623 -2.2637 2.8591
4.3103 -2.2320 2.8591
4.3583 -2.1999 2.8591
4.4064 -2.1673 2.8591
4.4547 -2.1342 2.8591
4.5031 -2.1005 2.8591
4.5515 -2.0664 2.8591
4.6001 -2.0317 2.8591
4.6488 -1.9965 2.8591
4.6976 -1.9608 2.8591
4.7465 -1.9245 2.8591
4.7955 -1.8876 2.8591
4.8446 -1.8502 2.8591
4.8939 -1.8123 2.8591
4.9432 -1.7738 2.8591
4.9927 -1.7347 2.8591
5.0422 -1.6950 2.8591
5.0919 -1.6547 2.8591
5.1417 -1.6138 2.8591
5.1916 -1.5724 2.8591
5.2416 -1.5302 2.8591
5.4428 -1.3555 2.8591
5.2918 -1.4875 2.8591
5.4934 -1.3102 2.8591
5.3420 -1.4442 2.8591
5.5441 -1.2642 2.8591
5.3924 -1.4001 2.8591
5.5949 -1.2175 2.8591
5.6459 -1.1701 2.8591
5.6969 -1.1221 2.8591
5.8507 -0.9736 2.8591
5.7480 -1.0733 2.8591
5.9022 -0.9227 2.8591
5.7993 -1.0238 2.8591
5.9398 -0.8690 2.8524
5.9974 -0.7577 2.8308
5.9685 -0.8135 2.8415
6.0263 -0.7017 2.8203
6.1226 -0.5320 2.7938
6.0554 -0.6452 2.8100
6.1576 -0.4749 2.7865
6.0878 -0.5888 2.8013
6.1928 -0.4172 2.7794
6.2650 -0.3003 2.7661
6.2283 -0.3590 2.7724
6.3041 -0.2411 2.7609
6.3435 -0.1813 2.7558
6.3834 -0.1209 2.7510
6.4236 -0.0598 2.7464
0.1520 -3.2554 2.8425
0.1914 -3.2542 2.8425
0.2307 -3.2528 2.8424
0.2701 -3.2511 2.8423
0.3095 -3.2491 2.8422
0.3489 -3.2470 2.8422
0.3882 -3.2445 2.8421
0.4276 -3.2418 2.8420
0.4670 -3.2389 2.8419
0.5064 -3.2357 2.8419
0.5458 -3.2323 2.8418
0.5852 -3.2286 2.8417
0.6247 -3.2246 2.8416
0.6641 -3.2204 2.8415
0.7035 -3.2160 2.8415
0.7430 -3.2112 2.8414
0.7824 -3.2063 2.8413
0.8219 -3.2010 2.8413
0.8614 -3.1956 2.8412
0.9009 -3.1898 2.8411
0.9404 -3.1838 2.8410
0.9799 -3.1775 2.8410
1.0194 -3.1710 2.8409
1.0590 -3.1643 2.8408
1.0986 -3.1572 2.8407
1.1382 -3.1499 2.8407
1.1778 -3.1423 2.8406
1.2174 -3.1345 2.8405
1.2570 -3.1264 2.8405
1.2967 -3.1180 2.8404
1.3364 -3.1094 2.8403
1.3761 -3.1005 2.8403
1.4158 -3.0913 2.8402
1.4555 -3.0819 2.8401
1.4953 -3.0722 2.8401
1.5351 -3.0622 2.8400
1.5749 -3.0519 2.8399
1.6147 -3.0413 2.8398
1.6546 -3.0305 2.8398
1.6945 -3.0194 2.8397
1.7344 -3.0080 2.8396
1.7744 -2.9964 2.8396
1.8143 -2.9844 2.8395
1.8543 -2.9722 2.8394
1.8943 -2.9596 2.8394
1.9344 -2.9468 2.8393
1.9745 -2.9337 2.8393
2.0146 -2.9203 2.8392
2.0547 -2.9066 2.8391
2.0949 -2.8926 2.8391
2.1362 -2.8797 2.8404
2.1775 -2.8665 2.8417
2.2189 -2.8530 2.8431
2.2604 -2.8392 2.8444
2.3017 -2.8248 2.8454
2.3431 -2.8100 2.8465
2.3846 -2.7950 2.8476
2.4261 -2.7796 2.8487
2.4676 -2.7637 2.8496
2.5090 -2.7474 2.8504
2.5506 -2.7308 2.8513
2.5922 -2.7139 2.8521
2.6338 -2.6966 2.8529
2.6753 -2.6788 2.8536
2.7170 -2.6607 2.8543
2.7586 -2.6422 2.8549
2.8002 -2.6232 2.8555
2.8419 -2.6039 2.8560
2.8836 -2.5843 2.8565
2.9251 -2.5641 2.8569
2.9668 -2.5436 2.8572
3.0085 -2.5227 2.8576
3.0502 -2.5014 2.8580
3.0920 -2.4799 2.8583
3.1336 -2.4577 2.8585
3.1753 -2.4351 2.8586
3.2169 -2.4122 2.8587
3.2587 -2.3889 2.8589
3.3004 -2.3652 2.8590
3.3422 -2.3412 2.8591
3.3839 -2.3166 2.8591
3.5512 -2.2145 2.8591
3.4257 -2.2916 2.8591
3.4675 -2.2663 2.8591
3.5931 -2.1879 2.8591
3.5093 -2.2406 2.8591
3.6351 -2.1610 2.8591
3.7192 -2.1059 2.8591
3.6771 -2.1337 2.8591
3.7612 -2.0777 2.8591
3.8878 -1.9906 2.8591
3.8034 -2.0491 2.8591
3.9300 -1.9607 2.8591
3.8456 -2.0201 2.8591
3.9723 -1.9303 2.8591
4.0570 -1.8683 2.8591
4.0147 -1.8996 2.8591
4.0995 -1.8366 2.8591
4.2269 -1.7387 2.8591
4.1419 -1.8044 2.8591
4.2695 -1.7052 2.8591
4.1844 -1.7718 2.8591
4.3121 -1.6711 2.8591
4.3974 -1.6016 2.8591
4.3547 -1.6366 2.8591
4.4401 -1.5660 2.8591
4.5684 -1.4564 2.8591
4.4828 -1.5300 2.8591
4.6112 -1.4188 2.8591
4.5256 -1.4935 2.8591
4.7399 -1.3030 2.8591
4.6541 -1.3808 2.8591
4.9118 -1.1409 2.8591
4.7828 -1.2633 2.8591
4.6970 -1.3421 2.8591
4.9548 -1.0990 2.8591
4.8258 -1.2230 2.8591
5.0839 -0.9697 2.8591
4.9978 -1.0564 2.8591
4.8687 -1.1823 2.8591
5.1270 -0.9254 2.8591
5.0409 -1.0134 2.8591
5.2563 -0.7890 2.8591
5.1701 -0.8806 2.8591
5.4287 -0.5983 2.8591
5.2994 -0.7423 2.8591
5.2132 -0.8351 2.8591
5.4718 -0.5490 2.8591
5.3425 -0.6949 2.8591
5.6010 -0.3972 2.8591
5.5149 -0.4991 2.8591
5.3856 -0.6469 2.8591
5.6441 -0.3453 2.8591
5.5580 -0.4485 2.8591
5.6871 -0.2926 2.8591
5.7731 -0.1852 2.8591
5.7301 -0.2392 2.8591
5.8160 -0.1304 2.8591
5.8589 -0.0749 2.8591
5.9018 -0.0186 2.8591
5.9446 0.0383 2.8591
0.1412 -2.9651 2.8429
0.1778 -2.9640 2.8429
0.2144 -2.9626 2.8428
0.2510 -2.9610 2.8427
0.2875 -2.9591 2.8426
0.3241 -2.9570 2.8426
0.3607 -2.9546 2.8425
0.3973 -2.9520 2.8424
0.4339 -2.9492 2.8424
0.4704 -2.9461 2.8423
0.5070 -2.9428 2.8422
0.5436 -2.9392 2.8422
0.5802 -2.9354 2.8421
0.6168 -2.9313 2.8420
0.6534 -2.9270 2.8419
0.6900 -2.9224 2.8419
0.7266 -2.9176 2.8418
0.7632 -2.9125 2.8417
0.7998 -2.9072 2.8417
0.8365 -2.9017 2.8416
0.8731 -2.8959 2.8415
0.9097 -2.8898 2.8415
0.9464 -2.8835 2.8414
0.9830 -2.8769 2.8413
1.0197 -2.8701 2.8413
1.0563 -2.8630 2.8412
1.0930 -2.8557 2.8411
1.1297 -2.8481 2.8411
1.1664 -2.8403 2.8410
1.2031 -2.8322 2.8409
1.2398 -2.8239 2.8409
1.2765 -2.8152 2.8408
1.3132 -2.8064 2.8408
1.3499 -2.7972 2.8407
1.3867 -2.7878 2.8406
1.4234 -2.7782 2.8406
1.4601 -2.7682 2.8405
1.4969 -2.7580 2.8404
1.6073 -2.7259 2.8403
1.5337 -2.7476 2.8404
1.6441 -2.7146 2.8402
1.5705 -2.7369 2.8403
1.6809 -2.7031 2.8401
1.7552 -2.6802 2.8411
1.7177 -2.6913 2.8401
1.7929 -2.6690 2.8423
1.9060 -2.6335 2.8457
1.8306 -2.6575 2.8435
1.9436 -2.6210 2.8466
1.8683 -2.6458 2.8447
1.9813 -2.6081 2.8476
2.0568 -2.5814 2.8495
2.0191 -2.5949 2.8486
2.0945 -2.5675 2.8503
2.2077 -2.5238 2.8525
2.1322 -2.5532 2.8510
2.2454 -2.5086 2.8532
2.1699 -2.5387 2.8518
2.2831 -2.4930 2.8538
2.3586 -2.4609 2.8550
2.5094 -2.3923 2.8569
2.3209 -2.4771 2.8544
2.3963 -2.4442 2.8555
2.5471 -2.3743 2.8572
2.6601 -2.3182 2.8581
2.4340 -2.4273 2.8560
2.5847 -2.3559 2.8575
2.6978 -2.2988 2.8584
2.8105 -2.2383 2.8588
2.4718 -2.4100 2.8565
2.6224 -2.3372 2.8578
2.7353 -2.2790 2.8586
2.8480 -2.2174 2.8589
3.1107 -2.0614 2.8591
2.9607 -2.1527 2.8591
2.7729 -2.2588 2.8587
2.8856 -2.1962 2.8590
3.1482 -2.0377 2.8591
2.9982 -2.1304 2.8591
3.2608 -1.9644 2.8591
2.9232 -2.1747 2.8591
3.1858 -2.0136 2.8591
3.0357 -2.1078 2.8591
3.2984 -1.9392 2.8591
3.4110 -1.8615 2.8591
3.2233 -1.9892 2.8591
3.0732 -2.0848 2.8591
3.3359 -1.9137 2.8591
3.4485 -1.8348 2.8591
3.7112 -1.6372 2.8591
3.5612 -1.7525 2.8591
3.3735 -1.8878 2.8591
3.4861 -1.8077 2.8591
3.7488 -1.6073 2.8591
3.8612 -1.5153 2.8591
3.5987 -1.7242 2.8591
3.5236 -1.7803 2.8591
3.7862 -1.5771 2.8591
3.8987 -1.4838 2.8591
3.6362 -1.6956 2.8591
4.0109 -1.3866 2.8591
3.8237 -1.5464 2.8591
3.9361 -1.4518 2.8591
3.6737 -1.6666 2.8591
4.0483 -1.3534 2.8591
4.1603 -1.2509 2.8591
3.9735 -1.4194 2.8591
4.3093 -1.1080 2.8591
4.0857 -1.3197 2.8591
4.1976 -1.2159 2.8591
4.3465 -1.0711 2.8591
4.4578 -0.9574 2.8591
4.1230 -1.2855 2.8591
4.2349 -1.1804 2.8591
4.3836 -1.0337 2.8591
4.4948 -0.9186 2.8591
4.6055 -0.7990 2.8591
4.2721 -1.1444 2.8591
4.4207 -0.9958 2.8591
4.5317 -0.8792 2.8591
4.6423 -0.7582 2.8591
4.7524 -0.6324 2.8591
4.8982 -0.4574 2.8591
4.5686 -0.8394 2.8591
4.6791 -0.7168 2.8591
4.7889 -0.5895 2.8591
4.9345 -0.4123 2.8591
5.0428 -0.2735 2.8591
4.7158 -0.6749 2.8591
4.8254 -0.5460 2.8591
4.9707 -0.3666 2.8591
5.0787 -0.2261 2.8591
4.8619 -0.5020 2.8591
5.0068 -0.3203 2.8591
5.1145 -0.1782 2.8591
5.1859 -0.0805 2.8591
5.1502 -0.1296 2.8591
5.2214 -0.0308 2.8591
5.2568 0.0195 2.8591
5.2921 0.0705 2.8591
5.3272 0.1220 2.8591
0.1315 -2.7017 2.8433
0.1655 -2.7006 2.8432
0.1995 -2.6993 2.8432
0.2336 -2.6977 2.8431
0.2676 -2.6959 2.8430
0.3017 -2.6939 2.8430
0.3357 -2.6916 2.8429
0.3697 -2.6891 2.8428
0.4038 -2.6864 2.8428
0.4378 -2.6834 2.8427
0.4718 -2.6802 2.8426
0.5059 -2.6767 2.8426
0.5399 -2.6730 2.8425
0.6760 -2.6559 2.8422
0.5739 -2.6691 2.8424
0.7101 -2.6510 2.8422
0.8121 -2.6349 2.8420
0.6080 -2.6649 2.8424
0.7441 -2.6459 2.8421
0.8462 -2.6291 2.8419
0.9482 -2.6101 2.8417
0.6420 -2.6605 2.8423
0.7781 -2.6405 2.8421
0.8802 -2.6230 2.8419
1.0843 -2.5813 2.8415
0.9822 -2.6033 2.8417
1.2204 -2.5486 2.8413
0.9142 -2.6167 2.8418
1.0163 -2.5962 2.8416
1.1183 -2.5735 2.8414
1.2544 -2.5398 2.8412
1.3564 -2.5119 2.8410
1.1524 -2.5655 2.8414
1.0503 -2.5889 2.8416
1.2884 -2.5308 2.8412
1.4943 -2.4742 2.8444
1.3906 -2.5024 2.8413
1.3224 -2.5215 2.8411
1.5290 -2.4643 2.8455
1.4251 -2.4932 2.8423
1.6327 -2.4326 2.8481
1.4597 -2.4839 2.8434
1.5636 -2.4540 2.8464
1.6673 -2.4214 2.8489
1.1864 -2.5572 2.8413
1.7710 -2.3861 2.8511
1.9093 -2.3348 2.8537
1.7020 -2.4100 2.8498
1.5981 -2.4434 2.8472
2.0474 -2.2785 2.8557
1.8056 -2.3737 2.8518
1.9438 -2.3211 2.8543
2.1851 -2.2172 2.8572
1.7365 -2.3982 2.8504
2.0819 -2.2636 2.8562
1.8402 -2.3610 2.8525
1.9784 -2.3072 2.8548
2.2195 -2.2011 2.8575
2.3226 -2.1510 2.8584
2.1163 -2.2485 2.8566
1.8748 -2.3481 2.8532
2.0129 -2.2930 2.8553
2.2538 -2.1847 2.8578
2.3569 -2.1336 2.8585
2.1507 -2.2330 2.8569
2.4594 -2.0795 2.8588
2.5959 -2.0029 2.8591
2.2882 -2.1680 2.8581
2.3910 -2.1158 2.8586
2.7320 -1.9213 2.8591
2.4936 -2.0608 2.8589
2.8677 -1.8345 2.8591
2.6300 -1.9830 2.8591
2.7660 -1.9001 2.8591
2.4252 -2.0978 2.8587
2.9016 -1.8120 2.8591
2.5278 -2.0419 2.8590
2.6640 -1.9627 2.8591
3.0032 -1.7425 2.8591
2.7999 -1.8785 2.8591
2.9355 -1.7892 2.8591
2.5619 -2.0226 2.8591
2.6980 -1.9422 2.8591
2.8338 -1.8567 2.8591
3.0370 -1.7187 2.8591
2.9693 -1.7660 2.8591
3.1382 -1.6451 2.8591
3.2727 -1.5421 2.8591
3.4066 -1.4335 2.8591
3.0707 -1.6945 2.8591
3.5398 -1.3189 2.8591
