ply
format ascii 1.0
element vertex 2107
property float32 x
property float32 y
property float32 z
end_header
0.4770 -4.6835 1.2055
0.5254 -4.6777 1.2038
0.5738 -4.6718 1.2021
0.6222 -4.6661 1.2004
0.6706 -4.6604 1.1987
0.7190 -4.6548 1.1970
0.7675 -4.6493 1.1953
1.9002 -10.8135 2.7795
2.0137 -10.8022 2.7759
2.1274 -10.7917 2.7724
2.2413 -10.7814 2.7689
2.3556 -10.7710 2.7654
2.4700 -10.7603 2.7618
2.5847 -10.7497 2.7581
2.6998 -10.7397 2.7546
2.8154 -10.7299 2.7510
2.9313 -10.7199 2.7474
3.0476 -10.7101 2.7438
3.1644 -10.7004 2.7401
3.2817 -10.6908 2.7364
3.3996 -10.6813 2.7328
3.5179 -10.6719 2.7290
3.6369 -10.6626 2.7253
3.7565 -10.6533 2.7215
3.8767 -10.6441 2.7177
3.9976 -10.6350 2.7139
4.1169 -10.6201 2.7085
4.2352 -10.6010 2.7020
4.3540 -10.5820 2.6955
4.4733 -10.5631 2.6890
4.5885 -10.5331 2.6796
4.7095 -10.5154 2.6732
4.8335 -10.5030 2.6682
4.9402 -10.4519 2.6533
5.0843 -10.4783 2.6580
5.2111 -10.4660 2.6528
5.3389 -10.4537 2.6476
5.4677 -10.4415 2.6423
5.5975 -10.4293 2.6369
5.7285 -10.4172 2.6316
5.8606 -10.4050 2.6261
5.9939 -10.3929 2.6206
6.1289 -10.3816 2.6152
6.2655 -10.3709 2.6100
6.4036 -10.3602 2.6046
6.5430 -10.3494 2.5992
6.6840 -10.3388 2.5937
6.8265 -10.3281 2.5881
6.9705 -10.3174 2.5825
7.1160 -10.3063 2.5766
7.2627 -10.2946 2.5706
7.4112 -10.2829 2.5644
7.5615 -10.2711 2.5582
7.7137 -10.2594 2.5519
7.8679 -10.2477 2.5454
8.0241 -10.2360 2.5389
8.1824 -10.2242 2.5323
8.3429 -10.2125 2.5256
8.5057 -10.2007 2.5188
8.6708 -10.1889 2.5119
8.8384 -10.1771 2.5049
-30.4621 -8.3876 2.8604
-29.4801 -8.4258 2.8604
-28.5537 -8.4618 2.8604
-27.6782 -8.4957 2.8604
-26.8493 -8.5277 2.8604
-11.7100 -3.8450 1.2852
-25.3164 -8.5865 2.8604
-24.6061 -8.6135 2.8604
-23.9295 -8.6392 2.8604
-23.2841 -8.6636 2.8604
-22.6676 -8.6868 2.8604
-22.0782 -8.7089 2.8604
-21.5138 -8.7300 2.8604
-20.9729 -8.7501 2.8604
-20.4538 -8.7693 2.8604
-19.9554 -8.7876 2.8604
-19.4761 -8.8052 2.8604
-18.0018 -8.3519 2.7080
-17.5812 -8.3672 2.7080
-17.1757 -8.3818 2.7080
-16.7844 -8.3958 2.7080
-16.4066 -8.4093 2.7080
-16.0414 -8.4222 2.7080
-15.6882 -8.4347 2.7080
-15.3464 -8.4466 2.7080
-15.0153 -8.4581 2.7080
-14.6943 -8.4692 2.7080
-14.3830 -8.4799 2.7080
-14.0809 -8.4902 2.7080
-13.7874 -8.5001 2.7080
-13.8317 -8.7174 2.7741
-13.9687 -8.9981 2.8603
-13.6812 -9.0058 2.8598
-13.4014 -9.0133 2.8593
-13.1291 -9.0206 2.8587
-12.8638 -9.0276 2.8583
-12.6051 -9.0343 2.8578
-12.3529 -9.0408 2.8573
-12.1068 -9.0471 2.8568
-11.8666 -9.0532 2.8564
-11.6320 -9.0590 2.8560
-11.4027 -9.0647 2.8555
-11.1786 -9.0702 2.8551
-10.9595 -9.0756 2.8547
-10.7451 -9.0807 2.8543
-10.5352 -9.0857 2.8539
-10.3297 -9.0905 2.8535
-10.1283 -9.0952 2.8532
-9.9310 -9.0997 2.8528
-9.7376 -9.1040 2.8524
-9.5478 -9.1083 2.8521
-9.3617 -9.1124 2.8517
-9.1789 -9.1164 2.8514
-8.9995 -9.1202 2.8511
-8.8233 -9.1239 2.8507
-8.6502 -9.1276 2.8504
-8.4799 -9.1310 2.8501
-8.3126 -9.1344 2.8498
-8.1480 -9.1377 2.8495
-7.9860 -9.1409 2.8492
-7.8266 -9.1440 2.8489
-7.6697 -9.1470 2.8486
-7.5151 -9.1499 2.8483
-7.3629 -9.1526 2.8480
-7.2129 -9.1553 2.8478
-7.0650 -9.1580 2.8475
-6.9191 -9.1605 2.8472
-6.7753 -9.1630 2.8469
-6.6334 -9.1653 2.8467
-6.4933 -9.1676 2.8464
-6.3551 -9.1699 2.8462
-6.2186 -9.1720 2.8459
-6.0838 -9.1741 2.8457
-5.9506 -9.1761 2.8454
-5.8190 -9.1780 2.8452
-5.6889 -9.1799 2.8449
-5.5602 -9.1817 2.8447
-5.4330 -9.1835 2.8445
-5.3072 -9.1852 2.8442
-5.1826 -9.1868 2.8440
-5.0594 -9.1884 2.8438
-4.9374 -9.1898 2.8435
-4.8166 -9.1912 2.8433
-4.6969 -9.1926 2.8431
-4.5784 -9.1939 2.8429
-4.4609 -9.1952 2.8426
-4.3445 -9.1964 2.8424
-4.2291 -9.1975 2.8422
-4.1147 -9.1986 2.8420
-4.0012 -9.1997 2.8418
-3.8886 -9.2007 2.8416
-3.7769 -9.2017 2.8414
-3.6660 -9.2026 2.8411
-3.5559 -9.2034 2.8409
-3.4467 -9.2042 2.8407
-3.3381 -9.2050 2.8405
-3.2303 -9.2057 2.8403
-3.1232 -9.2064 2.8401
-3.0168 -9.2070 2.8399
-2.9110 -9.2076 2.8397
-2.8058 -9.2081 2.8395
-2.7013 -9.2087 2.8393
-2.5972 -9.2091 2.8391
-2.4938 -9.2095 2.8389
-1.0588 -4.0786 1.2571
-1.0122 -4.0737 1.2555
-0.9659 -4.0688 1.2539
-0.9199 -4.0640 1.2523
-0.8742 -4.0592 1.2507
-0.8289 -4.0544 1.2491
-0.7838 -4.0496 1.2475
-0.7390 -4.0448 1.2459
-0.6944 -4.0400 1.2444
-0.6501 -4.0353 1.2428
-0.6060 -4.0305 1.2413
-0.5622 -4.0258 1.2398
-0.5185 -4.0211 1.2382
-0.4751 -4.0163 1.2367
-0.4319 -4.0116 1.2352
-0.3889 -4.0069 1.2337
-0.3460 -4.0022 1.2322
-0.3034 -3.9974 1.2307
-0.2609 -3.9927 1.2292
-0.2185 -3.9880 1.2277
-0.1763 -3.9833 1.2263
-0.1342 -3.9786 1.2248
-0.0922 -3.9739 1.2233
-0.0504 -3.9691 1.2219
-0.0087 -3.9644 1.2204
0.0330 -3.9597 1.2190
0.0745 -3.9549 1.2175
0.1159 -3.9502 1.2161
0.1573 -3.9454 1.2146
0.1986 -3.9407 1.2132
0.2399 -3.9359 1.2117
0.2811 -3.9311 1.2103
0.3222 -3.9263 1.2088
0.3633 -3.9215 1.2074
0.4044 -3.9167 1.2060
0.4455 -3.9118 1.2045
0.4865 -3.9070 1.2031
0.5275 -3.9021 1.2017
0.5686 -3.8972 1.2002
0.6096 -3.8923 1.1988
0.6507 -3.8874 1.1973
0.6918 -3.8825 1.1959
0.7329 -3.8775 1.1945
1.8338 -9.1733 2.8261
1.9317 -9.1628 2.8230
2.0297 -9.1521 2.8200
2.1279 -9.1411 2.8169
2.2264 -9.1304 2.8138
2.3254 -9.1210 2.8112
2.4246 -9.1109 2.8084
2.5238 -9.0999 2.8054
2.6233 -9.0889 2.8023
2.7232 -9.0780 2.7992
2.8233 -9.0670 2.7962
2.9238 -9.0558 2.7931
3.0247 -9.0446 2.7901
3.1260 -9.0334 2.7870
3.2277 -9.0221 2.7839
3.3296 -9.0102 2.7807
3.4321 -8.9984 2.7775
3.5352 -8.9869 2.7744
3.6386 -8.9755 2.7713
3.7429 -8.9637 2.7682
3.8476 -8.9519 2.7650
3.9528 -8.9397 2.7618
4.0584 -8.9274 2.7585
4.1649 -8.9153 2.7553
4.2720 -8.9031 2.7521
4.3798 -8.8907 2.7489
4.4882 -8.8781 2.7456
4.5974 -8.8654 2.7422
4.7073 -8.8525 2.7389
4.8181 -8.8395 2.7355
4.9296 -8.8264 2.7322
5.0420 -8.8132 2.7287
5.1553 -8.7998 2.7253
5.2695 -8.7862 2.7218
5.3846 -8.7725 2.7184
5.5008 -8.7586 2.7148
5.6177 -8.7442 2.7112
5.7351 -8.7289 2.7072
5.8536 -8.7133 2.7032
5.9732 -8.6976 2.6992
6.0939 -8.6817 2.6952
6.2158 -8.6657 2.6911
6.3389 -8.6494 2.6870
6.4632 -8.6329 2.6828
6.5889 -8.6161 2.6786
6.7159 -8.5992 2.6743
6.8443 -8.5821 2.6700
6.9741 -8.5647 2.6657
7.1051 -8.5468 2.6612
7.2369 -8.5275 2.6564
7.3701 -8.5080 2.6514
7.5049 -8.4883 2.6465
-20.3659 -5.3278 2.8604
-19.9030 -5.4143 2.8604
-19.4573 -5.4971 2.8604
-19.0278 -5.5766 2.8604
-18.6134 -5.6529 2.8604
-18.2134 -5.7261 2.8604
-11.7030 -3.8053 1.8778
-11.7286 -3.9407 1.9222
-17.0918 -5.9294 2.8604
-16.7417 -5.9920 2.8604
-15.5287 -5.7301 2.7080
-15.2174 -5.7853 2.7080
-14.9153 -5.8385 2.7080
-14.6221 -5.8898 2.7080
-14.3373 -5.9394 2.7080
-14.0604 -5.9873 2.7080
-13.7912 -6.0336 2.7080
-13.5292 -6.0783 2.7080
-13.2741 -6.1216 2.7080
-13.0257 -6.1635 2.7080
-12.7835 -6.2040 2.7080
-12.5474 -6.2432 2.7080
-12.3171 -6.2813 2.7080
-12.0923 -6.3181 2.7080
-11.9295 -6.3842 2.7210
-12.1203 -6.6416 2.8153
-12.0920 -6.7829 2.8602
-11.8737 -6.8163 2.8598
-11.6603 -6.8487 2.8593
-11.4515 -6.8801 2.8589
-11.2471 -6.9106 2.8585
-11.0471 -6.9402 2.8581
-10.8511 -6.9689 2.8577
-10.6591 -6.9968 2.8573
-10.4709 -7.0240 2.8569
-10.2864 -7.0503 2.8565
-10.1054 -7.0759 2.8561
-9.9278 -7.1008 2.8558
-9.7536 -7.1251 2.8554
-9.5824 -7.1487 2.8551
-9.4143 -7.1716 2.8547
-9.2491 -7.1939 2.8544
-9.0868 -7.2155 2.8541
-8.9272 -7.2367 2.8537
-8.7703 -7.2572 2.8534
-8.6159 -7.2772 2.8531
-8.4640 -7.2967 2.8528
-8.3144 -7.3156 2.8525
-8.1672 -7.3341 2.8522
-8.0221 -7.3521 2.8519
-7.8793 -7.3696 2.8516
-7.7385 -7.3866 2.8514
-7.5997 -7.4032 2.8511
-7.4629 -7.4194 2.8508
-7.3280 -7.4352 2.8505
-7.1949 -7.4505 2.8503
-7.0636 -7.4655 2.8500
-6.9340 -7.4800 2.8497
-6.8060 -7.4942 2.8495
-6.6797 -7.5080 2.8492
-6.5549 -7.5215 2.8490
-6.4316 -7.5346 2.8488
-6.3098 -7.5474 2.8485
-6.1894 -7.5599 2.8483
-6.0704 -7.5720 2.8480
-5.9527 -7.5838 2.8478
-5.8363 -7.5953 2.8476
-5.7212 -7.6065 2.8473
-5.6073 -7.6174 2.8471
-5.4945 -7.6280 2.8469
-5.3829 -7.6384 2.8467
-5.2724 -7.6485 2.8465
-5.1630 -7.6583 2.8463
-5.0546 -7.6678 2.8460
-4.9472 -7.6771 2.8458
-4.8408 -7.6861 2.8456
-4.7354 -7.6949 2.8454
-4.6308 -7.7034 2.8452
-4.5272 -7.7117 2.8450
-4.4244 -7.7197 2.8448
-4.3225 -7.7275 2.8446
-4.2214 -7.7351 2.8444
-4.1210 -7.7425 2.8442
-4.0214 -7.7497 2.8440
-3.9226 -7.7566 2.8438
-3.8245 -7.7633 2.8436
-3.7271 -7.7699 2.8434
-3.6303 -7.7762 2.8432
-3.5342 -7.7823 2.8430
-3.4387 -7.7882 2.8428
-3.3438 -7.7940 2.8427
-3.2495 -7.7995 2.8425
-3.1558 -7.8049 2.8423
-3.0626 -7.8100 2.8421
-2.9700 -7.8150 2.8419
-2.8779 -7.8198 2.8417
-2.7862 -7.8245 2.8416
-2.6950 -7.8289 2.8414
-2.6043 -7.8332 2.8412
-2.5140 -7.8373 2.8410
-1.1072 -3.5812 1.2975
-1.0649 -3.5782 1.2957
-1.0230 -3.5753 1.2939
-0.9813 -3.5724 1.2923
-0.9400 -3.5695 1.2906
-0.8989 -3.5666 1.2890
-0.8581 -3.5637 1.2874
-0.8176 -3.5609 1.2858
-0.7773 -3.5581 1.2843
-0.7372 -3.5553 1.2828
-0.6973 -3.5525 1.2813
-0.6577 -3.5497 1.2799
-0.6183 -3.5469 1.2785
-0.5791 -3.5442 1.2771
-0.5400 -3.5415 1.2758
-0.5011 -3.5387 1.2745
-0.4624 -3.5360 1.2732
-0.4239 -3.5333 1.2720
-0.3855 -3.5306 1.2707
-0.3472 -3.5280 1.2696
-0.3091 -3.5253 1.2684
-0.2711 -3.5226 1.2672
-0.2332 -3.5200 1.2661
-0.1954 -3.5173 1.2651
-0.1577 -3.5147 1.2640
-0.1201 -3.5120 1.2630
-0.0826 -3.5094 1.2619
-0.0451 -3.5068 1.2610
-0.0078 -3.5042 1.2600
0.0296 -3.5016 1.2591
0.0668 -3.4989 1.2582
0.1041 -3.4963 1.2573
0.1413 -3.4937 1.2564
0.1784 -3.4911 1.2556
0.2156 -3.4885 1.2548
0.2527 -3.4859 1.2540
0.2899 -3.4833 1.2532
0.3270 -3.4807 1.2525
0.3642 -3.4781 1.2517
0.4013 -3.4755 1.2510
0.4385 -3.4729 1.2504
0.4758 -3.4703 1.2497
0.5131 -3.4677 1.2491
0.5504 -3.4651 1.2485
0.5878 -3.4624 1.2479
0.6253 -3.4598 1.2473
0.6628 -3.4572 1.2468
0.7004 -3.4546 1.2463
1.6787 -7.8505 2.8332
1.7652 -7.8471 2.8330
1.8520 -7.8435 2.8329
1.9392 -7.8397 2.8327
2.0266 -7.8357 2.8326
2.1143 -7.8316 2.8324
2.2023 -7.8274 2.8322
2.2907 -7.8229 2.8321
2.3795 -7.8183 2.8319
2.4686 -7.8136 2.8318
2.5581 -7.8086 2.8316
2.6480 -7.8035 2.8314
2.7384 -7.7982 2.8313
2.8280 -7.7896 2.8300
2.9173 -7.7787 2.8279
3.0062 -7.7661 2.8253
3.0955 -7.7532 2.8226
3.1851 -7.7401 2.8199
3.2750 -7.7266 2.8172
3.3653 -7.7129 2.8144
3.4562 -7.6997 2.8119
3.5477 -7.6866 2.8095
3.6393 -7.6725 2.8067
3.7313 -7.6581 2.8040
3.8238 -7.6436 2.8013
3.9168 -7.6290 2.7986
4.0103 -7.6141 2.7958
4.1043 -7.5990 2.7931
4.1989 -7.5836 2.7904
4.2940 -7.5680 2.7876
4.3897 -7.5522 2.7849
4.4860 -7.5361 2.7821
4.5827 -7.5195 2.7792
4.6803 -7.5030 2.7764
4.7786 -7.4862 2.7736
4.8775 -7.4692 2.7708
4.9772 -7.4518 2.7680
5.0776 -7.4342 2.7651
5.1787 -7.4163 2.7623
5.2805 -7.3979 2.7593
5.3833 -7.3794 2.7564
5.4869 -7.3606 2.7535
5.5913 -7.3414 2.7506
5.6966 -7.3218 2.7476
5.8027 -7.3019 2.7446
5.9098 -7.2817 2.7415
6.0179 -7.2611 2.7385
6.1270 -7.2402 2.7354
6.2372 -7.2189 2.7323
6.3484 -7.1972 2.7291
6.4607 -7.1751 2.7260
-15.2755 -3.7851 2.8604
-15.0026 -3.8733 2.8604
-13.9518 -3.7478 2.7080
-13.7068 -3.8260 2.7080
-13.4680 -3.9018 2.7080
-13.2352 -3.9752 2.7080
-13.0080 -4.0464 2.7080
-11.6962 -3.7645 2.4772
-11.7215 -3.9000 2.5253
-11.7472 -4.0372 2.5741
-12.1518 -4.3102 2.7080
-11.9498 -4.3714 2.7080
-11.7522 -4.4308 2.7080
-11.5589 -4.4885 2.7080
-11.3697 -4.5446 2.7080
-11.1844 -4.5991 2.7080
-11.0029 -4.6521 2.7080
-10.8251 -4.7036 2.7080
-10.6507 -4.7538 2.7080
-10.7082 -4.9072 2.7671
-10.8516 -5.1038 2.8497
-10.7173 -5.1712 2.8601
-10.5453 -5.2180 2.8597
-10.3765 -5.2636 2.8593
-10.2108 -5.3080 2.8590
-10.0479 -5.3512 2.8586
-9.8880 -5.3933 2.8583
-9.7307 -5.4343 2.8579
-9.5762 -5.4742 2.8576
-9.4242 -5.5132 2.8572
-9.2747 -5.5511 2.8569
-9.1276 -5.5881 2.8566
-8.9828 -5.6242 2.8563
-8.8403 -5.6594 2.8560
-8.6999 -5.6937 2.8556
-8.5617 -5.7272 2.8553
-8.4255 -5.7598 2.8550
-8.2913 -5.7917 2.8548
-8.1590 -5.8228 2.8545
-8.0286 -5.8531 2.8542
-7.9000 -5.8827 2.8539
-7.7731 -5.9116 2.8536
-7.6479 -5.9398 2.8534
-7.5244 -5.9673 2.8531
-7.4024 -5.9942 2.8528
-7.2820 -6.0204 2.8526
-7.1631 -6.0460 2.8523
-7.0457 -6.0710 2.8521
-6.9297 -6.0954 2.8518
-6.8150 -6.1192 2.8516
-6.7017 -6.1425 2.8513
-6.5897 -6.1652 2.8511
-6.4790 -6.1874 2.8509
-6.3695 -6.2091 2.8506
-6.2612 -6.2303 2.8504
-6.1540 -6.2509 2.8502
-6.0479 -6.2711 2.8499
-5.9430 -6.2908 2.8497
-5.8391 -6.3100 2.8495
-5.7362 -6.3288 2.8493
-5.6344 -6.3471 2.8491
-5.5335 -6.3651 2.8489
-5.4336 -6.3825 2.8487
-5.3346 -6.3996 2.8484
-5.2365 -6.4162 2.8482
-5.1392 -6.4325 2.8480
-5.0428 -6.4484 2.8478
-4.9473 -6.4638 2.8476
-4.8525 -6.4789 2.8474
-4.7585 -6.4936 2.8472
-4.6653 -6.5080 2.8471
-4.5728 -6.5220 2.8469
-4.4810 -6.5356 2.8467
-4.3899 -6.5489 2.8465
-4.2995 -6.5619 2.8463
-4.2098 -6.5746 2.8461
-4.1207 -6.5869 2.8459
-4.0322 -6.5989 2.8457
-3.9443 -6.6106 2.8456
-3.8571 -6.6219 2.8454
-3.7703 -6.6330 2.8452
-3.6842 -6.6438 2.8450
-3.5985 -6.6542 2.8448
-3.5134 -6.6644 2.8447
-3.4288 -6.6743 2.8445
-3.3447 -6.6839 2.8443
-3.2611 -6.6933 2.8442
-3.1779 -6.7023 2.8440
-3.0952 -6.7111 2.8438
-3.0129 -6.7196 2.8436
-2.9310 -6.7279 2.8435
-2.8495 -6.7359 2.8433
-2.7685 -6.7436 2.8432
-2.6878 -6.7511 2.8430
-2.6074 -6.7584 2.8428
-2.5275 -6.7653 2.8427
-2.4478 -6.7721 2.8425
-2.3685 -6.7786 2.8424
-2.2896 -6.7849 2.8422
-2.2109 -6.7909 2.8420
-2.1325 -6.7967 2.8419
-1.0810 -3.5793 1.4953
-1.0384 -3.5763 1.4928
-0.9961 -3.5734 1.4904
-0.9541 -3.5704 1.4880
-0.9123 -3.5675 1.4857
-0.8709 -3.5646 1.4834
-0.8297 -3.5617 1.4813
-0.7888 -3.5588 1.4791
-0.7481 -3.5560 1.4770
-0.7076 -3.5531 1.4750
-0.6674 -3.5503 1.4731
-0.6273 -3.5475 1.4712
-0.5875 -3.5447 1.4693
-0.5479 -3.5420 1.4675
-0.5084 -3.5392 1.4657
-0.4691 -3.5364 1.4640
-0.4300 -3.5337 1.4624
-0.3911 -3.5310 1.4608
-0.3522 -3.5283 1.4592
-0.3135 -3.5255 1.4577
-0.2750 -3.5228 1.4563
-0.2365 -3.5201 1.4549
-0.1982 -3.5175 1.4535
-0.1600 -3.5148 1.4522
-0.1218 -3.5121 1.4510
-0.0838 -3.5094 1.4497
-0.0458 -3.5068 1.4486
-0.0079 -3.5041 1.4474
0.0300 -3.5015 1.4464
0.0678 -3.4988 1.4453
0.1055 -3.4962 1.4443
0.1433 -3.4935 1.4434
0.1810 -3.4909 1.4425
0.2187 -3.4883 1.4416
0.2563 -3.4856 1.4408
0.2940 -3.4830 1.4400
0.3317 -3.4803 1.4393
0.3693 -3.4777 1.4386
0.4071 -3.4751 1.4379
0.4448 -3.4724 1.4373
0.4826 -3.4698 1.4368
0.5204 -3.4671 1.4362
0.5583 -3.4645 1.4358
0.5962 -3.4618 1.4353
0.6342 -3.4591 1.4349
0.6723 -3.4565 1.4346
0.7104 -3.4538 1.4343
1.4802 -6.8231 2.8351
1.5563 -6.8185 2.8350
1.6325 -6.8137 2.8348
1.7089 -6.8087 2.8347
1.7855 -6.8035 2.8346
1.8623 -6.7981 2.8344
1.9394 -6.7924 2.8343
2.0167 -6.7865 2.8342
2.0942 -6.7803 2.8340
2.1721 -6.7740 2.8339
2.2501 -6.7674 2.8337
2.3285 -6.7605 2.8336
2.4072 -6.7534 2.8335
2.4862 -6.7461 2.8333
2.5655 -6.7385 2.8332
2.6451 -6.7307 2.8331
2.7251 -6.7227 2.8329
2.8054 -6.7143 2.8328
2.8861 -6.7058 2.8326
2.9672 -6.6969 2.8325
3.0487 -6.6878 2.8324
3.1305 -6.6785 2.8322
3.2128 -6.6688 2.8321
3.2956 -6.6589 2.8320
3.3787 -6.6487 2.8318
3.4624 -6.6383 2.8317
3.5465 -6.6275 2.8315
3.6311 -6.6165 2.8314
3.7162 -6.6052 2.8312
3.8009 -6.5919 2.8304
3.8846 -6.5757 2.8284
3.9681 -6.5584 2.8261
4.0521 -6.5408 2.8238
4.1366 -6.5228 2.8214
4.2214 -6.5044 2.8190
4.3066 -6.4857 2.8165
4.3923 -6.4666 2.8141
4.4787 -6.4473 2.8117
4.5658 -6.4281 2.8095
4.6532 -6.4082 2.8071
4.7411 -6.3878 2.8047
4.8296 -6.3671 2.8022
4.9187 -6.3461 2.7998
5.0085 -6.3248 2.7974
5.0988 -6.3031 2.7949
5.1898 -6.2809 2.7925
5.2815 -6.2584 2.7901
5.3739 -6.2356 2.7876
5.4670 -6.2123 2.7851
5.5608 -6.1885 2.7827
5.6553 -6.1643 2.7802
-11.5471 -2.7002 2.7080
-11.3751 -2.7776 2.7080
-11.2064 -2.8530 2.7080
-11.0409 -2.9265 2.7080
-10.8786 -2.9979 2.7080
-10.7192 -3.0676 2.7080
-10.5627 -3.1355 2.7080
-10.4090 -3.2016 2.7080
-10.2580 -3.2661 2.7080
-10.1096 -3.3289 2.7080
-9.9638 -3.3902 2.7080
-9.8204 -3.4500 2.7080
-9.6793 -3.5083 2.7080
-9.6461 -3.6046 2.7380
-9.7547 -3.7557 2.8090
-9.7910 -3.8816 2.8603
-9.6501 -3.9370 2.8600
-9.5114 -3.9911 2.8597
-9.3748 -4.0439 2.8593
-9.2402 -4.0954 2.8590
-9.1077 -4.1458 2.8587
-8.9770 -4.1949 2.8584
-8.8483 -4.2429 2.8581
-8.7213 -4.2898 2.8578
-8.5961 -4.3356 2.8575
-8.4727 -4.3804 2.8572
-8.3509 -4.4241 2.8569
-8.2306 -4.4669 2.8566
-8.1120 -4.5087 2.8563
-7.9949 -4.5495 2.8561
-7.8793 -4.5894 2.8558
-7.7651 -4.6285 2.8555
-7.6523 -4.6666 2.8553
-7.5409 -4.7039 2.8550
-7.4308 -4.7404 2.8548
-7.3220 -4.7761 2.8545
-7.2144 -4.8110 2.8543
-7.1081 -4.8451 2.8540
-7.0029 -4.8785 2.8538
-6.8989 -4.9112 2.8535
-6.7960 -4.9431 2.8533
-6.6942 -4.9744 2.8531
-6.5935 -5.0049 2.8528
-6.4938 -5.0348 2.8526
-6.3952 -5.0641 2.8524
-6.2975 -5.0927 2.8522
-6.2008 -5.1207 2.8519
-6.1050 -5.1481 2.8517
-6.0101 -5.1749 2.8515
-5.9161 -5.2011 2.8513
-5.8229 -5.2268 2.8511
-5.7307 -5.2518 2.8509
-5.6392 -5.2764 2.8507
-5.5485 -5.3004 2.8505
-5.4586 -5.3239 2.8503
-5.3695 -5.3469 2.8501
-5.2811 -5.3693 2.8499
-5.1934 -5.3913 2.8497
-5.1065 -5.4128 2.8495
-5.0202 -5.4338 2.8493
-4.9346 -5.4544 2.8491
-4.8496 -5.4745 2.8489
-4.7653 -5.4941 2.8488
-4.6816 -5.5133 2.8486
-4.5985 -5.5321 2.8484
-4.5160 -5.5504 2.8482
-4.4340 -5.5683 2.8480
-4.3527 -5.5859 2.8479
-4.2718 -5.6030 2.8477
-4.1915 -5.6197 2.8475
-4.1117 -5.6360 2.8473
-4.0325 -5.6519 2.8472
-3.9537 -5.6675 2.8470
-3.8753 -5.6827 2.8468
-3.7975 -5.6975 2.8466
-3.7201 -5.7120 2.8465
-3.6432 -5.7261 2.8463
-3.5666 -5.7398 2.8462
-3.4905 -5.7533 2.8460
-3.4148 -5.7663 2.8458
-3.3396 -5.7791 2.8457
-3.2646 -5.7914 2.8455
-3.1901 -5.8035 2.8454
-3.1159 -5.8153 2.8452
-3.0421 -5.8267 2.8450
-2.9686 -5.8378 2.8449
-2.8955 -5.8486 2.8447
-2.8227 -5.8591 2.8446
-2.7502 -5.8693 2.8444
-2.6780 -5.8792 2.8443
-2.6061 -5.8889 2.8441
-2.5345 -5.8982 2.8440
-2.4631 -5.9072 2.8438
-2.3921 -5.9159 2.8437
-2.3213 -5.9244 2.8435
-2.2507 -5.9325 2.8434
-2.1804 -5.9404 2.8433
-2.1104 -5.9480 2.8431
-2.0405 -5.9554 2.8430
-1.9709 -5.9625 2.8428
-1.9015 -5.9693 2.8427
-1.0978 -3.5804 1.7031
-1.0545 -3.5774 1.6998
-1.0114 -3.5744 1.6966
-0.9687 -3.5714 1.6935
-0.9263 -3.5684 1.6904
-0.8842 -3.5655 1.6875
-0.8423 -3.5625 1.6846
-0.8007 -3.5596 1.6818
-0.7594 -3.5567 1.6791
-0.7183 -3.5538 1.6765
-0.6774 -3.5510 1.6740
-0.6368 -3.5481 1.6715
-0.5963 -3.5453 1.6691
-0.5561 -3.5425 1.6668
-0.5160 -3.5397 1.6646
-0.4761 -3.5369 1.6625
-0.4364 -3.5341 1.6604
-0.3968 -3.5313 1.6584
-0.3574 -3.5286 1.6564
-0.3182 -3.5258 1.6546
-0.2790 -3.5231 1.6528
-0.2400 -3.5203 1.6511
-0.2011 -3.5176 1.6494
-0.1623 -3.5149 1.6479
-0.1236 -3.5122 1.6464
-0.0850 -3.5095 1.6449
-0.0465 -3.5068 1.6435
-0.0080 -3.5041 1.6422
0.0304 -3.5014 1.6410
0.0688 -3.4987 1.6398
0.1071 -3.4960 1.6387
0.1454 -3.4933 1.6377
0.1836 -3.4907 1.6367
0.2218 -3.4880 1.6358
0.2601 -3.4853 1.6349
0.2983 -3.4826 1.6341
0.3365 -3.4800 1.6334
0.3747 -3.4773 1.6327
0.4130 -3.4746 1.6321
0.4513 -3.4719 1.6316
0.4896 -3.4692 1.6311
0.5280 -3.4665 1.6307
0.5664 -3.4638 1.6304
0.6049 -3.4611 1.6301
0.6435 -3.4584 1.6299
0.6821 -3.4557 1.6297
0.7209 -3.4530 1.6296
1.3224 -6.0058 2.8366
1.3901 -6.0006 2.8365
1.4579 -5.9952 2.8364
1.5259 -5.9896 2.8363
1.5940 -5.9837 2.8361
1.6623 -5.9775 2.8360
1.7307 -5.9710 2.8359
1.7993 -5.9643 2.8358
1.8681 -5.9574 2.8357
1.9371 -5.9502 2.8356
2.0063 -5.9427 2.8354
2.0756 -5.9349 2.8353
2.1452 -5.9269 2.8352
2.2150 -5.9186 2.8351
2.2850 -5.9100 2.8350
2.3553 -5.9012 2.8348
2.4258 -5.8920 2.8347
2.4966 -5.8826 2.8346
2.5676 -5.8729 2.8345
2.6389 -5.8629 2.8344
2.7104 -5.8526 2.8343
2.7823 -5.8420 2.8341
2.8544 -5.8311 2.8340
2.9269 -5.8199 2.8339
2.9997 -5.8084 2.8338
3.0727 -5.7966 2.8337
3.1462 -5.7845 2.8335
3.2199 -5.7720 2.8334
3.2940 -5.7593 2.8333
3.3685 -5.7461 2.8332
3.4434 -5.7327 2.8331
3.5186 -5.7189 2.8329
3.5943 -5.7048 2.8328
3.6703 -5.6903 2.8327
3.7468 -5.6755 2.8326
3.8236 -5.6604 2.8325
3.9010 -5.6448 2.8323
3.9787 -5.6289 2.8322
4.0570 -5.6126 2.8321
4.1357 -5.5960 2.8320
4.2149 -5.5789 2.8319
4.2946 -5.5615 2.8317
4.3749 -5.5437 2.8316
4.4556 -5.5254 2.8315
4.5369 -5.5068 2.8314
4.6188 -5.4877 2.8312
4.7012 -5.4682 2.8311
4.7815 -5.4451 2.8293
4.8618 -5.4211 2.8273
4.9425 -5.3966 2.8252
5.0238 -5.3717 2.8232
-9.5873 -2.1062 2.7080
-9.4637 -2.1766 2.7080
-9.3418 -2.2454 2.7080
-9.2217 -2.3126 2.7080
-9.1033 -2.3783 2.7080
-8.9864 -2.4425 2.7080
-8.8712 -2.5054 2.7080
-8.8105 -2.5824 2.7245
-8.8962 -2.7032 2.7867
-8.9842 -2.8272 2.8507
-8.8984 -2.8974 2.8602
-8.7835 -2.9565 2.8599
-8.6699 -3.0144 2.8596
-8.5578 -3.0710 2.8593
-8.4471 -3.1264 2.8590
-8.3377 -3.1806 2.8587
-8.2296 -3.2337 2.8585
-8.1228 -3.2856 2.8582
-8.0172 -3.3365 2.8579
-7.9128 -3.3863 2.8577
-7.8096 -3.4350 2.8574
-7.7076 -3.4827 2.8571
-7.6066 -3.5295 2.8569
-7.5068 -3.5753 2.8566
-7.4080 -3.6201 2.8564
-7.3102 -3.6640 2.8561
-7.2135 -3.7070 2.8559
-7.1177 -3.7491 2.8557
-7.0229 -3.7904 2.8554
-6.9290 -3.8308 2.8552
-6.8361 -3.8704 2.8550
-6.7440 -3.9092 2.8547
-6.6528 -3.9473 2.8545
-6.5625 -3.9845 2.8543
-6.4730 -4.0210 2.8541
-6.3843 -4.0568 2.8539
-6.2964 -4.0918 2.8537
-6.2093 -4.1261 2.8534
-6.1229 -4.1598 2.8532
-6.0373 -4.1928 2.8530
-5.9524 -4.2251 2.8528
-5.8681 -4.2567 2.8526
-5.7846 -4.2877 2.8524
-5.7018 -4.3181 2.8522
-5.6196 -4.3479 2.8520
-5.5380 -4.3771 2.8518
-5.4571 -4.4057 2.8517
-5.3768 -4.4337 2.8515
-5.2971 -4.4612 2.8513
-5.2179 -4.4881 2.8511
-5.1394 -4.5145 2.8509
-5.0614 -4.5403 2.8507
-4.9839 -4.5656 2.8506
-4.9070 -4.5904 2.8504
-4.8306 -4.6146 2.8502
-4.7547 -4.6384 2.8500
-4.6793 -4.6617 2.8498
-4.6044 -4.6844 2.8497
-4.5300 -4.7068 2.8495
-4.4560 -4.7286 2.8493
-4.3825 -4.7500 2.8492
-4.3094 -4.7709 2.8490
-4.2368 -4.7914 2.8488
-4.1645 -4.8115 2.8487
-4.0927 -4.8311 2.8485
-4.0213 -4.8503 2.8483
-3.9503 -4.8691 2.8482
-3.8797 -4.8875 2.8480
-3.8095 -4.9055 2.8479
-3.7396 -4.9231 2.8477
-3.6700 -4.9402 2.8475
-3.6009 -4.9570 2.8474
-3.5320 -4.9734 2.8472
-3.4635 -4.9895 2.8471
-3.3954 -5.0051 2.8469
-3.3275 -5.0204 2.8468
-3.2600 -5.0353 2.8466
-3.1927 -5.0499 2.8465
-3.1258 -5.0641 2.8463
-3.0591 -5.0780 2.8462
-2.9927 -5.0915 2.8460
-2.9266 -5.1047 2.8459
-2.8607 -5.1175 2.8458
-2.7952 -5.1301 2.8456
-2.7298 -5.1422 2.8455
-2.6647 -5.1541 2.8453
-2.5999 -5.1656 2.8452
-2.5352 -5.1769 2.8451
-2.4708 -5.1878 2.8449
-2.4066 -5.1983 2.8448
-2.3427 -5.2086 2.8447
-2.2789 -5.2186 2.8445
-2.2153 -5.2283 2.8444
-2.1520 -5.2376 2.8443
-2.0888 -5.2467 2.8441
-2.0258 -5.2555 2.8440
-1.9629 -5.2640 2.8439
-1.9003 -5.2722 2.8437
-1.8378 -5.2801 2.8436
-1.7754 -5.2877 2.8435
-1.7132 -5.2950 2.8434
-1.6512 -5.3021 2.8432
-1.0713 -3.5785 1.9164
-1.0275 -3.5754 1.9124
-0.9841 -3.5724 1.9084
-0.9409 -3.5694 1.9046
-0.8981 -3.5664 1.9009
-0.8555 -3.5634 1.8973
-0.8132 -3.5604 1.8938
-0.7712 -3.5575 1.8904
-0.7294 -3.5546 1.8872
-0.6879 -3.5517 1.8840
-0.6466 -3.5488 1.8810
-0.6055 -3.5459 1.8780
-0.5646 -3.5430 1.8752
-0.5239 -3.5402 1.8725
-0.4834 -3.5373 1.8698
-0.4431 -3.5345 1.8673
-0.4029 -3.5317 1.8649
-0.3629 -3.5289 1.8625
-0.3230 -3.5261 1.8603
-0.2833 -3.5233 1.8581
-0.2437 -3.5205 1.8561
-0.2042 -3.5178 1.8541
-0.1648 -3.5150 1.8522
-0.1255 -3.5123 1.8505
-0.0863 -3.5095 1.8488
-0.0472 -3.5068 1.8472
-0.0081 -3.5040 1.8457
0.0309 -3.5013 1.8443
0.0698 -3.4986 1.8430
0.1087 -3.4959 1.8417
0.1475 -3.4931 1.8406
0.1864 -3.4904 1.8395
0.2252 -3.4877 1.8385
0.2640 -3.4850 1.8377
0.3027 -3.4823 1.8369
0.3415 -3.4795 1.8361
0.3804 -3.4768 1.8355
0.4192 -3.4741 1.8350
0.4581 -3.4714 1.8345
0.4970 -3.4687 1.8342
0.5359 -3.4659 1.8339
0.5749 -3.4632 1.8337
0.6140 -3.4605 1.8336
0.6532 -3.4577 1.8336
0.6924 -3.4550 1.8336
0.7318 -3.4522 1.8338
1.1933 -5.3375 2.8379
1.2542 -5.3320 2.8378
1.3152 -5.3263 2.8376
1.3764 -5.3203 2.8375
1.4376 -5.3141 2.8374
1.4989 -5.3075 2.8373
1.5604 -5.3007 2.8372
1.6220 -5.2937 2.8371
1.6837 -5.2863 2.8370
1.7455 -5.2787 2.8369
1.8075 -5.2708 2.8368
1.8697 -5.2626 2.8367
1.9319 -5.2541 2.8366
1.9944 -5.2453 2.8365
2.0570 -5.2362 2.8364
2.1197 -5.2269 2.8363
2.1827 -5.2172 2.8362
2.2458 -5.2073 2.8361
2.3091 -5.1970 2.8360
2.3726 -5.1865 2.8359
2.4363 -5.1756 2.8358
2.5002 -5.1644 2.8357
2.5643 -5.1529 2.8356
2.6286 -5.1411 2.8355
2.6932 -5.1290 2.8354
2.7579 -5.1166 2.8353
2.8229 -5.1038 2.8352
2.8882 -5.0907 2.8351
2.9537 -5.0773 2.8350
3.0194 -5.0635 2.8349
3.0855 -5.0494 2.8348
3.1518 -5.0350 2.8347
3.2183 -5.0202 2.8346
3.2852 -5.0050 2.8344
3.3523 -4.9895 2.8343
3.4197 -4.9736 2.8342
3.4875 -4.9574 2.8341
3.5555 -4.9407 2.8340
3.6239 -4.9237 2.8339
3.6926 -4.9064 2.8338
3.7617 -4.8886 2.8337
3.8311 -4.8704 2.8336
3.9008 -4.8519 2.8335
3.9709 -4.8329 2.8334
4.0414 -4.8135 2.8333
4.1123 -4.7937 2.8332
4.1836 -4.7735 2.8331
4.2552 -4.7528 2.8330
4.3273 -4.7317 2.8329
4.3998 -4.7102 2.8328
4.4727 -4.6882 2.8327
-8.1738 -1.6779 2.7080
-8.1297 -1.7522 2.7246
-8.1995 -1.8519 2.7798
-8.2708 -1.9538 2.8365
-8.2443 -2.0335 2.8603
-8.1487 -2.0955 2.8600
-8.0541 -2.1562 2.8598
-7.9604 -2.2157 2.8595
-7.8676 -2.2741 2.8592
-7.7758 -2.3313 2.8590
-7.6848 -2.3875 2.8587
-7.5947 -2.4425 2.8585
-7.5054 -2.4965 2.8582
-7.4169 -2.5494 2.8580
-7.3293 -2.6014 2.8578
-7.2424 -2.6523 2.8575
-7.1563 -2.7023 2.8573
-7.0710 -2.7513 2.8571
-6.9864 -2.7994 2.8568
-6.9025 -2.8465 2.8566
-6.8194 -2.8928 2.8564
-6.7369 -2.9382 2.8562
-6.6551 -2.9828 2.8560
-6.5740 -3.0265 2.8558
-6.4935 -3.0694 2.8555
-6.4137 -3.1115 2.8553
-6.3344 -3.1528 2.8551
-6.2558 -3.1933 2.8549
-6.1778 -3.2331 2.8547
-6.1004 -3.2721 2.8545
-6.0235 -3.3104 2.8543
-5.9472 -3.3480 2.8541
-5.8715 -3.3849 2.8539
-5.7963 -3.4211 2.8537
-5.7216 -3.4566 2.8536
-5.6474 -3.4915 2.8534
-5.5738 -3.5257 2.8532
-5.5006 -3.5593 2.8530
-5.4280 -3.5922 2.8528
-5.3557 -3.6245 2.8526
-5.2840 -3.6562 2.8525
-5.2127 -3.6874 2.8523
-5.1419 -3.7179 2.8521
-5.0715 -3.7479 2.8519
-5.0016 -3.7773 2.8518
-4.9320 -3.8061 2.8516
-4.8629 -3.8344 2.8514
-4.7942 -3.8622 2.8513
-4.7258 -3.8894 2.8511
-4.6579 -3.9161 2.8509
-4.5903 -3.9423 2.8508
-4.5232 -3.9680 2.8506
-4.4563 -3.9932 2.8504
-4.3899 -4.0180 2.8503
-4.3237 -4.0422 2.8501
-4.2580 -4.0659 2.8499
-4.1925 -4.0892 2.8498
-4.1274 -4.1121 2.8496
-4.0626 -4.1344 2.8495
-3.9982 -4.1564 2.8493
-3.9340 -4.1779 2.8492
-3.8701 -4.1989 2.8490
-3.8066 -4.2196 2.8489
-3.7433 -4.2398 2.8487
-3.6803 -4.2596 2.8486
-3.6176 -4.2789 2.8484
-3.5552 -4.2979 2.8483
-3.4930 -4.3165 2.8481
-3.4311 -4.3347 2.8480
-3.3694 -4.3525 2.8479
-3.3080 -4.3699 2.8477
-3.2468 -4.3870 2.8476
-3.1859 -4.4036 2.8474
-3.1252 -4.4199 2.8473
-3.0647 -4.4358 2.8472
-3.0045 -4.4514 2.8470
-2.9444 -4.4666 2.8469
-2.8846 -4.4814 2.8468
-2.8250 -4.4959 2.8466
-2.7656 -4.5101 2.8465
-2.7063 -4.5239 2.8464
-2.6473 -4.5373 2.8462
-2.5885 -4.5504 2.8461
-2.5298 -4.5632 2.8460
-2.4713 -4.5757 2.8458
-2.4130 -4.5879 2.8457
-2.3549 -4.5997 2.8456
-2.2969 -4.6112 2.8455
-2.2391 -4.6224 2.8453
-2.1814 -4.6332 2.8452
-2.1239 -4.6438 2.8451
-2.0666 -4.6541 2.8450
-2.0094 -4.6640 2.8449
-1.9523 -4.6736 2.8447
-1.8953 -4.6830 2.8446
-1.8385 -4.6920 2.8445
-1.7818 -4.7008 2.8444
-1.7253 -4.7092 2.8443
-1.6688 -4.7174 2.8441
-1.6125 -4.7252 2.8440
-1.5563 -4.7328 2.8439
-1.5001 -4.7401 2.8438
-1.4441 -4.7471 2.8437
-1.0444 -3.5766 2.1394
-1.0002 -3.5735 2.1345
-0.9563 -3.5704 2.1298
-0.9127 -3.5673 2.1253
-0.8694 -3.5643 2.1209
-0.8264 -3.5613 2.1167
-0.7837 -3.5583 2.1126
-0.7412 -3.5553 2.1086
-0.6989 -3.5524 2.1048
-0.6569 -3.5494 2.1011
-0.6152 -3.5465 2.0976
-0.5736 -3.5436 2.0942
-0.5322 -3.5407 2.0909
-0.4911 -3.5378 2.0877
-0.4501 -3.5349 2.0847
-0.4092 -3.5321 2.0818
-0.3686 -3.5292 2.0790
-0.3281 -3.5264 2.0764
-0.2877 -3.5236 2.0738
-0.2475 -3.5207 2.0714
-0.2074 -3.5179 2.0691
-0.1673 -3.5151 2.0669
-0.1274 -3.5123 2.0649
-0.0876 -3.5096 2.0629
-0.0479 -3.5068 2.0611
-0.0082 -3.5040 2.0594
0.0314 -3.5012 2.0578
0.0709 -3.4984 2.0563
0.1104 -3.4957 2.0549
0.1498 -3.4929 2.0537
0.1893 -3.4902 2.0525
0.2287 -3.4874 2.0515
0.2681 -3.4846 2.0506
0.3074 -3.4819 2.0498
0.3468 -3.4791 2.0491
0.3863 -3.4764 2.0485
0.4257 -3.4736 2.0480
0.4652 -3.4708 2.0476
0.5047 -3.4681 2.0474
0.5443 -3.4653 2.0472
0.5839 -3.4625 2.0472
0.6236 -3.4597 2.0473
0.6634 -3.4569 2.0475
0.7032 -3.4542 2.0478
0.7432 -3.4514 2.0482
0.8732 -3.8445 2.2839
1.1407 -4.7730 2.8388
1.1960 -4.7672 2.8387
1.2514 -4.7611 2.8386
1.3070 -4.7547 2.8385
1.3625 -4.7480 2.8384
1.4182 -4.7411 2.8383
1.4740 -4.7339 2.8382
1.5298 -4.7264 2.8381
1.5858 -4.7186 2.8381
1.6418 -4.7105 2.8380
1.6980 -4.7021 2.8379
1.7543 -4.6935 2.8378
1.8106 -4.6845 2.8377
1.8671 -4.6753 2.8376
1.9237 -4.6658 2.8375
1.9805 -4.6559 2.8374
2.0373 -4.6458 2.8373
2.0943 -4.6353 2.8372
2.1514 -4.6246 2.8371
2.2087 -4.6135 2.8370
2.2661 -4.6021 2.8370
2.3237 -4.5905 2.8369
2.3814 -4.5785 2.8368
2.4392 -4.5661 2.8367
2.4973 -4.5535 2.8366
2.5555 -4.5405 2.8365
2.6138 -4.5272 2.8364
2.6724 -4.5136 2.8363
2.7311 -4.4996 2.8362
2.7900 -4.4853 2.8362
2.8491 -4.4707 2.8361
2.9084 -4.4557 2.8360
2.9679 -4.4404 2.8359
3.0275 -4.4247 2.8358
3.0874 -4.4086 2.8357
3.1476 -4.3922 2.8356
3.2079 -4.3754 2.8355
3.2684 -4.3583 2.8354
3.3292 -4.3407 2.8354
3.3902 -4.3228 2.8353
3.4515 -4.3045 2.8352
3.5130 -4.2859 2.8351
3.5748 -4.2668 2.8350
3.6368 -4.2473 2.8349
3.6990 -4.2274 2.8348
3.7616 -4.2072 2.8348
3.8244 -4.1865 2.8347
3.8875 -4.1653 2.8346
3.9509 -4.1438 2.8345
4.0145 -4.1218 2.8344
-7.5003 -1.4289 2.8598
-7.4221 -1.4899 2.8596
-7.3445 -1.5497 2.8594
-7.2675 -1.6085 2.8591
-7.1910 -1.6663 2.8589
-7.1151 -1.7230 2.8587
-7.0397 -1.7787 2.8585
-6.9649 -1.8335 2.8583
-6.8906 -1.8873 2.8580
-6.8168 -1.9401 2.8578
-6.7435 -1.9920 2.8576
-6.6706 -2.0430 2.8574
-6.5983 -2.0931 2.8572
-6.5264 -2.1424 2.8570
-6.4550 -2.1907 2.8568
-6.3841 -2.2383 2.8566
-6.3136 -2.2850 2.8564
-6.2436 -2.3309 2.8562
-6.1740 -2.3760 2.8560
-6.1048 -2.4204 2.8558
-6.0361 -2.4639 2.8556
-5.9677 -2.5067 2.8554
-5.8998 -2.5488 2.8552
-5.8323 -2.5901 2.8551
-5.7651 -2.6308 2.8549
-5.6984 -2.6707 2.8547
-5.6320 -2.7099 2.8545
-5.5660 -2.7485 2.8543
-5.5004 -2.7863 2.8542
-5.4351 -2.8236 2.8540
-5.3702 -2.8602 2.8538
-5.3057 -2.8961 2.8536
-5.2414 -2.9314 2.8535
-5.1776 -2.9661 2.8533
-5.1140 -3.0002 2.8531
-5.0508 -3.0337 2.8530
-4.9879 -3.0667 2.8528
-4.9253 -3.0990 2.8526
-4.8630 -3.1308 2.8525
-4.8010 -3.1620 2.8523
-4.7394 -3.1927 2.8522
-4.6780 -3.2228 2.8520
-4.6169 -3.2524 2.8518
-4.5561 -3.2815 2.8517
-4.4955 -3.3100 2.8515
-4.4353 -3.3381 2.8514
-4.3753 -3.3656 2.8512
-4.3155 -3.3926 2.8511
-4.2561 -3.4192 2.8509
-4.1968 -3.4453 2.8508
-4.1379 -3.4709 2.8506
-4.0792 -3.4960 2.8505
-4.0207 -3.5206 2.8503
-3.9625 -3.5449 2.8502
-3.9044 -3.5686 2.8500
-3.8467 -3.5919 2.8499
-3.7891 -3.6148 2.8497
-3.7318 -3.6373 2.8496
-3.6746 -3.6593 2.8495
-3.6177 -3.6809 2.8493
-3.5610 -3.7020 2.8492
-3.5045 -3.7228 2.8491
-3.4482 -3.7432 2.8489
-3.3921 -3.7631 2.8488
-3.3362 -3.7827 2.8487
-3.2805 -3.8019 2.8485
-3.2250 -3.8207 2.8484
-3.1696 -3.8391 2.8483
-3.1144 -3.8571 2.8481
-3.0594 -3.8747 2.8480
-3.0046 -3.8920 2.8479
-2.9500 -3.9089 2.8477
-2.8955 -3.9255 2.8476
-2.8411 -3.9417 2.8475
-2.7869 -3.9575 2.8474
-2.7329 -3.9730 2.8472
-2.6790 -3.9882 2.8471
-2.6253 -4.0029 2.8470
-2.5717 -4.0174 2.8469
-2.5182 -4.0315 2.8468
-2.4649 -4.0453 2.8466
-2.4118 -4.0588 2.8465
-2.3587 -4.0719 2.8464
-2.3058 -4.0847 2.8463
-2.2530 -4.0972 2.8462
-2.2003 -4.1093 2.8460
-2.1478 -4.1212 2.8459
-2.0953 -4.1327 2.8458
-2.0430 -4.1439 2.8457
-1.9908 -4.1548 2.8456
-1.9387 -4.1654 2.8455
-1.8867 -4.1757 2.8454
-1.8348 -4.1857 2.8452
-1.7830 -4.1954 2.8451
-1.7313 -4.2047 2.8450
-1.6796 -4.2138 2.8449
-1.6281 -4.2226 2.8448
-1.5767 -4.2311 2.8447
-1.5253 -4.2394 2.8446
-1.4740 -4.2473 2.8445
-1.4228 -4.2549 2.8444
-1.3717 -4.2623 2.8443
-1.3207 -4.2694 2.8442
-1.0623 -3.5778 2.3796
-1.0173 -3.5746 2.3738
-0.9726 -3.5715 2.3682
-0.9282 -3.5684 2.3627
-0.8841 -3.5653 2.3575
-0.8403 -3.5622 2.3524
-0.7968 -3.5592 2.3475
-0.7536 -3.5561 2.3428
-0.7106 -3.5531 2.3383
-0.6679 -3.5501 2.3339
-0.6254 -3.5472 2.3297
-0.5831 -3.5442 2.3256
-0.5410 -3.5413 2.3218
-0.4992 -3.5383 2.3180
-0.4575 -3.5354 2.3145
-0.4160 -3.5325 2.3110
-0.3746 -3.5296 2.3078
-0.3334 -3.5267 2.3047
-0.2924 -3.5238 2.3017
-0.2515 -3.5210 2.2989
-0.2107 -3.5181 2.2962
-0.1701 -3.5153 2.2937
-0.1295 -3.5124 2.2914
-0.0890 -3.5096 2.2891
-0.0487 -3.5068 2.2871
-0.0084 -3.5039 2.2851
0.0319 -3.5011 2.2833
0.0720 -3.4983 2.2817
0.1122 -3.4955 2.2801
0.1522 -3.4927 2.2788
0.1923 -3.4899 2.2775
0.2324 -3.4871 2.2764
0.2724 -3.4843 2.2755
0.3124 -3.4815 2.2746
0.3524 -3.4787 2.2740
0.3925 -3.4759 2.2734
0.4326 -3.4731 2.2730
0.4727 -3.4702 2.2727
0.5128 -3.4674 2.2726
0.5531 -3.4646 2.2726
0.5933 -3.4618 2.2727
0.6337 -3.4590 2.2730
0.6741 -3.4561 2.2734
0.7146 -3.4533 2.2740
0.7553 -3.4504 2.2747
0.8542 -3.6998 2.4420
0.9156 -3.7689 2.4908
1.0945 -4.2910 2.8396
1.1451 -4.2849 2.8395
1.1957 -4.2785 2.8394
1.2465 -4.2719 2.8394
1.2972 -4.2649 2.8393
1.3481 -4.2577 2.8392
1.3990 -4.2502 2.8391
1.4500 -4.2424 2.8390
1.5010 -4.2343 2.8389
1.5521 -4.2260 2.8389
1.6033 -4.2173 2.8388
1.6546 -4.2084 2.8387
1.7060 -4.1992 2.8386
1.7574 -4.1896 2.8385
1.8089 -4.1798 2.8384
1.8605 -4.1697 2.8384
1.9122 -4.1592 2.8383
1.9640 -4.1485 2.8382
2.0160 -4.1375 2.8381
2.0679 -4.1262 2.8380
2.1200 -4.1145 2.8380
2.1723 -4.1025 2.8379
2.2246 -4.0903 2.8378
2.2770 -4.0777 2.8377
2.3296 -4.0648 2.8376
2.3822 -4.0516 2.8376
2.4350 -4.0380 2.8375
2.4879 -4.0241 2.8374
2.5410 -4.0099 2.8373
2.5941 -3.9954 2.8373
2.6474 -3.9805 2.8372
2.7009 -3.9653 2.8371
2.7545 -3.9497 2.8370
2.8082 -3.9338 2.8369
2.8620 -3.9175 2.8369
2.9161 -3.9009 2.8368
2.9702 -3.8839 2.8367
3.0246 -3.8666 2.8366
3.0791 -3.8489 2.8366
3.1337 -3.8308 2.8365
3.1885 -3.8124 2.8364
3.2435 -3.7935 2.8363
3.2987 -3.7743 2.8363
3.3540 -3.7547 2.8362
3.4096 -3.7347 2.8361
3.4653 -3.7144 2.8360
3.5212 -3.6936 2.8360
3.5773 -3.6724 2.8359
3.6336 -3.6508 2.8358
-6.6064 -1.1584 2.8586
-6.5434 -1.2139 2.8584
-6.4806 -1.2685 2.8582
-6.4182 -1.3223 2.8580
-6.3561 -1.3751 2.8578
-6.2942 -1.4272 2.8576
-6.2326 -1.4784 2.8574
-6.1713 -1.5287 2.8573
-6.1103 -1.5783 2.8571
-6.0496 -1.6271 2.8569
-5.9891 -1.6751 2.8567
-5.9289 -1.7223 2.8565
-5.8689 -1.7688 2.8564
-5.8092 -1.8145 2.8562
-5.7498 -1.8595 2.8560
-5.6906 -1.9038 2.8558
-5.6317 -1.9474 2.8557
-5.5730 -1.9902 2.8555
-5.5146 -2.0324 2.8553
-5.4564 -2.0739 2.8551
-5.3984 -2.1148 2.8550
-5.3407 -2.1550 2.8548
-5.2832 -2.1945 2.8546
-5.2260 -2.2334 2.8545
-5.1689 -2.2717 2.8543
-5.1121 -2.3094 2.8542
-5.0555 -2.3464 2.8540
-4.9992 -2.3829 2.8538
-4.9430 -2.4188 2.8537
-4.8871 -2.4541 2.8535
-4.8314 -2.4888 2.8534
-4.7759 -2.5229 2.8532
-4.7206 -2.5565 2.8531
-4.6655 -2.5896 2.8529
-4.6106 -2.6221 2.8528
-4.5558 -2.6540 2.8526
-4.5013 -2.6855 2.8525
-4.4470 -2.7164 2.8523
-4.3929 -2.7468 2.8522
-4.3389 -2.7767 2.8520
-4.2852 -2.8061 2.8519
-4.2316 -2.8350 2.8517
-4.1782 -2.8634 2.8516
-4.1250 -2.8914 2.8515
-4.0719 -2.9188 2.8513
-4.0190 -2.9459 2.8512
-3.9663 -2.9724 2.8510
-3.9138 -2.9985 2.8509
-3.8614 -3.0241 2.8508
-3.8092 -3.0493 2.8506
-3.7571 -3.0740 2.8505
-3.7052 -3.0984 2.8504
-3.6534 -3.1223 2.8502
-3.6018 -3.1457 2.8501
-3.5504 -3.1688 2.8500
-3.4991 -3.1914 2.8498
-3.4479 -3.2136 2.8497
-3.3969 -3.2354 2.8496
-3.3461 -3.2568 2.8495
-3.2953 -3.2779 2.8493
-3.2447 -3.2985 2.8492
-3.1943 -3.3187 2.8491
-3.1439 -3.3386 2.8490
-3.0937 -3.3581 2.8488
-3.0436 -3.3772 2.8487
-2.9937 -3.3959 2.8486
-2.9439 -3.4143 2.8485
-2.8941 -3.4323 2.8484
-2.8445 -3.4499 2.8482
-2.7951 -3.4672 2.8481
-2.7457 -3.4842 2.8480
-2.6964 -3.5007 2.8479
-2.6473 -3.5170 2.8478
-2.5983 -3.5329 2.8476
-2.5493 -3.5484 2.8475
-2.5005 -3.5636 2.8474
-2.4518 -3.5785 2.8473
-2.4031 -3.5931 2.8472
-2.3546 -3.6073 2.8471
-2.3062 -3.6212 2.8470
-2.2578 -3.6348 2.8469
-2.2096 -3.6480 2.8467
-2.1614 -3.6610 2.8466
-2.1134 -3.6736 2.8465
-2.0654 -3.6859 2.8464
-2.0175 -3.6979 2.8463
-1.9696 -3.7096 2.8462
-1.9219 -3.7210 2.8461
-1.8742 -3.7321 2.8460
-1.8266 -3.7428 2.8459
-1.7791 -3.7533 2.8458
-1.7317 -3.7635 2.8457
-1.6843 -3.7734 2.8456
-1.6370 -3.7830 2.8455
-1.5897 -3.7923 2.8454
-1.5426 -3.8013 2.8453
-1.4954 -3.8100 2.8452
-1.4484 -3.8185 2.8451
-1.4014 -3.8266 2.8450
-1.3544 -3.8345 2.8449
-1.3076 -3.8421 2.8448
-1.2607 -3.8494 2.8447
-1.2139 -3.8564 2.8446
-1.1672 -3.8631 2.8445
-1.0354 -3.5758 2.6284
-0.9899 -3.5726 2.6218
-0.9446 -3.5695 2.6154
-0.8997 -3.5663 2.6092
-0.8551 -3.5632 2.6032
-0.8108 -3.5601 2.5975
-0.7668 -3.5570 2.5919
-0.7230 -3.5539 2.5866
-0.6795 -3.5509 2.5815
-0.6362 -3.5479 2.5765
-0.5932 -3.5448 2.5718
-0.5504 -3.5418 2.5672
-0.5078 -3.5389 2.5629
-0.4653 -3.5359 2.5587
-0.4231 -3.5329 2.5548
-0.3811 -3.5300 2.5510
-0.3392 -3.5271 2.5474
-0.2974 -3.5241 2.5440
-0.2558 -3.5212 2.5407
-0.2143 -3.5183 2.5377
-0.1730 -3.5154 2.5348
-0.1317 -3.5125 2.5321
-0.0906 -3.5096 2.5295
-0.0495 -3.5068 2.5272
-0.0085 -3.5039 2.5250
0.0324 -3.5010 2.5230
0.0733 -3.4982 2.5211
0.1141 -3.4953 2.5194
0.1548 -3.4925 2.5179
0.1956 -3.4896 2.5166
0.2363 -3.4867 2.5154
0.2770 -3.4839 2.5144
0.3177 -3.4810 2.5136
0.3584 -3.4782 2.5129
0.3991 -3.4753 2.5124
0.4399 -3.4725 2.5121
0.4807 -3.4696 2.5119
0.5215 -3.4668 2.5119
0.5624 -3.4639 2.5121
0.6034 -3.4610 2.5124
0.6444 -3.4581 2.5129
0.6856 -3.4553 2.5136
0.7268 -3.4524 2.5144
0.7681 -3.4495 2.5154
0.9138 -3.8902 2.8405
0.9602 -3.8847 2.8405
1.0066 -3.8789 2.8404
1.0530 -3.8729 2.8403
1.0995 -3.8666 2.8402
1.1461 -3.8600 2.8402
1.1926 -3.8532 2.8401
1.2392 -3.8460 2.8400
1.2859 -3.8386 2.8399
1.3326 -3.8310 2.8399
1.3794 -3.8230 2.8398
1.4262 -3.8147 2.8397
1.4730 -3.8062 2.8396
1.5199 -3.7974 2.8396
1.5669 -3.7883 2.8395
1.6139 -3.7789 2.8394
1.6610 -3.7692 2.8393
1.7081 -3.7592 2.8393
1.7553 -3.7489 2.8392
1.8026 -3.7384 2.8391
1.8499 -3.7275 2.8390
1.8973 -3.7164 2.8390
1.9448 -3.7049 2.8389
1.9923 -3.6931 2.8388
2.0400 -3.6811 2.8388
2.0877 -3.6687 2.8387
2.1354 -3.6560 2.8386
2.1833 -3.6430 2.8385
2.2312 -3.6297 2.8385
2.2792 -3.6160 2.8384
2.3273 -3.6021 2.8383
2.3755 -3.5878 2.8383
2.4238 -3.5732 2.8382
2.4722 -3.5583 2.8381
2.5206 -3.5431 2.8381
2.5692 -3.5275 2.8380
2.6179 -3.5115 2.8379
2.7155 -3.4787 2.8378
2.6666 -3.4953 2.8379
2.7644 -3.4617 2.8377
3.0109 -3.3717 2.8374
2.8135 -3.4444 2.8377
3.0605 -3.3526 2.8373
2.8627 -3.4268 2.8376
3.1103 -3.3331 2.8373
2.9120 -3.4087 2.8375
3.1601 -3.3132 2.8372
3.2101 -3.2930 2.8372
3.2602 -3.2724 2.8371
2.9614 -3.3904 2.8375
3.3105 -3.2515 2.8370
-5.8821 -0.9392 2.8576
-5.8302 -0.9899 2.8574
-5.7784 -1.0399 2.8573
-5.7267 -1.0892 2.8571
-5.6752 -1.1377 2.8569
-5.6238 -1.1856 2.8568
-5.5725 -1.2327 2.8566
-5.5213 -1.2791 2.8565
-5.4703 -1.3249 2.8563
-5.4194 -1.3700 2.8561
-5.3686 -1.4144 2.8560
-5.3179 -1.4581 2.8558
-5.2673 -1.5013 2.8557
-5.2169 -1.5437 2.8555
-5.1665 -1.5856 2.8553
-5.1163 -1.6268 2.8552
-5.0663 -1.6674 2.8550
-5.0163 -1.7074 2.8549
-4.9665 -1.7468 2.8547
-4.9168 -1.7857 2.8546
-4.8672 -1.8239 2.8544
-4.8177 -1.8616 2.8543
-4.7683 -1.8987 2.8541
-4.7191 -1.9352 2.8540
-4.6699 -1.9712 2.8539
-4.6209 -2.0067 2.8537
-4.5720 -2.0416 2.8536
-4.5232 -2.0760 2.8534
-4.4745 -2.1098 2.8533
-4.4260 -2.1432 2.8531
-4.3775 -2.1760 2.8530
-4.3292 -2.2083 2.8529
-4.2810 -2.2402 2.8527
-4.2329 -2.2715 2.8526
-4.1848 -2.3023 2.8525
-4.1370 -2.3327 2.8523
-4.0892 -2.3626 2.8522
-4.0415 -2.3920 2.8521
-3.9939 -2.4210 2.8519
-3.9464 -2.4494 2.8518
-3.8991 -2.4775 2.8517
-3.8518 -2.5051 2.8515
-3.8046 -2.5323 2.8514
-3.7576 -2.5590 2.8513
-3.7106 -2.5853 2.8511
-3.6638 -2.6111 2.8510
-3.6170 -2.6365 2.8509
-3.5703 -2.6616 2.8508
-3.5237 -2.6861 2.8506
-3.4773 -2.7103 2.8505
-3.4309 -2.7341 2.8504
-3.3846 -2.7575 2.8503
-3.3384 -2.7805 2.8502
-3.2923 -2.8031 2.8500
-3.2462 -2.8253 2.8499
-3.2003 -2.8471 2.8498
-3.1545 -2.8685 2.8497
-3.1087 -2.8896 2.8496
-3.0630 -2.9103 2.8494
-3.0174 -2.9306 2.8493
-2.9720 -2.9505 2.8492
-2.9265 -2.9701 2.8491
-2.8812 -2.9893 2.8490
-2.8359 -3.0082 2.8489
-2.7907 -3.0267 2.8488
-2.7456 -3.0449 2.8487
-2.7006 -3.0627 2.8485
-2.6556 -3.0802 2.8484
-2.6108 -3.0973 2.8483
-2.5660 -3.1141 2.8482
-2.5212 -3.1305 2.8481
-2.4765 -3.1467 2.8480
-2.4319 -3.1625 2.8479
-2.3874 -3.1779 2.8478
-2.3429 -3.1931 2.8477
-2.2985 -3.2079 2.8476
-2.2542 -3.2224 2.8475
-2.2100 -3.2366 2.8474
-2.1657 -3.2505 2.8473
-2.1216 -3.2640 2.8472
-2.0775 -3.2773 2.8471
-2.0335 -3.2902 2.8470
-1.9895 -3.3029 2.8469
-1.9456 -3.3152 2.8468
-1.9017 -3.3272 2.8467
-1.8579 -3.3390 2.8466
-1.8142 -3.3504 2.8465
-1.7705 -3.3616 2.8464
-1.7268 -3.3724 2.8463
-1.6832 -3.3830 2.8462
-1.6397 -3.3932 2.8461
-1.5962 -3.4032 2.8460
-1.5527 -3.4129 2.8459
-1.5093 -3.4223 2.8458
-1.4659 -3.4314 2.8457
-1.4226 -3.4403 2.8456
-1.3793 -3.4488 2.8455
-1.3361 -3.4571 2.8454
-1.2929 -3.4651 2.8453
-1.2497 -3.4729 2.8452
-1.2065 -3.4803 2.8451
-1.1634 -3.4875 2.8450
-1.1204 -3.4944 2.8449
-1.0774 -3.5010 2.8449
-1.0344 -3.5074 2.8448
-0.9914 -3.5135 2.8447
-0.9484 -3.5193 2.8446
-0.9055 -3.5249 2.8445
-0.8627 -3.5302 2.8444
-0.8198 -3.5352 2.8443
-0.7770 -3.5399 2.8442
-0.7341 -3.5444 2.8441
-0.6914 -3.5487 2.8441
-0.6486 -3.5526 2.8440
-0.6058 -3.5564 2.8439
-0.5631 -3.5598 2.8438
-0.5204 -3.5630 2.8437
-0.4777 -3.5659 2.8436
-0.4350 -3.5686 2.8436
-0.3924 -3.5710 2.8435
-0.3497 -3.5731 2.8434
-0.3071 -3.5750 2.8433
-0.2645 -3.5766 2.8432
-0.2219 -3.5780 2.8431
-0.1792 -3.5791 2.8431
-0.1366 -3.5800 2.8430
-0.0940 -3.5806 2.8429
-0.0515 -3.5809 2.8428
-0.0089 -3.5810 2.8427
0.0337 -3.5808 2.8427
0.0763 -3.5804 2.8426
0.1189 -3.5797 2.8425
0.1615 -3.5787 2.8424
0.4171 -3.5676 2.8420
0.2041 -3.5775 2.8423
0.4597 -3.5649 2.8419
0.2467 -3.5761 2.8423
0.5023 -3.5619 2.8418
0.2893 -3.5744 2.8422
0.5450 -3.5586 2.8417
0.3319 -3.5724 2.8421
0.5876 -3.5551 2.8417
0.3745 -3.5701 2.8420
0.6303 -3.5513 2.8416
0.6730 -3.5472 2.8415
0.9295 -3.5174 2.8411
0.7157 -3.5429 2.8414
0.9723 -3.5115 2.8410
0.7584 -3.5383 2.8414
1.0151 -3.5053 2.8409
0.8011 -3.5335 2.8413
1.0580 -3.4989 2.8409
0.8439 -3.5284 2.8412
1.1009 -3.4921 2.8408
0.8867 -3.5230 2.8412
1.1438 -3.4852 2.8407
1.1868 -3.4779 2.8407
1.4452 -3.4286 2.8402
1.4883 -3.4195 2.8402
1.5316 -3.4100 2.8401
1.5748 -3.4002 2.8400
1.2298 -3.4704 2.8406
1.6181 -3.3902 2.8400
1.2728 -3.4626 2.8405
1.6615 -3.3799 2.8399
1.3158 -3.4545 2.8405
1.7049 -3.3693 2.8399
1.3589 -3.4462 2.8404
1.7483 -3.3584 2.8398
1.4020 -3.4375 2.8403
1.7918 -3.3472 2.8397
1.9662 -3.2995 2.8395
1.8353 -3.3357 2.8397
2.0099 -3.2868 2.8394
1.8789 -3.3239 2.8396
2.0536 -3.2739 2.8393
1.9225 -3.3119 2.8395
2.0975 -3.2606 2.8393
2.2293 -3.2189 2.8391
2.1413 -3.2470 2.8392
2.2733 -3.2044 2.8390
2.1853 -3.2331 2.8392
2.3174 -3.1896 2.8390
2.4944 -3.1270 2.8387
2.3616 -3.1744 2.8389
2.5388 -3.1106 2.8387
2.4058 -3.1589 2.8389
2.5833 -3.0938 2.8386
2.4501 -3.1431 2.8388
2.6279 -3.0767 2.8386
2.6725 -3.0592 2.8385
2.7172 -3.0414 2.8385
2.7619 -3.0233 2.8384
2.8067 -3.0048 2.8383
2.8516 -2.9860 2.8383
2.8966 -2.9668 2.8382
2.9417 -2.9473 2.8382
2.9868 -2.9274 2.8381
3.0320 -2.9071 2.8381
-5.2809 -0.7572 2.8568
-5.2374 -0.8038 2.8566
-5.1940 -0.8497 2.8565
-5.1506 -0.8950 2.8563
-5.1071 -0.9397 2.8562
-5.0638 -0.9838 2.8561
-5.0204 -1.0272 2.8559
-4.9770 -1.0701 2.8558
-4.9337 -1.1124 2.8556
-4.8904 -1.1542 2.8555
-4.8471 -1.1953 2.8553
-4.8038 -1.2359 2.8552
-4.7606 -1.2759 2.8551
-4.7174 -1.3154 2.8549
-4.6742 -1.3543 2.8548
-4.6311 -1.3927 2.8547
-4.5880 -1.4306 2.8545
-4.5449 -1.4679 2.8544
-4.5019 -1.5048 2.8542
-4.4589 -1.5410 2.8541
-4.4159 -1.5768 2.8540
-4.3730 -1.6121 2.8538
-4.3301 -1.6469 2.8537
-4.2872 -1.6812 2.8536
-4.2444 -1.7150 2.8534
-4.2017 -1.7483 2.8533
-4.1589 -1.7812 2.8532
-4.1163 -1.8135 2.8531
-4.0736 -1.8454 2.8529
-4.0310 -1.8769 2.8528
-3.9885 -1.9079 2.8527
-3.9460 -1.9384 2.8526
-3.9035 -1.9685 2.8524
-3.8611 -1.9981 2.8523
-3.8187 -2.0273 2.8522
-3.7764 -2.0561 2.8521
-3.7341 -2.0844 2.8519
-3.6919 -2.1124 2.8518
-3.6497 -2.1399 2.8517
-3.6076 -2.1669 2.8516
-3.5655 -2.1936 2.8515
-3.5234 -2.2199 2.8513
-3.4815 -2.2457 2.8512
-3.4395 -2.2712 2.8511
-3.3976 -2.2962 2.8510
-3.3557 -2.3209 2.8509
-3.3139 -2.3452 2.8508
-3.2721 -2.3690 2.8506
-3.2304 -2.3926 2.8505
-3.1888 -2.4157 2.8504
-3.1471 -2.4384 2.8503
-3.1056 -2.4608 2.8502
-3.0640 -2.4829 2.8501
-3.0225 -2.5045 2.8500
-2.9811 -2.5258 2.8499
-2.9397 -2.5467 2.8498
-2.8983 -2.5673 2.8497
-2.8570 -2.5875 2.8495
-2.8158 -2.6074 2.8494
-2.7745 -2.6270 2.8493
-2.7334 -2.6461 2.8492
-2.6922 -2.6650 2.8491
-2.6511 -2.6835 2.8490
-2.6101 -2.7017 2.8489
-2.5691 -2.7195 2.8488
-2.5281 -2.7370 2.8487
-2.4872 -2.7542 2.8486
-2.4463 -2.7711 2.8485
-2.4055 -2.7876 2.8484
-2.3647 -2.8038 2.8483
-2.3239 -2.8198 2.8482
-2.2832 -2.8353 2.8481
-2.2425 -2.8506 2.8480
-2.2019 -2.8656 2.8479
-2.1613 -2.8803 2.8478
-2.1207 -2.8946 2.8477
-2.0802 -2.9087 2.8476
-2.0397 -2.9224 2.8475
-1.9992 -2.9359 2.8474
-1.9588 -2.9490 2.8473
-1.9184 -2.9619 2.8472
-1.8780 -2.9744 2.8471
-1.8377 -2.9867 2.8470
-1.7974 -2.9987 2.8470
-1.7572 -3.0104 2.8469
-1.7169 -3.0218 2.8468
-1.6767 -3.0329 2.8467
-1.6366 -3.0437 2.8466
-1.5965 -3.0543 2.8465
-1.5563 -3.0646 2.8464
-1.5163 -3.0746 2.8463
-1.4762 -3.0843 2.8462
-1.4362 -3.0937 2.8461
-1.3962 -3.1029 2.8460
-1.3562 -3.1118 2.8460
-1.3163 -3.1204 2.8459
-1.2764 -3.1287 2.8458
-1.2365 -3.1368 2.8457
-1.1966 -3.1446 2.8456
-1.1568 -3.1522 2.8455
-1.1170 -3.1594 2.8454
-1.0772 -3.1664 2.8454
-1.0374 -3.1732 2.8453
-0.9976 -3.1797 2.8452
-0.9579 -3.1859 2.8451
-0.7991 -3.2081 2.8448
-0.9182 -3.1918 2.8450
-0.7595 -3.2131 2.8447
-0.8785 -3.1975 2.8449
-0.7198 -3.2177 2.8446
-0.8388 -3.2030 2.8449
-0.6802 -3.2221 2.8445
-0.5614 -3.2338 2.8443
-0.6406 -3.2263 2.8444
-0.5218 -3.2372 2.8442
-0.6010 -3.2301 2.8444
-0.4823 -3.2403 2.8441
-0.3241 -3.2502 2.8438
-0.4427 -3.2431 2.8441
-0.2846 -3.2521 2.8437
-0.4032 -3.2458 2.8440
-0.2451 -3.2537 2.8437
-0.3636 -3.2481 2.8439
-0.2056 -3.2550 2.8436
-0.1661 -3.2561 2.8435
-0.0872 -3.2576 2.8434
-0.1267 -3.2570 2.8434
-0.0477 -3.2579 2.8433
0.1497 -3.2559 2.8429
-0.0082 -3.2580 2.8432
0.1892 -3.2547 2.8429
0.0313 -3.2579 2.8431
0.2286 -3.2533 2.8428
0.0707 -3.2575 2.8431
0.2681 -3.2516 2.8427
0.1102 -3.2568 2.8430
0.3076 -3.2497 2.8426
0.3866 -3.2451 2.8425
0.3471 -3.2475 2.8426
0.4261 -3.2424 2.8424
0.4655 -3.2395 2.8424
0.6236 -3.2253 2.8421
0.5051 -3.2363 2.8423
0.6631 -3.2211 2.8420
0.5446 -3.2329 2.8422
0.7027 -3.2166 2.8420
0.5841 -3.2292 2.8422
0.7422 -3.2119 2.8419
0.8610 -3.1962 2.8417
0.7818 -3.2069 2.8418
0.9006 -3.1905 2.8416
0.8214 -3.2017 2.8418
0.9402 -3.1845 2.8416
1.0988 -3.1578 2.8413
0.9798 -3.1782 2.8415
1.1385 -3.1505 2.8412
1.0195 -3.1717 2.8414
1.1782 -3.1429 2.8412
1.0591 -3.1649 2.8414
1.2180 -3.1351 2.8411
1.3373 -3.1099 2.8409
1.2577 -3.1270 2.8411
1.3771 -3.1010 2.8409
1.2975 -3.1186 2.8410
1.4169 -3.0918 2.8408
1.5765 -3.0523 2.8406
1.4568 -3.0823 2.8407
1.6165 -3.0417 2.8405
1.4967 -3.0726 2.8407
1.6564 -3.0308 2.8404
1.5366 -3.0626 2.8406
1.6965 -3.0197 2.8404
1.8166 -2.9846 2.8402
1.7365 -3.0083 2.8403
1.8567 -2.9723 2.8402
1.7765 -2.9966 2.8403
1.8969 -2.9598 2.8401
2.0577 -2.9066 2.8399
1.9370 -2.9469 2.8401
2.3000 -2.8178 2.8396
2.0980 -2.8925 2.8398
1.9773 -2.9337 2.8400
2.3405 -2.8019 2.8395
2.1384 -2.8782 2.8398
2.0175 -2.9203 2.8399
2.3810 -2.7857 2.8395
2.1787 -2.8635 2.8397
2.5435 -2.7177 2.8393
2.4216 -2.7692 2.8394
2.2191 -2.8486 2.8397
2.5843 -2.6999 2.8392
2.4622 -2.7524 2.8394
2.2596 -2.8333 2.8396
2.6250 -2.6818 2.8392
2.5029 -2.7352 2.8393
2.6658 -2.6634 2.8391
2.7071 -2.6451 2.8396
2.7496 -2.6275 2.8413
2.7923 -2.6097 2.8429
-4.7718 -0.6032 2.8561
-4.7350 -0.6460 2.8560
-4.6981 -0.6883 2.8558
-4.6611 -0.7300 2.8557
-4.6241 -0.7712 2.8556
-4.5870 -0.8119 2.8554
-4.5498 -0.8521 2.8553
-4.5127 -0.8918 2.8552
-4.4755 -0.9310 2.8551
-4.4382 -0.9697 2.8549
-4.4009 -1.0079 2.8548
-4.3636 -1.0456 2.8547
-4.3262 -1.0828 2.8545
-4.2888 -1.1195 2.8544
-4.2514 -1.1557 2.8543
-4.2139 -1.1915 2.8542
-4.1764 -1.2268 2.8541
-4.1389 -1.2617 2.8539
-4.1014 -1.2961 2.8538
-4.0638 -1.3300 2.8537
-4.0263 -1.3635 2.8536
-3.9887 -1.3965 2.8534
-3.9511 -1.4291 2.8533
-3.9135 -1.4613 2.8532
-3.8759 -1.4930 2.8531
-3.8382 -1.5243 2.8530
-3.8006 -1.5552 2.8529
-3.7629 -1.5857 2.8527
-3.7253 -1.6157 2.8526
-3.6876 -1.6453 2.8525
-3.6499 -1.6745 2.8524
-3.6123 -1.7033 2.8523
-3.5746 -1.7317 2.8522
-3.5369 -1.7597 2.8521
-3.4992 -1.7873 2.8519
-3.4616 -1.8146 2.8518
-3.4239 -1.8414 2.8517
-3.3862 -1.8678 2.8516
-3.3485 -1.8939 2.8515
-3.3109 -1.9195 2.8514
-3.2732 -1.9448 2.8513
-3.2356 -1.9698 2.8512
-3.1979 -1.9943 2.8511
-3.1603 -2.0185 2.8510
-3.1227 -2.0424 2.8509
-3.0850 -2.0658 2.8508
-3.0474 -2.0889 2.8506
-3.0098 -2.1117 2.8505
-2.9722 -2.1341 2.8504
-2.9346 -2.1562 2.8503
-2.8971 -2.1779 2.8502
-2.8595 -2.1992 2.8501
-2.8220 -2.2203 2.8500
-2.7844 -2.2409 2.8499
-2.7469 -2.2613 2.8498
-2.7094 -2.2813 2.8497
