ply
format ascii 1.0
element vertex 2060
property float32 x
property float32 y
property float32 z
end_header
7.7260 -1.2760 -1.0539
7.7556 -1.2048 -1.0788
7.7853 -1.1333 -1.1039
7.8152 -1.0614 -1.1292
7.8452 -0.9891 -1.1549
7.8754 -0.9164 -1.1808
7.9221 -0.8451 -1.2096
7.9730 -0.7734 -1.2393
8.0246 -0.7008 -1.2696
8.0767 -0.6274 -1.3003
8.1295 -0.5531 -1.3316
8.1829 -0.4780 -1.3634
8.2370 -0.4018 -1.3957
8.2993 -0.3250 -1.4300
8.3657 -0.2472 -1.4654
8.4331 -0.1681 -1.5015
8.5016 -0.0877 -1.5384
8.5713 -0.0059 -1.5761
8.6413 0.0772 -1.6144
8.7074 0.1616 -1.6526
8.7744 0.2474 -1.6916
8.8318 0.3343 -1.7292
8.8900 0.4224 -1.7675
8.9490 0.5118 -1.8066
9.0089 0.6026 -1.8465
9.0698 0.6948 -1.8871
9.1316 0.7884 -1.9285
9.1944 0.8836 -1.9708
9.2583 0.9803 -2.0140
9.3232 1.0786 -2.0580
9.3893 1.1786 -2.1030
9.4565 1.2804 -2.1489
9.5248 1.3840 -2.1959
9.7377 1.7064 -2.3432
9.5945 1.4895 -2.2439
9.6654 1.5969 -2.2930
9.8114 1.8180 -2.3945
10.1213 2.2875 -2.6125
9.8865 1.9318 -2.4471
10.2163 2.4143 -2.6739
9.9632 2.0480 -2.5009
10.3002 2.5409 -2.7335
10.0415 2.1665 -2.5560
10.3860 2.6703 -2.7946
10.5637 2.9382 -2.9217
10.4738 2.8027 -2.8573
10.6557 3.0770 -2.9878
11.0473 3.6675 -3.2716
10.7500 3.2191 -3.0558
11.1517 3.8249 -3.3478
10.8466 3.3648 -3.1257
11.2589 3.9865 -3.4263
11.3690 4.1526 -3.5072
10.9457 3.5142 -3.1976
11.4823 4.3235 -3.5906
11.5989 4.4992 -3.6767
12.2273 5.4574 -4.1488
11.7189 4.6802 -3.7656
12.3669 5.6685 -4.2538
11.8343 4.8632 -3.8548
12.5112 5.8868 -4.3626
12.6606 6.1126 -4.4754
11.9612 5.0551 -3.9495
12.8153 6.3464 -4.5926
12.0921 5.2531 -4.0474
12.9755 6.5887 -4.7143
13.8789 7.9502 -5.4032
13.1417 6.8400 -4.8408
14.0819 8.2566 -5.5591
13.3143 7.1009 -4.9724
14.2938 8.5763 -5.7222
13.4971 7.3739 -5.1107
14.5150 8.9103 -5.8929
13.6841 7.6562 -5.2539
14.7465 9.2596 -6.0718
-0.5561 9.0613 -4.5097
-0.6554 9.0460 -4.5033
-0.6624 7.9287 -3.9483
7.7670 -1.1773 -0.7022
7.7968 -1.1055 -0.7262
7.8268 -1.0333 -0.7504
7.8570 -0.9607 -0.7749
7.8914 -0.8882 -0.8001
7.9421 -0.8169 -0.8271
7.9934 -0.7447 -0.8546
8.0452 -0.6717 -0.8826
8.0977 -0.5979 -0.9109
8.1508 -0.5232 -0.9397
8.2045 -0.4476 -0.9690
8.2601 -0.3711 -0.9989
8.3258 -0.2939 -1.0304
8.3926 -0.2155 -1.0626
8.4605 -0.1359 -1.0954
8.5295 -0.0549 -1.1289
8.5996 0.0274 -1.1630
8.6678 0.1110 -1.1974
8.7343 0.1960 -1.2321
8.7978 0.2822 -1.2668
8.8555 0.3695 -1.3013
8.9139 0.4581 -1.3363
8.9733 0.5480 -1.3720
9.1569 0.8260 -1.4832
9.0335 0.6392 -1.4084
9.2200 0.9216 -1.5217
9.0947 0.7319 -1.4455
9.2842 1.0188 -1.5610
9.4833 1.3205 -1.6836
9.3494 1.1177 -1.6010
9.5521 1.4245 -1.7261
9.4158 1.2182 -1.6419
9.6221 1.5305 -1.7696
9.8400 1.8607 -1.9059
9.6933 1.6385 -1.8141
9.9155 1.9750 -1.9534
9.7660 1.7485 -1.8595
9.9926 2.0917 -2.0019
10.2458 2.4595 -2.1573
10.0712 2.2107 -2.0517
10.3301 2.5866 -2.2109
10.1633 2.3351 -2.1050
10.4163 2.7166 -2.2658
10.6871 3.1250 -2.4393
10.5044 2.8496 -2.3222
10.7817 3.2677 -2.5003
10.5947 2.9857 -2.3800
10.8787 3.4140 -2.5629
11.1849 3.8758 -2.7616
10.9781 3.5640 -2.6273
11.2925 4.0380 -2.8317
11.4030 4.2047 -2.9040
11.0802 3.7178 -2.6935
11.5166 4.3761 -2.9784
11.7539 4.7340 -3.1344
11.6336 4.5524 -3.0552
11.8698 4.9176 -3.2140
12.4039 5.7251 -3.5689
11.9971 5.1101 -3.2983
12.5486 5.9439 -3.6656
12.1284 5.3086 -3.3855
12.6983 6.1702 -3.7657
12.2639 5.5135 -3.4756
12.8533 6.4045 -3.8697
13.1803 6.8990 -4.0896
13.0138 6.6473 -3.9775
14.1213 8.3171 -4.7247
13.3532 7.1603 -4.2061
14.3333 8.6370 -4.8687
13.5360 7.4336 -4.3285
14.5546 8.9711 -5.0193
13.7232 7.7163 -4.4550
14.7860 9.3204 -5.1769
13.9182 8.0105 -4.5870
15.0283 9.6861 -5.3423
15.2939 10.0772 -5.5201
15.5588 10.4785 -5.7020
15.8370 10.9003 -5.8934
16.1299 11.3442 -6.0951
7.0984 22.2855 -9.9608
7.0054 22.8422 -10.1992
6.5060 22.0598 -9.8402
6.4503 22.7739 -10.1491
-0.5417 7.5882 -3.3457
-0.6331 7.6907 -3.3917
7.8080 -1.0787 -0.3509
7.8381 -1.0063 -0.3741
7.8683 -0.9334 -0.3975
7.9104 -0.8615 -0.4217
7.9614 -0.7897 -0.4466
8.0130 -0.7171 -0.4720
8.0651 -0.6438 -0.4976
8.1179 -0.5695 -0.5237
8.1712 -0.4944 -0.5501
8.2253 -0.4184 -0.5769
8.2852 -0.3416 -0.6045
8.3514 -0.2639 -0.6329
8.4186 -0.1850 -0.6619
8.4870 -0.1049 -0.6914
8.5564 -0.0234 -0.7215
8.6270 0.0594 -0.7521
8.6932 0.1436 -0.7829
8.7602 0.2291 -0.8142
8.8203 0.3156 -0.8453
8.8782 0.4034 -0.8766
8.9370 0.4924 -0.9085
8.9966 0.5827 -0.9409
9.0572 0.6744 -0.9739
9.1186 0.7675 -1.0075
9.1811 0.8621 -1.0417
9.2445 0.9581 -1.0765
9.3090 1.0558 -1.1119
9.3746 1.1551 -1.1481
9.4413 1.2561 -1.1849
9.5091 1.3588 -1.2225
9.5782 1.4634 -1.2608
9.6485 1.5699 -1.2999
9.7201 1.6783 -1.3398
9.7930 1.7888 -1.3805
9.8674 1.9015 -1.4222
9.9432 2.0163 -1.4647
10.0206 2.1335 -1.5082
10.0996 2.2530 -1.5526
10.1911 2.3777 -1.5998
10.2739 2.5026 -1.6464
10.3585 2.6302 -1.6942
10.4451 2.7607 -1.7431
10.5336 2.8942 -1.7933
10.6241 3.0308 -1.8447
10.7168 3.1706 -1.8974
10.8118 3.3138 -1.9515
10.9091 3.4606 -2.0071
11.0089 3.6111 -2.0641
11.1113 3.7655 -2.1227
11.2163 3.9239 -2.1830
11.3242 4.0867 -2.2450
11.4351 4.2539 -2.3089
11.5491 4.4258 -2.3746
11.6663 4.6026 -2.4423
11.7795 4.7816 -2.5105
11.9033 4.9688 -2.5824
12.0309 5.1617 -2.6567
12.1625 5.3607 -2.7333
12.2983 5.5660 -2.8125
12.4386 5.7781 -2.8945
12.5835 5.9973 -2.9793
12.7335 6.2240 -3.0672
12.8887 6.4587 -3.1582
13.0495 6.7018 -3.2527
13.2162 6.9539 -3.3508
13.3892 7.2155 -3.4527
13.5719 7.4888 -3.5595
13.7593 7.7717 -3.6700
13.9543 8.0660 -3.7851
14.1574 8.3727 -3.9053
14.3693 8.6925 -4.0307
14.5906 9.0265 -4.1618
14.8218 9.3756 -4.2990
15.0639 9.7410 -4.4427
15.3269 10.1301 -4.5964
15.5912 10.5307 -4.7543
17.1225 12.8630 -5.6759
15.8689 10.9516 -4.9203
17.4886 13.4159 -5.8952
16.1610 11.3944 -5.0952
17.8771 14.0027 -6.1281
16.4687 11.8609 -5.2797
16.7770 12.3411 -5.4691
8.1840 22.6638 -8.8673
7.9084 22.6500 -8.8544
7.0972 22.6177 -8.8212
7.5205 22.2968 -8.7093
6.8098 22.5380 -8.7838
7.4586 22.9142 -8.9435
6.5934 22.6911 -8.8373
6.3925 22.9069 -8.9154
-0.6181 7.6171 -2.9429
7.8490 -0.9799 0.0014
7.8794 -0.9068 -0.0210
7.9290 -0.8353 -0.0436
7.9803 -0.7631 -0.0665
8.0321 -0.6902 -0.0897
8.0846 -0.6164 -0.1131
8.1376 -0.5418 -0.1369
8.1912 -0.4662 -0.1610
8.2456 -0.3898 -0.1854
8.3098 -0.3127 -0.2104
8.3764 -0.2346 -0.2358
8.4441 -0.1552 -0.2617
8.5128 -0.0745 -0.2880
8.5827 0.0074 -0.3147
8.6519 0.0908 -0.3419
8.7181 0.1754 -0.3693
8.7848 0.2613 -0.3973
8.8422 0.3482 -0.4252
8.9004 0.4364 -0.4535
8.9595 0.5258 -0.4823
9.0194 0.6166 -0.5115
9.0802 0.7087 -0.5412
9.1420 0.8022 -0.5714
9.2047 0.8972 -0.6021
9.2684 0.9937 -0.6333
9.3332 1.0918 -0.6651
9.3991 1.1915 -0.6974
9.4661 1.2930 -0.7303
9.5342 1.3962 -0.7638
9.6036 1.5012 -0.7980
9.6742 1.6081 -0.8328
9.7461 1.7170 -0.8683
9.8193 1.8280 -0.9045
9.8940 1.9411 -0.9414
9.9702 2.0564 -0.9791
10.0479 2.1740 -1.0176
10.1271 2.2940 -1.0569
10.2180 2.4190 -1.0981
10.3012 2.5444 -1.1393
10.3861 2.6725 -1.1814
10.4729 2.8035 -1.2244
10.5617 2.9374 -1.2685
10.6526 3.0745 -1.3137
10.7456 3.2148 -1.3600
10.8409 3.3585 -1.4074
10.9385 3.5057 -1.4560
11.0386 3.6566 -1.5059
11.1413 3.8115 -1.5572
11.2466 3.9704 -1.6098
11.3548 4.1336 -1.6639
11.4660 4.3012 -1.7195
11.5802 4.4736 -1.7767
11.6978 4.6509 -1.8356
11.8113 4.8303 -1.8951
11.9354 5.0179 -1.9575
12.0633 5.2112 -2.0219
12.1951 5.4106 -2.0883
12.3312 5.6164 -2.1569
12.4717 5.8288 -2.2278
12.6169 6.0483 -2.3011
12.7670 6.2753 -2.3770
12.9224 6.5103 -2.4556
13.0833 6.7537 -2.5370
13.2502 7.0060 -2.6215
13.4233 7.2677 -2.7092
13.6059 7.5411 -2.8009
13.7933 7.8240 -2.8958
13.9883 8.1184 -2.9947
14.1914 8.4250 -3.0977
14.4031 8.7447 -3.2051
14.6242 9.0784 -3.3174
14.8552 9.4271 -3.4347
15.0969 9.7920 -3.5576
15.3573 10.1790 -3.6881
15.6210 10.5788 -3.8228
15.8979 10.9986 -3.9643
16.1891 11.4401 -4.1132
16.4958 11.9051 -4.2702
16.8066 12.3863 -4.4324
17.1508 12.9062 -4.6081
17.5153 13.4567 -4.7942
17.9020 14.0408 -4.9917
18.3131 14.6617 -5.2017
18.7740 15.3419 -5.4323
19.2401 16.0474 -5.6711
19.7390 16.8023 -5.9268
20.2613 17.6011 -6.1972
8.0452 21.8841 -7.3486
7.6573 21.5217 -7.2239
7.7528 22.5347 -7.5609
7.5512 22.7197 -7.6200
7.2960 22.7457 -7.6258
7.0588 22.8268 -7.6502
6.7184 22.5623 -7.5589
6.3461 22.1600 -7.4217
6.3073 22.9320 -7.6778
6.1849 23.4477 -7.8480
3.1658 15.2042 -5.0821
2.4161 15.7116 -5.2464
-0.2229 8.2516 -2.7521
-0.3129 8.3230 -2.7760
-0.4045 8.3957 -2.8004
-0.4978 8.4698 -2.8253
7.8965 -0.8810 0.3565
7.9475 -0.8093 0.3358
7.9991 -0.7367 0.3150
8.0512 -0.6634 0.2939
8.1039 -0.5892 0.2725
8.1572 -0.5142 0.2510
8.2111 -0.4382 0.2291
8.2682 -0.3615 0.2071
8.3342 -0.2841 0.1850
8.4013 -0.2054 0.1626
8.4693 -0.1255 0.1398
8.5385 -0.0444 0.1167
8.6088 0.0381 0.0932
8.6763 0.1219 0.0693
8.7429 0.2070 0.0450
8.8063 0.2932 0.0203
8.8639 0.3806 -0.0047
8.9224 0.4691 -0.0301
8.9818 0.5590 -0.0558
9.0420 0.6501 -0.0819
9.1031 0.7427 -0.1084
9.1651 0.8366 -0.1353
9.2281 0.9320 -0.1626
9.2921 1.0290 -0.1903
9.3572 1.1275 -0.2184
9.4233 1.2276 -0.2470
9.4906 1.3295 -0.2761
9.5590 1.4331 -0.3057
9.6287 1.5386 -0.3358
9.6996 1.6459 -0.3664
9.7718 1.7553 -0.3975
9.8454 1.8667 -0.4293
9.9203 1.9802 -0.4616
9.9968 2.0960 -0.4946
10.0748 2.2141 -0.5282
10.1630 2.3366 -0.5629
10.2446 2.4598 -0.5980
10.3281 2.5856 -0.6337
10.4133 2.7142 -0.6703
10.5004 2.8456 -0.7076
10.5895 2.9800 -0.7458
10.6807 3.1175 -0.7848
10.7740 3.2582 -0.8247
10.8695 3.4024 -0.8656
10.9674 3.5500 -0.9075
11.0678 3.7014 -0.9504
11.1708 3.8567 -0.9944
11.2764 4.0160 -1.0396
11.3849 4.1797 -1.0859
11.4963 4.3477 -1.1335
11.6108 4.5205 -1.1824
11.7286 4.6982 -1.2327
11.8426 4.8780 -1.2836
11.9669 5.0660 -1.3368
12.0950 5.2598 -1.3915
12.2271 5.4595 -1.4480
12.3634 5.6656 -1.5062
12.5041 5.8783 -1.5663
12.6495 6.0982 -1.6284
12.7998 6.3255 -1.6925
12.9553 6.5607 -1.7589
13.1164 6.8042 -1.8277
13.2833 7.0567 -1.8989
13.4565 7.3186 -1.9727
13.6389 7.5919 -2.0498
13.8263 7.8748 -2.1295
14.0212 8.1691 -2.2124
14.2242 8.4756 -2.2988
14.4359 8.7951 -2.3888
14.6567 9.1285 -2.4826
14.8874 9.4768 -2.5807
15.1356 9.8456 -2.6845
15.3865 10.2261 -2.7915
15.6495 10.6249 -2.9038
15.9256 11.0435 -3.0215
16.2158 11.4837 -3.1453
16.5214 11.9471 -3.2757
16.8346 12.4290 -3.4112
17.1774 12.9469 -3.5568
17.5403 13.4950 -3.7108
17.9251 14.0762 -3.8741
18.3340 14.6938 -4.0476
18.7878 15.3665 -4.2365
19.2507 16.0671 -4.4333
19.7457 16.8163 -4.6437
20.2664 17.6108 -4.8668
20.8369 18.4742 -5.1092
21.4520 19.4051 -5.3705
22.1065 20.4019 -5.6503
22.8298 21.4956 -5.9572
25.0804 24.0922 -6.6812
16.5509 37.0861 -10.4373
16.0928 37.0805 -10.4378
8.8479 22.2457 -6.2656
8.6442 22.4038 -6.3112
8.4375 22.5587 -6.3560
8.0730 22.2828 -6.2793
7.8688 22.4404 -6.3247
7.5047 22.1323 -6.2389
7.3822 22.5349 -6.3533
7.1162 22.5075 -6.3465
6.8482 22.4664 -6.3358
6.4829 22.0856 -6.2293
6.4445 22.8275 -6.4394
6.0919 22.4668 -6.3384
6.1667 23.7135 -6.6909
2.3854 15.7301 -4.4423
-0.3052 8.2306 -2.3254
-0.3945 8.3010 -2.3453
-0.4854 8.3725 -2.3654
-0.5779 8.4451 -2.3859
-0.6723 8.5192 -2.4067
7.9662 -0.7829 0.7183
8.0180 -0.7100 0.6994
8.0704 -0.6363 0.6803
8.1234 -0.5617 0.6611
8.1770 -0.4863 0.6417
8.2312 -0.4100 0.6221
8.2925 -0.3330 0.6027
8.3589 -0.2551 0.5835
8.4264 -0.1759 0.5640
8.4949 -0.0956 0.5443
8.5644 -0.0139 0.5243
8.6349 0.0690 0.5040
8.7008 0.1533 0.4831
8.7678 0.2388 0.4620
8.8279 0.3254 0.4402
8.8859 0.4132 0.4179
8.9446 0.5021 0.3954
9.0042 0.5924 0.3727
9.0647 0.6840 0.3496
9.1261 0.7769 0.3263
9.1884 0.8712 0.3027
9.2517 0.9671 0.2787
9.3160 1.0644 0.2545
9.3813 1.1634 0.2299
9.4477 1.2640 0.2049
9.5153 1.3663 0.1796
9.5840 1.4703 0.1539
9.6540 1.5762 0.1278
9.3218 1.6142 0.0971
8.8233 1.6154 0.0670
8.7084 1.6811 0.0415
9.9468 2.0196 0.0192
10.0235 2.1358 -0.0091
10.1018 2.2543 -0.0379
10.1894 2.3771 -0.0673
10.2714 2.5008 -0.0972
10.3551 2.6270 -0.1277
10.4406 2.7560 -0.1587
10.5280 2.8879 -0.1904
10.6174 3.0227 -0.2228
10.7088 3.1606 -0.2558
10.8024 3.3018 -0.2895
10.8983 3.4464 -0.3240
10.9965 3.5945 -0.3592
11.0971 3.7464 -0.3953
11.2003 3.9021 -0.4322
11.3062 4.0618 -0.4700
11.4150 4.2259 -0.5087
11.5267 4.3944 -0.5484
11.6415 4.5675 -0.5891
11.7596 4.7456 -0.6309
11.8739 4.9259 -0.6735
11.9985 5.1143 -0.7176
12.1268 5.3084 -0.7629
12.2591 5.5085 -0.8096
12.3956 5.7149 -0.8576
12.5365 5.9280 -0.9071
12.6821 6.1481 -0.9582
12.8325 6.3756 -1.0109
12.9882 6.6111 -1.0654
13.1494 6.8548 -1.1217
13.3165 7.1075 -1.1799
13.4916 7.3705 -1.2404
13.6719 7.6428 -1.3029
13.8593 7.9257 -1.3678
14.0542 8.2199 -1.4352
14.2571 8.5263 -1.5053
14.4686 8.8455 -1.5782
14.6892 9.1786 -1.6542
14.9196 9.5265 -1.7334
15.1653 9.8934 -1.8168
15.4156 10.2731 -1.9031
15.6780 10.6710 -1.9935
15.9533 11.0885 -2.0881
16.2426 11.5273 -2.1875
16.5471 11.9891 -2.2920
16.8626 12.4719 -2.4012
17.2042 12.9877 -2.5176
17.5655 13.5335 -2.6406
17.9484 14.1119 -2.7708
18.3551 14.7262 -2.9089
18.8020 15.3915 -3.0581
19.2617 16.0873 -3.2143
19.7529 16.8309 -3.3811
20.2719 17.6213 -3.5583
20.8374 18.4772 -3.7499
21.4468 19.3993 -3.9562
22.0971 20.3884 -4.1774
22.8125 21.4701 -4.4189
23.5980 22.6542 -4.6830
24.4548 23.9468 -4.9711
25.3280 25.2986 -5.2732
26.3507 26.8477 -5.6182
27.5086 28.5898 -6.0056
17.3716 36.4499 -8.2596
17.0331 36.6941 -8.3263
16.7601 37.0875 -8.4267
16.0048 36.3974 -8.2805
15.8679 37.1052 -8.4519
8.7490 21.6678 -4.9472
8.5965 21.9309 -5.0129
7.9590 20.9294 -4.7891
7.9525 21.5718 -4.9413
8.0342 22.4976 -5.1585
7.7799 22.5080 -5.1659
7.5374 22.5493 -5.1802
7.1571 22.1617 -5.0957
7.0461 22.6050 -5.2022
6.7994 22.6250 -5.2111
6.2717 21.6704 -4.9952
6.2079 22.3017 -5.1447
6.0867 22.7656 -5.2555
-0.3848 8.2100 -1.9116
-0.4734 8.2792 -1.9274
-0.5637 8.3496 -1.9435
-0.6555 8.4212 -1.9598
8.0375 -0.6826 1.0886
8.0902 -0.6084 1.0715
8.1435 -0.5335 1.0543
8.1973 -0.4577 1.0370
8.2519 -0.3809 1.0196
8.3175 -0.3037 1.0033
8.3843 -0.2253 0.9869
8.4522 -0.1457 0.9704
8.5211 -0.0648 0.9536
8.5911 0.0173 0.9367
8.6598 0.1008 0.9194
8.7261 0.1855 0.9016
8.7927 0.2715 0.8834
8.8501 0.3584 0.8641
8.9083 0.4466 0.8446
8.9674 0.5360 0.8250
9.0272 0.6266 0.8051
9.0880 0.7186 0.7851
9.1496 0.8120 0.7649
9.2122 0.9068 0.7445
9.2758 1.0030 0.7238
9.3404 1.1008 0.7030
9.4060 1.2001 0.6819
9.4727 1.3012 0.6605
9.5406 1.4039 0.6389
9.6096 1.5084 0.6171
9.2880 1.5494 0.5708
9.3261 1.6479 0.5475
9.8241 1.8332 0.5498
9.8983 1.9455 0.5267
9.9739 2.0599 0.5033
10.0509 2.1766 0.4796
8.6780 1.9666 0.3902
8.6186 2.0403 0.3639
8.5246 2.1047 0.3365
8.4321 2.1679 0.3096
8.3065 2.2208 0.2821
8.1854 2.2728 0.2554
8.2577 2.3785 0.2349
8.3317 2.4867 0.2140
8.4075 2.5975 0.1926
8.4429 2.6976 0.1700
10.5965 3.4982 0.1838
10.6545 3.6313 0.1551
11.2306 3.9485 0.1321
11.3368 4.1087 0.1016
8.4442 3.1525 0.0519
8.5491 3.2857 0.0284
11.6729 4.6157 0.0057
11.7847 4.7915 -0.0277
11.9059 4.9749 -0.0620
12.0308 5.1637 -0.0972
12.1594 5.3582 -0.1332
12.2919 5.5586 -0.1703
12.4287 5.7654 -0.2083
12.5698 5.9788 -0.2474
12.7155 6.1993 -0.2877
12.8662 6.4271 -0.3291
13.0221 6.6628 -0.3718
13.1834 6.9068 -0.4159
13.3506 7.1597 -0.4613
13.5256 7.4227 -0.5084
13.7060 7.6951 -0.5570
13.8934 7.9781 -0.6074
14.0882 8.2723 -0.6596
14.2911 8.5786 -0.7137
14.5024 8.8977 -0.7699
14.7229 9.2305 -0.8284
14.9530 9.5780 -0.8892
15.1963 9.9431 -0.9528
15.4461 10.3220 -1.0188
15.7078 10.7191 -1.0878
15.9824 11.1356 -1.1599
16.2709 11.5731 -1.2355
16.5743 12.0335 -1.3148
16.8924 12.5173 -1.3980
17.2327 13.0312 -1.4859
17.5925 13.5748 -1.5787
17.9737 14.1506 -1.6767
18.3783 14.7618 -1.7805
18.8186 15.4199 -1.8916
19.2751 16.1112 -2.0086
19.7628 16.8496 -2.1332
20.2804 17.6362 -2.2658
20.8412 18.4851 -2.4084
21.4450 19.3989 -2.5617
22.0916 20.3808 -2.7262
22.7995 21.4512 -2.9049
23.5747 22.6205 -3.0996
24.4207 23.8969 -3.3119
25.2929 25.2412 -3.5365
26.3013 26.7684 -3.7899
27.4390 28.4810 -4.0731
28.7084 30.3913 -4.3886
30.0785 32.4762 -4.7335
31.6638 34.8706 -5.1283
18.1048 36.6305 -6.3055
17.1296 35.5498 -6.1400
17.0331 36.2747 -6.2855
16.8497 36.8400 -6.4034
16.3558 36.7300 -6.4036
16.2277 37.4495 -6.5481
12.1543 28.8396 -5.0569
15.5565 37.9741 -6.6767
8.6292 21.6830 -3.8224
8.4682 21.9175 -3.8736
7.9302 21.1558 -3.7481
7.9240 21.8046 -3.8722
7.8152 22.1992 -3.9512
7.6093 22.3301 -3.9832
7.4024 22.4617 -4.0151
7.2103 22.6444 -4.0560
7.0036 22.7879 -4.0897
6.3340 21.3747 -3.8432
6.4936 22.7539 -4.0985
6.1937 22.5643 -4.0714
6.1396 23.2859 -4.2085
5.8755 23.2339 -4.2057
2.4765 15.6821 -2.8702
-0.4620 8.1896 -1.5082
-0.5499 8.2575 -1.5202
-0.6394 8.3266 -1.5322
8.1109 -0.5794 1.4692
8.1644 -0.5040 1.4541
8.2186 -0.4278 1.4389
8.2773 -0.3508 1.4243
8.3436 -0.2731 1.4108
8.4109 -0.1942 1.3972
8.4791 -0.1140 1.3836
8.5485 -0.0327 1.3699
8.6189 0.0500 1.3561
8.6857 0.1339 1.3414
8.7524 0.2191 1.3266
8.8155 0.3055 1.3109
8.8732 0.3928 1.2942
8.9317 0.4814 1.2775
8.9910 0.5712 1.2606
9.0512 0.6623 1.2437
9.1122 0.7547 1.2267
9.1742 0.8485 1.2095
9.2371 0.9437 1.1922
9.3009 1.0404 1.1749
9.3658 1.1386 1.1574
9.4317 1.2384 1.1397
9.4987 1.3399 1.1219
9.5669 1.4431 1.1040
9.6362 1.5480 1.0859
9.2492 1.5768 1.0174
9.1389 1.6482 0.9807
9.0994 1.7311 0.9520
8.9972 1.8010 0.9172
8.8969 1.8696 0.8832
8.7984 1.9370 0.8500
8.7017 2.0032 0.8175
8.6067 2.0682 0.7858
8.5133 2.1320 0.7547
8.3592 2.1786 0.7189
8.2760 2.2417 0.6899
8.1877 2.3020 0.6609
8.2409 2.4022 0.6434
10.3729 3.1317 0.7825
10.4673 3.2697 0.7620
10.4953 3.3890 0.7364
10.6633 3.5562 0.7201
10.7650 3.7049 0.6985
10.8694 3.8575 0.6766
10.9766 4.0142 0.6543
11.0867 4.1752 0.6316
11.1180 4.3089 0.6041
11.0262 4.3951 0.5698
11.8179 4.8423 0.5794
11.9395 5.0262 0.5537
12.0646 5.2154 0.5274
12.1935 5.4103 0.5005
10.4529 4.7584 0.4011
10.3760 4.8440 0.3703
10.2714 4.9156 0.3390
10.1678 4.9864 0.3082
10.0518 5.0496 0.2775
13.0577 6.7173 0.3250
13.2192 6.9616 0.2930
13.3866 7.2147 0.2601
13.5615 7.4779 0.2263
13.7420 7.7504 0.1914
13.9295 8.0335 0.1554
14.1244 8.3279 0.1182
14.3272 8.6341 0.0798
14.5385 8.9532 0.0400
14.7589 9.2859 -0.0012
14.9889 9.6332 -0.0439
15.2297 9.9966 -0.0883
15.4792 10.3750 -0.1344
15.7404 10.7713 -0.1824
16.0144 11.1870 -0.2325
16.3021 11.6235 -0.2847
16.6047 12.0826 -0.3394
16.9254 12.5676 -0.3966
17.2646 13.0800 -0.4568
17.6232 13.6216 -0.5200
18.0028 14.1951 -0.5865
18.4057 14.8036 -0.6568
18.8394 15.4550 -0.7314
19.2932 16.1422 -0.8101
19.7777 16.8758 -0.8937
20.2942 17.6592 -0.9827
20.8508 18.5017 -1.0778
21.4496 19.4080 -1.1797
22.0930 20.3835 -1.2891
22.7940 21.4436 -1.4072
23.5597 22.5993 -1.5354
24.3959 23.8609 -1.6747
25.2678 25.1990 -1.8235
26.2631 26.7062 -1.9892
27.3822 28.3917 -2.1732
28.6239 30.2635 -2.3770
30.0006 32.3445 -2.6033
31.5311 34.6664 -2.8557
22.5138 44.0024 -5.1791
18.0374 36.1302 -4.2836
17.3728 35.6780 -4.2599
17.3836 36.6168 -4.4016
17.0404 36.8309 -4.4564
16.4631 36.5286 -4.4477
16.2588 37.0515 -4.5388
15.9422 37.3317 -4.5999
9.3149 22.4259 -2.7789
8.8196 21.8431 -2.7214
8.6434 22.0343 -2.7595
8.4537 22.1968 -2.7939
7.7843 21.0661 -2.6644
7.7096 21.5195 -2.7345
7.5366 21.7145 -2.7716
7.4867 22.2838 -2.8565
7.3179 22.5213 -2.8989
7.1683 22.8319 -2.9505
6.9681 22.9929 -2.9826
6.7715 23.1734 -3.0170
6.5155 23.1516 -3.0247
6.2487 23.0836 -3.0259
5.9830 23.0093 -3.0258
5.7278 22.9659 -3.0293
2.4416 15.6730 -2.1118
-0.5368 8.1689 -1.1130
-0.6240 8.2356 -1.1212
8.1866 -0.4727 1.8625
8.2411 -0.3961 1.8494
8.3046 -0.3188 1.8381
8.3713 -0.2406 1.8273
8.4390 -0.1612 1.8166
8.5077 -0.0805 1.8059
8.5775 0.0014 1.7952
8.6471 0.0846 1.7842
8.7132 0.1690 1.7723
8.7803 0.2547 1.7604
8.8397 0.3414 1.7468
8.8977 0.4292 1.7327
8.9565 0.5182 1.7187
9.0161 0.6085 1.7046
9.0765 0.7000 1.6906
9.1379 0.7928 1.6765
9.2001 0.8871 1.6624
9.2633 0.9828 1.6483
9.3275 1.0799 1.6341
9.3926 1.1786 1.6199
9.4589 1.2789 1.6058
9.5262 1.3808 1.5915
9.5947 1.4845 1.5773
9.3132 1.5322 1.5062
9.3144 1.6238 1.4816
9.1413 1.6837 1.4300
9.0597 1.7582 1.3934
8.9585 1.8274 1.3545
8.8592 1.8954 1.3164
8.7617 1.9621 1.2792
8.6660 2.0276 1.2429
8.5719 2.0919 1.2073
8.4794 2.1552 1.1726
8.3286 2.2015 1.1305
8.2441 2.2634 1.0980
8.2352 2.3456 1.0760
10.3128 3.0438 1.3214
10.4054 3.1792 1.3070
10.5002 3.3178 1.2926
10.5625 3.4484 1.2738
10.6969 3.6054 1.2632
10.7991 3.7547 1.2484
10.9038 3.9079 1.2333
11.0114 4.0651 1.2182
11.1219 4.2267 1.2028
11.1935 4.3763 1.1828
11.0149 4.4278 1.1367
10.9035 4.5041 1.0983
10.7934 4.5794 1.0606
10.6846 4.6538 1.0235
10.5606 4.7199 0.9856
10.4237 4.7784 0.9472
12.5004 5.8751 1.1051
12.6421 6.0894 1.0865
12.7884 6.3107 1.0676
12.9396 6.5393 1.0483
13.0960 6.7758 1.0287
13.2578 7.0205 1.0087
13.4254 7.2740 0.9883
13.6003 7.5375 0.9675
13.7810 7.8103 0.9462
13.9687 8.0937 0.9245
14.1637 8.3883 0.9021
14.3667 8.6948 0.8793
14.5781 9.0139 0.8558
14.7984 9.3467 0.8317
15.0284 9.6940 0.8069
15.2670 10.0557 0.7812
15.5161 10.4338 0.7548
15.7771 10.8297 0.7274
16.0506 11.2448 0.6992
16.3378 11.6806 0.6699
16.6397 12.1387 0.6395
16.9634 12.6254 0.6082
17.3018 13.1366 0.5755
17.6593 13.6767 0.5413
18.0378 14.2484 0.5056
18.4426 14.8574 0.4683
18.8667 15.4997 0.4290
19.3182 16.1835 0.3877
19.7998 16.9130 0.3442
20.3159 17.6940 0.2981
20.8688 18.5309 0.2493
21.4631 19.4307 0.1973
22.1041 20.4010 0.1420
22.7991 21.4520 0.0827
23.5564 22.5957 0.0191
24.3838 23.8442 -0.0497
25.2566 25.1778 -0.1240
26.2404 26.6674 -0.2050
27.3430 28.3288 -0.2938
28.5593 30.1656 -0.3915
29.9256 32.2257 -0.4999
31.4242 34.5012 -0.6203
33.1592 37.1195 -0.7562
18.2002 36.1113 -2.3584
17.9130 36.4227 -2.4188
17.0299 35.4995 -2.3953
16.8575 36.0398 -2.4691
16.7847 36.8184 -2.5594
16.4711 37.0880 -2.6143
16.0573 37.1323 -2.6525
15.6299 37.1384 -2.6870
15.2082 37.1504 -2.7209
8.9481 22.4844 -1.6661
8.7524 22.6362 -1.6962
8.2923 22.0881 -1.6729
8.1076 22.2575 -1.7031
7.6660 21.7054 -1.6772
7.7155 22.5482 -1.7587
7.2653 21.9337 -1.7262
7.2776 22.7159 -1.8032
7.0067 22.6336 -1.8114
6.8006 22.7577 -1.8357
6.5549 22.7485 -1.8487
6.3106 22.7392 -1.8611
6.0369 22.6140 -1.8635
5.7316 22.3510 -1.8538
2.4109 15.6884 -1.3662
8.2677 -0.3622 2.2715
8.3339 -0.2845 2.2634
8.4010 -0.2057 2.2554
8.4692 -0.1257 2.2475
8.5384 -0.0445 2.2397
8.6087 0.0380 2.2321
8.6761 0.1217 2.2235
8.7427 0.2067 2.2145
8.8080 0.2928 2.2050
8.8655 0.3800 2.1935
8.9238 0.4682 2.1821
8.9829 0.5577 2.1707
9.0429 0.6484 2.1594
9.1036 0.7404 2.1482
9.1653 0.8337 2.1371
9.2279 0.9285 2.1260
9.2914 1.0246 2.1150
9.3559 1.1223 2.1041
9.4214 1.2215 2.0933
9.4880 1.3222 2.0825
9.5556 1.4247 2.0719
9.6244 1.5288 2.0612
9.2682 1.5629 1.9605
9.1557 1.6338 1.9128
9.1198 1.7171 1.8816
9.0178 1.7869 1.8373
8.9177 1.8554 1.7941
8.8195 1.9226 1.7519
8.7230 1.9886 1.7107
8.6282 2.0534 1.6704
8.5351 2.1171 1.6311
8.4436 2.1797 1.5927
8.3413 2.2379 1.5528
8.2104 2.2865 1.5083
8.2519 2.3827 1.4958
10.3474 3.0944 1.8506
10.4404 3.2304 1.8421
10.5275 3.3670 1.8323
10.5555 3.4866 1.8119
10.7332 3.6584 1.8170
10.8358 3.8084 1.8088
10.9410 3.9622 1.8006
11.0490 4.1201 1.7926
11.1529 4.2796 1.7835
11.0669 4.3673 1.7441
10.9783 4.4529 1.7048
10.8679 4.5284 1.6627
10.7588 4.6030 1.6214
10.6289 4.6669 1.5775
10.4971 4.7281 1.5341
10.4763 4.8386 1.5074
12.5408 5.9367 1.7762
12.6829 6.1516 1.7678
12.8296 6.3736 1.7595
12.9812 6.6028 1.7512
13.1379 6.8399 1.7431
13.3001 7.0852 1.7351
13.4686 7.3395 1.7272
13.6431 7.6031 1.7194
13.8242 7.8765 1.7117
14.0121 8.1603 1.7041
14.2075 8.4553 1.6966
14.4107 8.7622 1.6893
14.6223 9.0817 1.6820
14.8428 9.4148 1.6749
15.0729 9.7623 1.6679
15.3093 10.1227 1.6606
15.5584 10.5008 1.6537
15.8192 10.8966 1.6469
16.0926 11.3115 1.6403
16.3794 11.7468 1.6338
16.6810 12.2044 1.6275
17.0081 12.6934 1.6223
17.3459 13.2038 1.6167
17.7028 13.7429 1.6113
18.0804 14.3133 1.6062
18.4799 14.9174 1.6013
18.9025 15.5575 1.5965
19.3522 16.2386 1.5921
19.8316 16.9648 1.5879
20.3478 17.7444 1.5845
20.8977 18.5769 1.5812
21.4885 19.4713 1.5783
22.1280 20.4378 1.5762
22.8181 21.4814 1.5746
23.5683 22.6150 1.5738
24.3883 23.8524 1.5739
25.2632 25.1837 1.5735
26.2374 26.6584 1.5749
27.3260 28.2995 1.5783
28.5197 30.1054 1.5822
29.8664 32.1359 1.5885
31.3491 34.3839 1.5951
33.0496 36.9519 1.6050
17.7768 36.6935 -0.5446
17.4257 36.8723 -0.5948
16.6752 36.1853 -0.6289
16.5966 36.9499 -0.6871
16.0880 36.7647 -0.7269
15.5264 36.4368 -0.7620
8.5220 22.3619 -0.5622
8.3225 22.4909 -0.5873
8.1220 22.6199 -0.6120
7.9009 22.6933 -0.6347
7.5092 22.2610 -0.6421
7.2160 22.0969 -0.6562
7.1511 22.6401 -0.6909
6.9183 22.6665 -0.7096
6.6486 22.5651 -0.7235
6.3622 22.3925 -0.7344
6.0815 22.2231 -0.7445
8.3658 -0.2471 2.7029
8.4334 -0.1677 2.6977
8.5021 -0.0871 2.6927
8.5718 -0.0053 2.6879
8.6418 0.0778 2.6830
8.7077 0.1621 2.6768
8.7747 0.2476 2.6707
8.8357 0.3342 2.6627
8.8936 0.4218 2.6537
8.9522 0.5106 2.6449
9.0117 0.6005 2.6362
9.0719 0.6917 2.6277
9.1331 0.7843 2.6194
9.1950 0.8781 2.6112
9.2580 0.9734 2.6032
9.3218 1.0701 2.5954
9.3867 1.1682 2.5877
9.4526 1.2680 2.5803
9.5195 1.3693 2.5730
9.5876 1.4723 2.5658
9.3264 1.5231 2.4714
9.3053 1.6106 2.4415
9.7987 1.7919 2.5456
9.8716 1.9022 2.5392
9.9458 2.0146 2.5330
8.8085 1.8713 2.2212
8.7120 1.9373 2.1752
8.6815 2.0169 2.1461
8.5878 2.0810 2.1019
8.4957 2.1440 2.0587
8.3431 2.1896 2.0016
8.2611 2.2518 1.9622
8.1798 2.3129 1.9235
10.6869 3.1311 2.4881
9.6658 2.9314 2.2278
9.7582 3.0602 2.2266
9.8528 3.1923 2.2256
9.9502 3.3279 2.2250
10.0491 3.4667 2.2245
11.2668 4.0060 2.4688
10.2518 3.7544 2.2237
10.3557 3.9034 2.2234
10.4614 4.0563 2.2233
10.5689 4.2129 2.2232
10.6784 4.3735 2.2233
11.9339 5.0193 2.4592
10.6990 4.6190 2.1821
10.5926 4.6918 2.1381
10.4619 4.7522 2.0899
10.4675 4.8740 2.0693
12.5855 6.0049 2.4621
12.7281 6.2206 2.4640
12.8753 6.4432 2.4663
13.0274 6.6733 2.4692
13.1846 6.9111 2.4727
13.3473 7.1572 2.4766
13.5161 7.4122 2.4813
13.6911 7.6765 2.4866
13.8726 7.9506 2.4925
14.0611 8.2352 2.4992
14.2569 8.5309 2.5066
14.4605 8.8385 2.5148
14.6725 9.1586 2.5238
14.8934 9.4923 2.5337
15.1197 9.8377 2.5439
15.3582 10.1998 2.5555
15.6076 10.5782 2.5681
15.8685 10.9743 2.5818
16.1419 11.3894 2.5968
16.4289 11.8249 2.6132
16.7303 12.2824 2.6309
17.0613 12.7742 2.6524
17.3991 13.2845 2.6738
17.7558 13.8233 2.6972
18.0288 14.3105 2.7069
18.2417 14.7616 2.7069
18.4584 15.2269 2.7069
18.6791 15.7069 2.7069
18.9037 16.2022 2.7069
19.1325 16.7136 2.7069
19.3656 17.2417 2.7069
19.6031 17.7872 2.7069
19.8452 18.3510 2.7069
20.0918 18.9337 2.7069
20.3433 19.5362 2.7069
20.5997 20.1595 2.7069
20.8612 20.8044 2.7069
21.1279 21.4720 2.7069
21.4002 22.1634 2.7069
21.7037 22.9067 2.7101
22.6121 24.3217 2.7871
23.5035 25.7645 2.8593
23.8157 26.6075 2.8593
24.1345 27.4822 2.8593
24.4603 28.3902 2.8593
24.7930 29.3330 2.8593
25.1332 30.3127 2.8593
25.4809 31.3309 2.8593
25.8364 32.3898 2.8593
26.2000 33.4914 2.8593
26.5719 34.6380 2.8593
26.9524 35.8320 2.8593
27.3417 37.0761 2.8593
27.7403 38.3731 2.8593
28.1483 39.7257 2.8593
16.7234 36.8392 1.2307
11.6002 29.1797 0.7805
7.6350 22.2489 0.4687
7.2744 22.5980 0.4305
6.9939 22.4618 0.4064
2.4999 15.6898 0.1203
7.3071 48.8762 0.3527
6.7003 47.9626 0.3259
6.1172 47.0848 0.3016
5.5564 46.2405 0.2794
4.9943 45.2264 0.2582
4.5626 45.3016 0.2447
7.2607 -0.1079 2.7069
7.3249 -0.0383 2.7069
7.3894 0.0325 2.7069
7.4542 0.1045 2.7069
7.5194 0.1776 2.7069
7.5848 0.2520 2.7069
7.6506 0.3276 2.7069
7.7167 0.4045 2.7069
7.7832 0.4827 2.7069
7.8499 0.5621 2.7069
7.9170 0.6430 2.7069
7.9845 0.7252 2.7069
8.0522 0.8088 2.7069
8.1203 0.8939 2.7069
8.1888 0.9804 2.7069
8.2576 1.0683 2.7069
8.3267 1.1578 2.7069
8.3962 1.2488 2.7069
8.4660 1.3414 2.7069
8.5361 1.4356 2.7069
8.6066 1.5314 2.7069
8.6775 1.6289 2.7069
8.7487 1.7281 2.7069
8.8202 1.8290 2.7069
8.8921 1.9317 2.7069
8.9643 2.0362 2.7069
9.0369 2.1425 2.7069
9.1098 2.2507 2.7069
9.1831 2.3609 2.7069
9.2567 2.4730 2.7069
8.2209 2.2794 2.3849
8.2534 2.3722 2.3754
9.4797 2.8214 2.7069
9.5547 2.9418 2.7069
9.6300 3.0643 2.7069
9.7057 3.1891 2.7069
9.7817 3.3161 2.7069
9.8580 3.4454 2.7069
9.9347 3.5771 2.7069
10.0116 3.7112 2.7069
10.0890 3.8478 2.7069
10.1666 3.9868 2.7069
10.2445 4.1285 2.7069
10.3227 4.2728 2.7069
10.4013 4.4197 2.7069
10.4801 4.5694 2.7069
10.5591 4.7219 2.7069
10.4233 4.7786 2.6521
10.7182 5.0356 2.7069
10.7980 5.1968 2.7069
10.8782 5.3612 2.7069
10.9586 5.5286 2.7069
11.0392 5.6992 2.7069
11.1200 5.8731 2.7069
11.2010 6.0503 2.7069
11.2822 6.2309 2.7069
11.3635 6.4150 2.7069
11.4451 6.6026 2.7069
11.5267 6.7938 2.7069
11.6085 6.9888 2.7069
11.6904 7.1875 2.7069
11.7723 7.3901 2.7069
11.8543 7.5967 2.7069
11.9364 7.8073 2.7069
12.0345 8.0327 2.7105
12.1005 8.2409 2.7069
12.1825 8.4641 2.7069
12.2997 8.7167 2.7147
12.4957 9.0320 2.7397
12.7141 9.3716 2.7692
12.9432 9.7281 2.8008
13.1839 10.1028 2.8344
13.3851 10.4566 2.8593
13.4704 10.7270 2.8593
13.5554 11.0029 2.8593
13.6399 11.2843 2.8593
13.7240 11.5712 2.8593
13.8076 11.8639 2.8593
13.8907 12.1625 2.8593
13.9731 12.4669 2.8593
14.0548 12.7775 2.8593
14.1358 13.0942 2.8593
14.2160 13.4173 2.8593
14.2953 13.7468 2.8593
14.3736 14.0828 2.8593
14.4510 14.4256 2.8593
14.5271 14.7751 2.8593
14.6020 15.1316 2.8593
14.6757 15.4951 2.8593
14.7479 15.8658 2.8593
14.8186 16.2438 2.8593
14.8877 16.6292 2.8593
14.9551 17.0222 2.8593
15.0207 17.4228 2.8593
15.0842 17.8312 2.8593
15.1457 18.2475 2.8593
15.2050 18.6718 2.8593
15.2618 19.1041 2.8593
15.3162 19.5447 2.8593
15.3679 19.9937 2.8593
15.4168 20.4509 2.8593
15.4627 20.9167 2.8593
15.5054 21.3911 2.8593
15.5448 21.8741 2.8593
15.5807 22.3658 2.8593
15.6128 22.8662 2.8593
15.6410 23.3755 2.8593
15.6651 23.8936 2.8593
15.6848 24.4206 2.8593
15.7000 24.9564 2.8593
15.7104 25.5011 2.8593
15.7157 26.0546 2.8593
15.7158 26.6170 2.8593
15.7103 27.1881 2.8593
15.6990 27.7679 2.8593
15.6817 28.3562 2.8593
15.6580 28.9530 2.8593
15.6277 29.5581 2.8593
15.5904 30.1713 2.8593
15.5460 30.7925 2.8593
15.4941 31.4214 2.8593
15.4343 32.0578 2.8593
14.7956 31.4863 2.7530
14.4753 31.5740 2.7069
14.3948 32.1960 2.7069
14.3057 32.8235 2.7069
14.2078 33.4565 2.7069
14.1007 34.0943 2.7069
13.9842 34.7365 2.7069
13.8579 35.3825 2.7069
13.7216 36.0320 2.7069
14.3391 38.7493 2.8593
14.1729 39.4400 2.8593
13.9952 40.1322 2.8593
13.8058 40.8249 2.8593
13.6044 41.5174 2.8593
7.1819 22.6378 1.5335
13.1644 42.8975 2.8593
12.9256 43.5834 2.8593
12.6738 44.2651 2.8593
12.4089 44.9414 2.8593
12.1309 45.6113 2.8593
11.8397 46.2737 2.8593
11.5351 46.9273 2.8593
11.2171 47.5706 2.8593
10.8858 48.2026 2.8593
9.5845 48.8569 2.7929
8.9300 47.9177 2.7082
8.5501 48.4200 2.7069
8.1627 48.9272 2.7069
2.4607 15.6619 0.8579
7.1759 48.6760 2.6415
6.5823 47.7825 2.5701
6.0116 46.9233 2.5029
5.4623 46.0963 2.4398
4.9134 45.1186 2.3709
4.4211 44.5124 2.3235
3.9290 43.7716 2.2710
3.4538 43.0562 2.2217
2.9945 42.3648 2.1753
2.5504 41.6961 2.1318
2.1120 40.8847 2.0827
1.7044 40.4294 2.0532
1.3008 39.8218 2.0173
0.9094 39.2325 1.9839
0.5295 38.6606 1.9526
0.1606 38.1053 1.9234
-0.1977 37.5658 1.8962
-0.5461 37.0413 1.8710
-0.8815 36.3850 1.8402
-1.2143 36.0181 1.8251
-1.5353 35.5348 1.8052
-1.8481 35.0639 1.7868
-2.1530 34.6049 1.7701
-2.4503 34.1572 1.7548
6.5100 0.0020 2.7614
6.5526 0.0650 2.7577
6.5956 0.1288 2.7542
6.6391 0.1934 2.7509
6.6831 0.2588 2.7478
6.7276 0.3250 2.7449
6.7727 0.3921 2.7423
6.8183 0.4601 2.7399
6.8644 0.5291 2.7377
6.9111 0.5990 2.7358
6.9585 0.6699 2.7341
7.0065 0.7419 2.7327
7.0551 0.8149 2.7315
7.1044 0.8890 2.7306
7.1544 0.9642 2.7299
7.2051 1.0407 2.7295
7.2565 1.1183 2.7294
7.3088 1.1972 2.7296
7.3618 1.2775 2.7300
7.4157 1.3591 2.7308
7.4704 1.4421 2.7318
7.5261 1.5265 2.7332
7.5826 1.6125 2.7348
7.6402 1.7000 2.7368
7.6987 1.7892 2.7392
7.7583 1.8800 2.7418
7.8189 1.9727 2.7449
7.8807 2.0671 2.7483
7.9437 2.1634 2.7520
8.0079 2.2617 2.7562
8.0733 2.3620 2.7608
8.1401 2.4645 2.7657
8.2082 2.5691 2.7711
8.2777 2.6761 2.7770
8.3488 2.7855 2.7833
8.4214 2.8973 2.7900
8.4956 3.0118 2.7973
8.5715 3.1290 2.8050
8.6491 3.2490 2.8133
8.7286 3.3720 2.8222
8.8100 3.4981 2.8316
8.8935 3.6274 2.8416
8.9790 3.7601 2.8522
9.0535 3.8906 2.8593
9.1055 4.0136 2.8593
9.1573 4.1385 2.8593
9.2087 4.2652 2.8593
9.2599 4.3937 2.8593
9.3107 4.5242 2.8593
9.3612 4.6566 2.8593
9.4114 4.7910 2.8593
9.4612 4.9273 2.8593
9.5106 5.0657 2.8593
9.5597 5.2061 2.8593
9.6082 5.3485 2.8593
9.6564 5.4931 2.8593
9.7040 5.6398 2.8593
9.7511 5.7886 2.8593
9.7977 5.9396 2.8593
9.8438 6.0928 2.8593
9.8892 6.2482 2.8593
9.9340 6.4058 2.8593
9.9782 6.5658 2.8593
10.0217 6.7280 2.8593
10.0644 6.8926 2.8593
10.1065 7.0596 2.8593
10.1478 7.2289 2.8593
10.1882 7.4006 2.8593
10.2278 7.5748 2.8593
10.2664 7.7513 2.8593
10.3042 7.9304 2.8593
10.3410 8.1120 2.8593
10.3767 8.2961 2.8593
10.4115 8.4827 2.8593
10.4451 8.6719 2.8593
10.4775 8.8637 2.8593
10.5088 9.0580 2.8593
10.5388 9.2550 2.8593
10.5675 9.4547 2.8593
10.5949 9.6569 2.8593
10.6209 9.8618 2.8593
10.6455 10.0694 2.8593
10.6685 10.2796 2.8593
10.6900 10.4926 2.8593
10.7098 10.7082 2.8593
10.7280 10.9265 2.8593
10.7443 11.1475 2.8593
10.7590 11.3712 2.8593
10.7717 11.5977 2.8593
10.7825 11.8267 2.8593
10.7913 12.0585 2.8593
10.7980 12.2929 2.8593
10.8025 12.5300 2.8593
10.8049 12.7697 2.8593
10.8049 13.0121 2.8593
10.8026 13.2570 2.8593
10.7978 13.5044 2.8593
10.7905 13.7544 2.8593
10.7807 14.0069 2.8593
10.7681 14.2619 2.8593
10.7527 14.5192 2.8593
10.7346 14.7789 2.8593
10.7134 15.0410 2.8593
10.6893 15.3052 2.8593
10.6621 15.5717 2.8593
10.6317 15.8402 2.8593
10.5980 16.1108 2.8593
10.5610 16.3833 2.8593
10.5205 16.6578 2.8593
10.4765 16.9339 2.8593
10.4289 17.2118 2.8593
10.3775 17.4912 2.8593
10.3224 17.7721 2.8593
10.2634 18.0543 2.8593
10.2004 18.3377 2.8593
10.1334 18.6221 2.8593
10.0622 18.9075 2.8593
9.9868 19.1937 2.8593
9.9072 19.4805 2.8593
9.8231 19.7677 2.8593
9.7346 20.0552 2.8593
9.6417 20.3429 2.8593
9.5441 20.6304 2.8593
9.4418 20.9176 2.8593
9.3348 21.2044 2.8593
9.2230 21.4904 2.8593
9.1064 21.7755 2.8593
8.9849 22.0595 2.8593
8.8585 22.3421 2.8593
8.4467 21.8964 2.7674
8.1328 21.6816 2.7069
7.9988 21.9438 2.7069
7.2606 22.4896 2.6506
7.8600 22.2037 2.7069
7.0678 22.6111 2.6364
7.7165 22.4611 2.7069
7.0940 23.4606 2.7069
7.5681 22.7158 2.7069
6.9263 23.7015 2.7069
6.5767 24.1706 2.7069
6.7539 23.9383 2.7069
6.3949 24.3983 2.7069
5.9383 26.6784 2.8593
6.2084 24.6210 2.7069
5.7224 26.8896 2.8593
6.3561 26.2369 2.8593
5.5021 27.0941 2.8593
5.2774 27.2916 2.8593
6.1495 26.4608 2.8593
4.8154 27.6643 2.8593
5.0485 27.4817 2.8593
4.5784 27.8390 2.8593
3.5939 28.4539 2.8593
3.3395 28.5855 2.8593
2.4267 15.6675 1.5996
3.0822 28.7077 2.8593
4.0931 28.1637 2.8593
2.8222 28.8205 2.8593
3.8452 28.3132 2.8593
2.5597 28.9235 2.8593
2.2949 29.0168 2.8593
0.9447 29.3300 2.8593
2.0280 29.0999 2.8593
0.6711 29.3613 2.8593
1.7594 29.1730 2.8593
0.3968 29.3820 2.8593
1.4891 29.2358 2.8593
0.1222 29.3921 2.8593
1.2174 29.2881 2.8593
-0.1525 29.3915 2.8593
-0.4270 29.3803 2.8593
-0.7012 29.3584 2.8593
-0.9748 29.3258 2.8593
-1.2474 29.2828 2.8593
-1.5189 29.2293 2.8593
-1.7890 29.1655 2.8593
-2.0575 29.0913 2.8593
5.9878 0.0961 2.8593
6.0306 0.1546 2.8593
6.0733 0.2140 2.8593
6.1160 0.2741 2.8593
6.1586 0.3350 2.8593
6.2011 0.3967 2.8593
6.2436 0.4593 2.8593
6.2860 0.5226 2.8593
6.3283 0.5868 2.8593
6.3705 0.6518 2.8593
6.4126 0.7176 2.8593
6.4546 0.7843 2.8593
6.4965 0.8519 2.8593
6.5383 0.9204 2.8593
6.5800 0.9897 2.8593
6.6215 1.0599 2.8593
6.6629 1.1311 2.8593
6.7042 1.2031 2.8593
6.7453 1.2761 2.8593
6.7862 1.3500 2.8593
6.8270 1.4250 2.8593
6.8676 1.5008 2.8593
6.9080 1.5776 2.8593
6.9483 1.6553 2.8593
6.9883 1.7342 2.8593
7.0282 1.8139 2.8593
7.0678 1.8947 2.8593
7.1072 1.9766 2.8593
7.1463 2.0594 2.8593
7.1853 2.1433 2.8593
7.2239 2.2283 2.8593
7.2623 2.3144 2.8593
7.3004 2.4015 2.8593
7.3382 2.4897 2.8593
7.3757 2.5790 2.8593
7.4129 2.6694 2.8593
7.4497 2.7610 2.8593
7.4862 2.8537 2.8593
7.5224 2.9475 2.8593
7.5581 3.0425 2.8593
7.5935 3.1387 2.8593
7.6285 3.2360 2.8593
7.6631 3.3345 2.8593
7.6972 3.4342 2.8593
7.7309 3.5351 2.8593
7.7642 3.6373 2.8593
7.7969 3.7407 2.8593
7.8292 3.8453 2.8593
7.8609 3.9512 2.8593
7.8921 4.0583 2.8593
7.9228 4.1667 2.8593
7.9529 4.2763 2.8593
7.9824 4.3873 2.8593
8.0113 4.4996 2.8593
8.0395 4.6131 2.8593
8.0671 4.7279 2.8593
8.0940 4.8441 2.8593
8.1203 4.9616 2.8593
8.1458 5.0804 2.8593
8.1706 5.2006 2.8593
8.1946 5.3221 2.8593
8.2178 5.4449 2.8593
8.2402 5.5691 2.8593
8.2617 5.6947 2.8593
8.2824 5.8216 2.8593
8.3022 5.9499 2.8593
8.3211 6.0795 2.8593
8.3390 6.2105 2.8593
8.3559 6.3429 2.8593
8.3718 6.4766 2.8593
8.3867 6.6117 2.8593
8.4006 6.7482 2.8593
8.4133 6.8860 2.8593
8.4249 7.0252 2.8593
8.4353 7.1657 2.8593
8.4445 7.3076 2.8593
8.4526 7.4508 2.8593
8.4593 7.5954 2.8593
8.4648 7.7413 2.8593
8.4689 7.8885 2.8593
8.4717 8.0370 2.8593
8.4638 8.7986 2.8593
8.4731 8.1868 2.8593
8.4576 8.9546 2.8593
8.4730 8.3378 2.8593
8.4498 9.1118 2.8593
8.4714 8.4902 2.8593
8.4403 9.2701 2.8593
8.4684 8.6438 2.8593
8.4291 9.4296 2.8593
8.4162 9.5903 2.8593
8.3241 10.4089 2.8593
8.4015 9.7520 2.8593
8.2999 10.5755 2.8593
8.3850 9.9147 2.8593
8.3666 10.0785 2.8593
8.2736 10.7430 2.8593
8.3463 10.2432 2.8593
8.2453 10.9113 2.8593
8.1824 11.2502 2.8593
8.2149 11.0804 2.8593
8.1476 11.4207 2.8593
7.9861 12.1085 2.8593
8.1107 11.5919 2.8593
7.9398 12.2816 2.8593
8.0715 11.7636 2.8593
7.8912 12.4550 2.8593
8.0299 11.9358 2.8593
7.8401 12.6287 2.8593
7.7304 12.9766 2.8593
7.7865 12.8026 2.8593
7.6717 13.1506 2.8593
7.4108 13.8456 2.8593
7.6104 13.3246 2.8593
7.5465 13.4985 2.8593
7.3389 14.0186 2.8593
7.4800 13.6722 2.8593
7.2642 14.1912 2.8593
7.0237 14.7051 2.8593
7.1868 14.3632 2.8593
6.9379 14.8748 2.8593
7.1067 14.5345 2.8593
6.8493 15.0436 2.8593
6.5663 15.5431 2.8593
6.7578 15.2113 2.8593
6.4662 15.7069 2.8593
6.6635 15.3779 2.8593
6.3633 15.8693 2.8593
6.0373 16.3460 2.8593
6.2575 16.0299 2.8593
5.9229 16.5011 2.8593
6.1488 16.1889 2.8593
5.8057 16.6541 2.8593
5.4371 17.0993 2.8593
5.6856 16.8049 2.8593
5.5627 16.9533 2.8593
5.2498 17.0515 2.8276
4.5138 16.8394 2.7069
4.9538 16.6324 2.7358
4.3796 16.9611 2.7069
4.7748 16.5872 2.7069
4.2430 17.0796 2.7069
4.6455 16.7147 2.7069
4.1040 17.1948 2.7069
3.8193 17.4149 2.7069
3.9628 17.3066 2.7069
3.0705 17.9004 2.7069
3.6737 17.5197 2.7069
2.2759 18.2832 2.7069
2.9149 17.9855 2.7069
3.5259 17.6206 2.7069
2.1124 18.3464 2.7069
2.3957 15.6954 2.3516
3.3760 17.7178 2.7069
2.0572 19.4413 2.8593
2.5986 18.1431 2.7069
3.2242 17.8111 2.7069
1.8818 19.4984 2.8593
2.4380 18.2153 2.7069
1.7053 19.5504 2.8593
1.5276 19.5974 2.8593
0.6271 19.7548 2.8593
-0.2834 19.7799 2.8593
1.3490 19.6393 2.8593
0.4454 19.7705 2.8593
-0.4654 19.7689 2.8593
1.1696 19.6760 2.8593
0.2633 19.7808 2.8593
-0.6471 19.7527 2.8593
0.9893 19.7075 2.8593
-0.8284 19.7311 2.8593
0.0811 19.7858 2.8593
0.8085 19.7338 2.8593
-1.0092 19.7043 2.8593
-0.1011 19.7856 2.8593
-1.1893 19.6722 2.8593
-1.3687 19.6349 2.8593
5.3626 0.1742 2.8593
5.3976 0.2270 2.8593
5.4324 0.2805 2.8593
5.4670 0.3346 2.8593
5.5015 0.3893 2.8593
5.5359 0.4447 2.8593
5.5701 0.5008 2.8593
5.6041 0.5575 2.8593
5.6380 0.6148 2.8593
5.6717 0.6729 2.8593
5.7052 0.7316 2.8593
5.7385 0.7909 2.8593
5.7716 0.8510 2.8593
5.8046 0.9118 2.8593
5.8373 0.9732 2.8593
5.8698 1.0354 2.8593
5.9020 1.0983 2.8593
5.9341 1.1619 2.8593
5.9659 1.2262 2.8593
5.9974 1.2912 2.8593
6.0287 1.3570 2.8593
6.0597 1.4235 2.8593
6.0905 1.4908 2.8593
6.1210 1.5588 2.8593
6.1512 1.6275 2.8593
6.1811 1.6970 2.8593
6.2106 1.7673 2.8593
6.2399 1.8383 2.8593
6.2689 1.9102 2.8593
6.2975 1.9828 2.8593
6.3257 2.0562 2.8593
6.3536 2.1304 2.8593
6.3812 2.2054 2.8593
6.4083 2.2811 2.8593
6.4351 2.3577 2.8593
6.4614 2.4351 2.8593
6.4874 2.5133 2.8593
6.5129 2.5924 2.8593
6.5380 2.6722 2.8593
6.5626 2.7529 2.8593
6.5868 2.8344 2.8593
6.6105 2.9168 2.8593
6.6337 2.9999 2.8593
6.6564 3.0840 2.8593
6.6786 3.1688 2.8593
6.7003 3.2545 2.8593
6.7214 3.3411 2.8593
6.7420 3.4285 2.8593
6.7620 3.5168 2.8593
6.7814 3.6059 2.8593
6.8002 3.6959 2.8593
6.8184 3.7867 2.8593
6.8359 3.8784 2.8593
6.8528 3.9709 2.8593
6.8690 4.0643 2.8593
6.8845 4.1586 2.8593
6.8994 4.2537 2.8593
6.9135 4.3497 2.8593
6.9268 4.4465 2.8593
6.9395 4.5442 2.8593
6.9513 4.6427 2.8593
6.9982 5.1479 2.8593
6.9623 4.7420 2.8593
7.0050 5.2515 2.8593
6.9726 4.8422 2.8593
7.0108 5.3558 2.8593
6.9820 4.9433 2.8593
7.0158 5.4610 2.8593
6.9905 5.0452 2.8593
7.0198 5.5669 2.8593
7.0228 5.6737 2.8593
7.0224 6.2191 2.8593
7.0248 5.7812 2.8593
7.0191 6.3304 2.8593
7.0258 5.8896 2.8593
7.0147 6.4424 2.8593
7.0257 5.9986 2.8593
7.0091 6.5552 2.8593
7.0246 6.1085 2.8593
7.0024 6.6686 2.8593
6.9944 6.7827 2.8593
6.9359 7.3626 2.8593
6.9853 6.8974 2.8593
6.9203 7.4804 2.8593
6.9749 7.0128 2.8593
6.9034 7.5986 2.8593
6.9632 7.1288 2.8593
6.8850 7.7174 2.8593
6.9502 7.2455 2.8593
6.8652 7.8367 2.8593
6.8440 7.9564 2.8593
6.7158 8.5609 2.8593
6.8214 8.0766 2.8593
6.6856 8.6828 2.8593
6.7973 8.1971 2.8593
6.6538 8.8049 2.8593
6.7716 8.3181 2.8593
6.5485 9.1723 2.8593
6.6203 8.9272 2.8593
6.3396 9.7861 2.8593
6.7445 8.4394 2.8593
6.5102 9.2951 2.8593
6.5853 9.0497 2.8593
6.2925 9.9086 2.8593
6.0866 10.3967 2.8593
6.4701 9.4178 2.8593
6.2438 10.0310 2.8593
5.7878 10.9981 2.8593
6.0305 10.5179 2.8593
6.4283 9.5406 2.8593
5.7224 11.1167 2.8593
6.1932 10.1532 2.8593
5.9727 10.6388 2.8593
6.3848 9.6634 2.8593
5.6551 11.2346 2.8593
6.1408 10.2751 2.8593
5.9129 10.7591 2.8593
5.4419 11.5835 2.8593
5.5860 11.3518 2.8593
5.0485 12.1454 2.8593
5.8513 10.8789 2.8593
5.3670 11.6980 2.8593
5.5149 11.4681 2.8593
4.9641 12.2542 2.8593
4.6079 12.6756 2.8593
5.2903 11.8115 2.8593
4.8779 12.3617 2.8593
4.1215 13.1661 2.8593
4.5142 12.7772 2.8593
5.2116 11.9239 2.8593
4.7897 12.4678 2.8593
4.0190 13.2587 2.8593
4.4187 12.8771 2.8593
5.1310 12.0353 2.8593
4.6997 12.5725 2.8593
3.9147 13.3493 2.8593
4.3214 12.9753 2.8593
3.5919 13.6085 2.8593
2.9303 13.5664 2.7718
3.8088 13.4379 2.8593
4.2223 13.0716 2.8593
3.4811 13.6905 2.8593
2.7494 13.3130 2.7065
3.7011 13.5243 2.8593
2.2901 13.5541 2.7069
3.3688 13.7702 2.8593
1.6914 13.7929 2.7069
2.6367 13.3785 2.7069
2.1724 13.6074 2.7069
3.2549 13.8475 2.8593
1.5689 13.8322 2.7069
2.5224 13.4396 2.7069
2.0536 13.6579 2.7069
3.1188 13.8303 2.8404
2.4068 13.4982 2.7069
1.4457 13.8687 2.7069
1.9337 13.7057 2.7069
1.0721 13.9601 2.7069
0.4395 14.0522 2.7069
1.8130 13.7507 2.7069
1.3218 13.9021 2.7069
0.9464 13.9847 2.7069
1.1973 13.9327 2.7069
0.3121 14.0613 2.7069
0.8202 14.0062 2.7069
-0.1985 14.0668 2.7069
0.1845 14.0674 2.7069
0.6936 14.0246 2.7069
-0.3261 14.0605 2.7069
0.0568 14.0703 2.7069
0.5667 14.0399 2.7069
-0.4535 14.0509 2.7069
-0.0709 14.0701 2.7069
-0.5807 14.0384 2.7069
-0.7076 14.0227 2.7069
-0.8341 14.0040 2.7069
-1.0143 14.7693 2.8593
4.8331 0.2403 2.8593
4.8620 0.2882 2.8593
4.8908 0.3367 2.8593
4.9193 0.3856 2.8593
4.9477 0.4351 2.8593
4.9758 0.4851 2.8593
5.0037 0.5357 2.8593
5.0315 0.5867 2.8593
5.0590 0.6383 2.8593
5.0863 0.6905 2.8593
5.1133 0.7432 2.8593
5.1401 0.7965 2.8593
5.1667 0.8503 2.8593
5.1931 0.9046 2.8593
5.2191 0.9595 2.8593
5.2449 1.0150 2.8593
5.2705 1.0711 2.8593
5.3698 1.3009 2.8593
5.2958 1.1277 2.8593
5.3939 1.3598 2.8593
5.3207 1.1848 2.8593
5.3454 1.2426 2.8593
5.4177 1.4193 2.8593
5.4871 1.6012 2.8593
5.4411 1.4794 2.8593
5.5957 1.9163 2.8593
5.5095 1.6631 2.8593
5.4643 1.5400 2.8593
5.6945 2.2462 2.8593
5.6162 1.9811 2.8593
5.5316 1.7255 2.8593
5.7824 2.5913 2.8593
5.7130 2.3141 2.8593
5.5533 1.7885 2.8593
5.6365 2.0465 2.8593
5.7986 2.6622 2.8593
5.5747 1.8521 2.8593
5.7311 2.3825 2.8593
5.6562 2.1125 2.8593
5.8142 2.7336 2.8593
5.8580 2.9515 2.8593
5.7486 2.4515 2.8593
5.6756 2.1791 2.8593
5.8294 2.8056 2.8593
5.8716 3.0253 2.8593
5.7658 2.5211 2.8593
5.9200 3.3267 2.8593
5.9667 3.7167 2.8593
5.8440 2.8783 2.8593
5.8845 3.0998 2.8593
5.9966 4.1210 2.8593
5.9306 3.4035 2.8593
5.9741 3.7964 2.8593
6.0080 4.5389 2.8593
5.8969 3.1748 2.8593
6.0004 4.2035 2.8593
5.9808 3.8767 2.8593
5.9406 3.4810 2.8593
6.0079 4.6241 2.8593
5.9088 3.2505 2.8593
6.0035 4.2865 2.8593
5.9868 3.9576 2.8593
5.9499 3.5589 2.8593
6.0069 4.7097 2.8593
5.9990 4.9696 2.8593
5.9921 4.0390 2.8593
6.0058 4.3701 2.8593
5.9587 3.6375 2.8593
5.9946 5.0572 2.8593
6.0052 4.7959 2.8593
5.9678 5.4118 2.8593
6.0073 4.4543 2.8593
5.9126 5.8641 2.8593
5.9893 5.1452 2.8593
6.0025 4.8825 2.8593
5.9587 5.5015 2.8593
5.9831 5.2336 2.8593
5.8314 6.3245 2.8593
5.8985 5.9556 2.8593
5.7224 6.7907 2.8593
5.9487 5.5916 2.8593
5.9759 5.3226 2.8593
5.8118 6.4174 2.8593
5.8833 6.0474 2.8593
5.6971 6.8845 2.8593
5.5838 7.2601 2.8593
5.7912 6.5104 2.8593
5.9377 5.6821 2.8593
5.8671 6.1395 2.8593
5.6706 6.9783 2.8593
5.5524 7.3542 2.8593
5.7694 6.6037 2.8593
5.9256 5.7730 2.8593
5.8498 6.2319 2.8593
5.6429 7.0722 2.8593
5.5198 7.4481 2.8593
5.7465 6.6971 2.8593
5.4142 7.7296 2.8593
5.2120 8.1956 2.8593
5.6140 7.1662 2.8593
5.4858 7.5420 2.8593
4.9762 8.6540 2.8593
5.3763 7.8232 2.8593
5.1676 8.2880 2.8593
4.7063 9.1007 2.8593
5.4507 7.6359 2.8593
4.9250 8.7445 2.8593
5.1218 8.3801 2.8593
5.3372 7.9166 2.8593
4.4017 9.5307 2.8593
4.6481 9.1882 2.8593
4.8724 8.8344 2.8593
5.0746 8.4718 2.8593
5.2968 8.0099 2.8593
4.3367 9.6143 2.8593
4.5886 9.2749 2.8593
4.8184 8.9237 2.8593
5.0261 8.5632 2.8593
4.2703 9.6970 2.8593
5.2551 8.1028 2.8593
4.5277 9.3610 2.8593
4.7630 9.0125 2.8593
4.0630 9.9392 2.8593
4.2026 9.7787 2.8593
3.6909 10.3211 2.8593
4.4654 9.4463 2.8593
4.1334 9.8595 2.8593
3.2870 10.6711 2.8593
3.9912 10.0179 2.8593
3.6126 10.3938 2.8593
2.8534 10.9841 2.8593
2.3932 11.2554 2.8593
3.2025 10.7368 2.8593
3.5330 10.4652 2.8593
3.9181 10.0955 2.8593
2.7634 11.0419 2.8593
2.2982 11.3043 2.8593
3.4523 10.5352 2.8593
3.8437 10.1719 2.8593
3.1170 10.8010 2.8593
2.6723 11.0979 2.8593
2.2024 11.3513 2.8593
3.7679 10.2471 2.8593
3.0302 10.8637 2.8593
3.3702 10.6039 2.8593
2.1056 11.3963 2.8593
2.5803 11.1522 2.8593
1.9098 11.4806 2.8593
2.9424 10.9247 2.8593
2.0081 11.4394 2.8593
1.3511 11.1902 2.7450
2.4872 11.2047 2.8593
1.8107 11.5197 2.8593
0.3454 11.2138 2.7069
0.8432 11.1503 2.7069
1.2355 11.0618 2.7069
1.7108 11.5569 2.8593
0.2452 11.2201 2.7069
0.7442 11.1672 2.7069
1.1381 11.0870 2.7069
0.1450 11.2243 2.7069
1.6031 11.5399 2.8465
1.0402 11.1102 2.7069
0.6448 11.1821 2.7069
1.4750 11.3623 2.7947
0.0447 11.2263 2.7069
0.9419 11.1313 2.7069
0.5452 11.1948 2.7069
-0.0557 11.2262 2.7069
0.4454 11.2054 2.7069
-0.1560 11.2239 2.7069
-0.2562 11.2195 2.7069
-0.3564 11.2130 2.7069
-0.4564 11.2043 2.7069
-0.5562 11.1935 2.7069
-0.6558 11.1805 2.7069
-0.7551 11.1655 2.7069
