ply
format ascii 1.0
element vertex 1524
property float32 x
property float32 y
property float32 z
end_header
-6.2744 2.5841 -2.0459
-43.2383 -5.5375 -6.3411
-43.1893 -5.9540 -6.2160
-42.6428 -6.2972 -6.0215
-41.2857 -6.5029 -5.7182
-39.7466 -6.6526 -5.3980
-40.0145 -7.0935 -5.3270
-42.1048 -7.8820 -5.4928
-11.3972 -3.0546 -1.2467
-11.7156 -2.6626 -1.4042
-11.4002 -3.1730 -1.2173
-11.4539 -3.3066 -1.1933
-40.6890 -8.0222 -5.1998
-11.5085 -3.4424 -1.1691
-11.5641 -3.5802 -1.1449
-11.7331 -2.7852 -1.3755
-11.6207 -3.7203 -1.1204
-39.9845 -8.2830 -5.0036
-11.7508 -2.9089 -1.3467
-11.6983 -2.5408 -1.4330
-11.1759 -2.8806 -1.2516
-17.4342 29.1380 -13.4612
-17.6833 26.8912 -12.5335
-6.2679 2.6021 -1.6991
-43.3105 -5.8088 -4.1270
-42.5816 -6.1293 -3.9403
-43.3165 -5.3851 -4.2472
-42.8934 -6.5967 -3.8513
-39.8052 -6.9093 -3.3559
-42.1626 -6.9008 -3.6701
-39.8812 -7.3190 -3.2534
-40.2594 -8.5976 -2.9553
-39.4635 -7.6359 -3.1117
-40.5439 -9.0675 -2.8660
-40.4787 -8.2376 -3.0815
-12.5169 -3.1817 -0.7829
-40.1892 -9.3955 -2.7318
-12.4792 -3.3004 -0.7467
-41.3288 -10.0827 -2.6971
-11.5929 -3.1857 -0.6622
-11.1457 -3.1786 -0.6064
-11.2973 -3.3399 -0.5840
-11.4542 -3.5066 -0.5610
-16.0656 27.2954 -10.8975
-16.4918 27.3572 -10.9387
-6.2637 2.6195 -1.3605
-6.3013 2.5623 -1.3445
-48.5017 1.6751 -4.6299
-48.0132 2.5902 -4.8641
-48.2561 2.1347 -4.7473
-48.7500 1.2112 -4.5118
-49.5201 -0.2074 -4.1543
-49.0012 0.7430 -4.3931
-49.8014 -0.6903 -4.0351
-49.2552 0.2702 -4.2738
-40.4205 -6.4722 -1.5648
-40.5134 -6.8889 -1.4549
-40.6885 -7.3237 -1.3473
-40.6393 -5.7046 -1.8008
-40.7018 -7.7326 -1.2337
-40.3287 -6.0587 -1.6741
-40.7155 -8.1435 -1.1200
-40.5359 -8.5155 -1.0013
-40.4880 -9.7387 -0.6586
-39.3150 -8.6564 -0.8608
-40.5044 -9.3295 -0.7729
-42.2960 -10.6070 -0.5687
-42.9829 -11.2219 -0.4565
-42.6506 -11.5767 -0.3322
-12.1071 -3.4123 -0.0599
-12.0585 -3.5248 -0.0254
-16.4842 27.7893 -9.4267
-17.4658 28.7591 -9.7631
-17.2939 27.8213 -9.4521
-17.8054 27.9925 -9.5179
-18.0932 27.8047 -9.4618
-18.3715 27.6029 -9.4011
-18.6492 27.4014 -9.3406
-6.2750 2.6426 -1.0305
-6.2803 2.5724 -1.0089
-46.5288 6.3182 -3.5784
-46.1633 5.8130 -3.4133
-45.5200 5.2840 -3.2312
-44.5669 4.7359 -3.0324
-44.6948 4.3118 -2.9100
-44.9077 3.8935 -2.7926
-45.1348 3.4730 -2.6752
-44.9066 3.0183 -2.5312
-45.2494 2.6014 -2.4194
-46.0835 2.2020 -2.3309
-46.5600 1.7732 -2.2207
-46.9225 1.3324 -2.1031
-47.2541 0.8843 -1.9824
-47.4674 0.4289 -1.8552
-47.8452 -0.0306 -1.7331
-48.2290 -0.4974 -1.6092
-48.6191 -0.9718 -1.4835
-48.6799 -1.4442 -1.3466
-48.7699 -1.9191 -1.2101
-48.8647 -2.3963 -1.0734
-48.9606 -2.8759 -0.9362
-49.0574 -3.3579 -0.7984
-49.1139 -3.8393 -0.6596
-49.1835 -4.3237 -0.5206
-49.6125 -4.8454 -0.3838
-30.8103 -4.8269 0.2898
-31.0925 -5.1799 0.3818
-31.3809 -5.5406 0.4756
-31.6758 -5.9096 0.5715
-31.9774 -6.2868 0.6694
-32.2861 -6.6730 0.7696
-32.6021 -7.0683 0.8719
-32.9258 -7.4733 0.9767
-33.1150 -7.8546 1.0792
-33.5875 -8.3114 1.1933
-33.9364 -8.7479 1.3058
-34.2946 -9.1960 1.4212
-34.6625 -9.6562 1.5395
-14.7917 25.9426 -7.2840
-14.8004 25.3488 -7.1153
-15.1151 25.2879 -7.0961
-18.2920 29.9019 -8.3883
-18.3937 29.3869 -8.2412
-19.0950 29.8236 -8.3610
-19.3906 29.6132 -8.2993
-35.0640 19.1193 -5.1545
-35.1016 18.6937 -5.0311
-35.1387 18.2719 -4.9088
-35.1753 17.8538 -4.7875
-35.2116 17.4391 -4.6671
-35.2474 17.0278 -4.5477
-35.2828 16.6198 -4.4291
-35.3178 16.2149 -4.3115
-35.3525 15.8131 -4.1947
-35.3867 15.4142 -4.0786
-35.4206 15.0180 -3.9634
-6.2698 2.5863 -0.6806
-35.4874 14.2338 -3.7350
-35.5203 13.8455 -3.6219
-35.5529 13.4596 -3.5094
-35.5852 13.0760 -3.3976
-35.6171 12.6945 -3.2864
-35.6488 12.3153 -3.1757
-35.6802 11.9380 -3.0655
-35.7113 11.5627 -2.9559
-35.7421 11.1892 -2.8468
-35.7727 10.8175 -2.7382
-47.0631 6.5527 -1.3574
-46.3386 5.9950 -1.2024
-45.7441 5.4683 -1.0549
-45.1144 4.9505 -0.9105
-44.5414 4.4518 -0.7708
-44.5191 4.0148 -0.6426
-44.8538 3.6078 -0.5189
-44.5419 3.1492 -0.3878
-44.0095 2.6839 -0.2573
-44.2652 2.2699 -0.1323
-44.6690 1.8576 -0.0059
-46.0624 1.4693 0.1254
-46.8564 1.0410 0.2613
-26.5672 0.3332 0.2240
-26.7721 0.0767 0.3022
-27.1036 -0.1845 0.3833
-27.3161 -0.4503 0.4644
-27.5319 -0.7203 0.5468
-27.7514 -0.9948 0.6306
-27.9745 -1.2740 0.7158
-28.2015 -1.5580 0.8026
-28.4325 -1.8469 0.8909
-28.6676 -2.1411 0.9809
-28.9070 -2.4406 1.0725
-29.1509 -2.7457 1.1659
-29.3995 -3.0567 1.2611
-29.6529 -3.3737 1.3582
-29.7863 -3.6816 1.4511
-30.0549 -4.0109 1.5521
-30.4381 -4.3627 1.6612
-30.7129 -4.7065 1.7667
-30.9936 -5.0577 1.8744
-31.2805 -5.4166 1.9846
-31.5738 -5.7836 2.0973
-31.8739 -6.1590 2.2126
-32.1810 -6.5432 2.3306
-32.4955 -6.9366 2.4515
-32.8176 -7.3396 2.5754
-33.2146 -7.7682 2.7079
-32.0103 -7.8158 2.7079
-30.8840 -7.8596 2.7079
-30.9425 -8.1965 2.8090
-14.6543 26.1033 -5.8552
-14.9039 25.9273 -5.8056
-15.1528 25.7518 -5.7559
-15.4012 25.5768 -5.7062
-17.6428 28.6382 -6.3770
-18.1971 28.8786 -6.4179
-18.4811 28.6813 -6.3611
-18.8776 28.6558 -6.3422
-19.1595 28.4532 -6.2838
-19.4411 28.2510 -6.2252
-20.1790 28.6984 -6.3093
-32.0867 24.3143 -4.7190
-30.2343 22.4443 -4.3266
-30.2970 22.0305 -4.2169
-30.3584 21.6208 -4.1082
-30.4188 21.2152 -4.0003
-30.4780 20.8134 -3.8932
-30.5362 20.4155 -3.7869
-30.5934 20.0212 -3.6815
-30.6495 19.6304 -3.5767
-30.7047 19.2431 -3.4727
-30.7589 18.8590 -3.3694
-30.8121 18.4782 -3.2667
-30.8644 18.1006 -3.1647
-30.9158 17.7259 -3.0633
-30.9663 17.3541 -2.9625
-31.0160 16.9852 -2.8623
-31.0648 16.6190 -2.7627
-31.1127 16.2554 -2.6635
-31.2997 15.9657 -2.5764
-32.4952 16.1776 -2.5687
-32.7259 15.8957 -2.4808
-32.9584 15.6130 -2.3925
-33.1918 15.3291 -2.3035
-33.4263 15.0439 -2.2139
-33.6619 14.7573 -2.1237
-33.8988 14.4692 -2.0327
-6.2642 2.6020 -0.3562
-6.3503 2.5656 -0.3415
-34.6170 13.5957 -1.7556
-34.8592 13.3011 -1.6616
-35.1028 13.0047 -1.5669
-35.3480 12.7065 -1.4714
-35.5949 12.4063 -1.3749
-35.8437 12.1041 -1.2777
-36.0938 11.7997 -1.1794
-23.4185 4.2711 0.1826
-23.6769 4.0820 0.2518
-23.8434 3.8738 0.3212
-24.0117 3.6632 0.3915
-24.1819 3.4503 0.4628
-24.3540 3.2350 0.5350
-24.5281 3.0172 0.6082
-24.7043 2.7967 0.6824
-24.8826 2.5736 0.7576
-25.0632 2.3477 0.8340
-25.2461 2.1189 0.9115
-25.4314 1.8871 0.9902
-25.6191 1.6522 1.0701
-25.8094 1.4141 1.1512
-26.0024 1.1727 1.2336
-26.1981 0.9278 1.3174
-26.3967 0.6793 1.4026
-26.5075 0.4257 1.4841
-26.6962 0.1705 1.5710
-27.0261 -0.0888 1.6678
-27.2373 -0.3531 1.7590
-27.4520 -0.6216 1.8519
-27.6701 -0.8946 1.9465
-27.8920 -1.1722 2.0429
-28.1177 -1.4546 2.1411
-28.3474 -1.7419 2.2413
-28.5812 -2.0344 2.3434
-28.8193 -2.3323 2.4475
-29.0618 -2.6357 2.5538
-29.8121 -2.9956 2.7080
-28.8661 -3.1837 2.7079
-27.9752 -3.3605 2.7079
-27.2557 -3.5428 2.7201
-27.4663 -3.8418 2.8240
-27.0228 -4.0479 2.8603
-26.2662 -4.1960 2.8603
-25.5469 -4.3362 2.8603
-24.8621 -4.4693 2.8603
-24.2092 -4.5956 2.8603
-23.5860 -4.7157 2.8603
-22.9903 -4.8300 2.8603
-22.4204 -4.9389 2.8603
-21.8743 -5.0429 2.8603
-21.3507 -5.1421 2.8603
-20.8479 -5.2369 2.8603
-18.8910 32.6070 -5.4738
-19.1991 32.3856 -5.4132
-19.1103 31.5114 -5.2436
-19.2920 31.1039 -5.1520
-34.9268 26.5075 -3.0336
-33.7508 25.0980 -2.8135
-28.6400 20.8654 -2.2885
-28.8606 20.5971 -2.2074
-29.0814 20.3286 -2.1260
-29.3024 20.0598 -2.0440
-29.5236 19.7907 -1.9616
-29.7452 19.5212 -1.8787
-29.9671 19.2513 -1.7952
-30.1894 18.9809 -1.7112
-30.4122 18.7099 -1.6267
-30.6354 18.4384 -1.5415
-30.8592 18.1662 -1.4558
-31.0836 17.8933 -1.3695
-31.3089 17.6199 -1.2825
-31.5352 17.3457 -1.1949
-31.7622 17.0707 -1.1066
-31.9899 16.7947 -1.0176
-32.2186 16.5177 -0.9279
-32.4478 16.2395 -0.8375
-32.6774 15.9598 -0.7462
-32.9080 15.6790 -0.6542
-33.1396 15.3970 -0.5614
-33.3723 15.1137 -0.4677
-33.6061 14.8289 -0.3732
-33.8412 14.5427 -0.2778
-6.2587 2.6181 -0.0333
-6.2952 2.5621 -0.0155
-34.5539 13.6749 0.0140
-34.7942 13.3822 0.1132
-35.0360 13.0877 0.2134
-35.2794 12.7914 0.3147
-21.0409 7.3996 0.2470
-21.1839 7.2207 0.3082
-21.3279 7.0405 0.3701
-21.4729 6.8591 0.4327
-21.6189 6.6764 0.4960
-21.7660 6.4923 0.5600
-21.9143 6.3069 0.6248
-22.0637 6.1199 0.6903
-22.2144 5.9314 0.7566
-22.3663 5.7414 0.8237
-22.5195 5.5497 0.8916
-22.6741 5.3563 0.9604
-22.8301 5.1611 1.0301
-22.9875 4.9642 1.1007
-23.1465 4.7653 1.1722
-23.1999 4.5435 1.2390
-23.3612 4.3416 1.3122
-23.5389 4.1401 1.3872
-23.7838 3.9471 1.4674
-23.9511 3.7378 1.5441
-24.1202 3.5262 1.6218
-24.2913 3.3122 1.7007
-24.4643 3.0957 1.7808
-24.6394 2.8766 1.8622
-24.8167 2.6548 1.9448
-24.9962 2.4303 2.0287
-25.1779 2.2029 2.1140
-25.3621 1.9725 2.2006
-25.5487 1.7390 2.2888
-25.7379 1.5023 2.3784
-25.9297 1.2623 2.4695
-26.1243 1.0189 2.5623
-26.8301 0.7868 2.7080
-26.0896 0.5127 2.7079
-25.3872 0.2534 2.7079
-24.7190 0.0076 2.7079
-24.6000 -0.2304 2.7661
-24.7709 -0.4718 2.8573
-24.1841 -0.6950 2.8603
-23.5985 -0.9070 2.8603
-23.0378 -1.1090 2.8603
-22.5006 -1.3019 2.8603
-21.9850 -1.4861 2.8603
-21.4901 -1.6622 2.8603
-21.0142 -1.8307 2.8603
-20.5563 -1.9921 2.8603
-20.1153 -2.1468 2.8603
-19.6902 -2.2952 2.8603
-19.2802 -2.4377 2.8603
-18.8843 -2.5745 2.8603
-18.5018 -2.7061 2.8603
-18.1320 -2.8326 2.8603
-17.7741 -2.9544 2.8603
-17.4276 -3.0718 2.8603
-17.0918 -3.1848 2.8603
-16.7662 -3.2939 2.8603
-16.4503 -3.3990 2.8603
-16.1437 -3.5006 2.8603
-15.8458 -3.5986 2.8603
-15.5563 -3.6933 2.8603
-20.7012 38.0213 -4.3855
-20.9650 37.6120 -4.3022
-21.2256 37.2067 -4.2190
-21.4830 36.8053 -4.1361
-21.7685 36.4596 -4.0590
-22.9391 37.5695 -4.1422
-28.5633 40.2340 -4.0961
-30.3952 39.4248 -3.7923
-30.7101 39.0325 -3.6958
-31.2098 38.1009 -3.4880
-31.6391 37.8598 -3.4040
-28.0597 24.5175 -1.3780
-28.7093 24.5961 -1.3164
-28.5206 23.9569 -1.2158
-34.3765 25.6125 -0.8231
-28.8458 21.0596 -0.6036
-28.8413 20.6304 -0.5172
-29.0605 20.3642 -0.4349
-29.2796 20.0974 -0.3519
-29.4989 19.8303 -0.2682
-29.7186 19.5628 -0.1839
-29.9386 19.2949 -0.0989
-30.1591 19.0265 -0.0132
-30.3800 18.7575 0.0733
-30.6014 18.4879 0.1605
-30.8233 18.2177 0.2485
-31.0458 17.9467 0.3373
-18.5557 10.4887 0.2533
-18.6860 10.3256 0.3070
-18.8168 10.1620 0.3611
-18.9480 9.9979 0.4157
-19.0796 9.8332 0.4709
-19.2117 9.6680 0.5265
-19.3443 9.5021 0.5828
-19.4774 9.3355 0.6396
-19.6111 9.1683 0.6970
-19.7454 9.0003 0.7549
-19.8803 8.8315 0.8135
-19.9474 8.6323 0.8697
-6.2706 2.6422 0.2902
-6.2737 2.5727 0.3071
-20.4382 8.1525 1.0549
-20.5768 7.9791 1.1168
-20.7162 7.8047 1.1794
-20.8564 7.6293 1.2428
-20.9975 7.4527 1.3070
-21.1396 7.2750 1.3719
-21.2826 7.0960 1.4376
-21.4266 6.9159 1.5041
-21.5717 6.7344 1.5714
-21.7179 6.5515 1.6396
-21.8651 6.3673 1.7087
-22.0136 6.1815 1.7787
-22.1632 5.9943 1.8497
-22.3141 5.8055 1.9216
-22.4664 5.6150 1.9945
-22.6199 5.4229 2.0684
-22.7749 5.2290 2.1434
-22.9313 5.0333 2.2194
-23.0893 4.8357 2.2966
-23.1419 4.6149 2.3639
-23.3022 4.4142 2.4430
-23.4788 4.2141 2.5249
-24.5652 4.1656 2.7082
-23.9727 3.8282 2.7079
-23.4088 3.5074 2.7079
-22.8690 3.2017 2.7079
-22.3519 2.9102 2.7079
-22.2783 2.6827 2.7602
-22.4203 2.4809 2.8397
-22.0993 2.2301 2.8603
-21.6342 1.9727 2.8603
-21.1863 1.7261 2.8603
-20.7548 1.4896 2.8603
-20.3385 1.2626 2.8603
-19.9367 1.0446 2.8603
-19.5486 0.8351 2.8603
-19.1733 0.6337 2.8603
-18.8103 0.4398 2.8603
-18.4589 0.2531 2.8603
-18.1185 0.0732 2.8603
-17.7884 -0.1002 2.8603
-17.4683 -0.2675 2.8603
-17.1575 -0.4290 2.8603
-16.8558 -0.5849 2.8603
-16.5625 -0.7355 2.8603
-16.2774 -0.8811 2.8603
-16.0000 -1.0219 2.8603
-15.7301 -1.1581 2.8603
-15.4672 -1.2899 2.8603
-15.2111 -1.4176 2.8603
-14.9614 -1.5412 2.8603
-14.7179 -1.6611 2.8603
-14.4804 -1.7772 2.8603
-14.2485 -1.8899 2.8603
-14.0221 -1.9992 2.8603
-13.8009 -2.1053 2.8603
-13.5847 -2.2083 2.8603
-12.6607 -2.1853 2.7079
-12.4650 -2.2773 2.7079
-12.2735 -2.3666 2.7079
-12.0860 -2.4535 2.7079
-11.9025 -2.5380 2.7079
-11.7227 -2.6201 2.7079
-19.8864 37.0863 -2.3105
-20.1292 36.6707 -2.2398
-20.4087 36.3308 -2.1732
-20.7708 36.1412 -2.1150
-21.4568 36.5022 -2.0874
-22.4133 37.2886 -2.0812
-23.4235 38.1193 -2.0737
-30.0030 39.5780 -1.5006
-26.4427 26.4841 -0.1484
-27.0814 26.6037 -0.0736
-27.2688 26.2743 0.0041
-27.5288 26.0160 0.0823
-27.7618 25.7327 0.1612
-28.0149 25.4684 0.2408
-28.2473 25.1857 0.3211
-28.4795 24.9033 0.4019
-15.9846 13.7074 0.2692
-16.1115 13.5486 0.3149
-16.2383 13.3900 0.3610
-16.3649 13.2315 0.4076
-16.4916 13.0731 0.4545
-16.6182 12.9147 0.5018
-16.6765 12.7044 0.5473
-16.8026 12.5466 0.5953
-16.9303 12.3900 0.6438
-17.1231 12.2799 0.6954
-17.2499 12.1213 0.7449
-17.3768 11.9626 0.7949
-17.5038 11.8037 0.8454
-17.6309 11.6446 0.8963
-17.7583 11.4852 0.9478
-17.8859 11.3256 0.9998
-18.0137 11.1657 1.0523
-18.1418 11.0055 1.1053
-18.2701 10.8449 1.1589
-18.3988 10.6839 1.2131
-18.5278 10.5225 1.2678
-18.6572 10.3607 1.3231
-18.7869 10.1983 1.3791
-18.9171 10.0354 1.4356
-19.0478 9.8720 1.4928
-19.1789 9.7080 1.5506
-19.3105 9.5433 1.6091
-19.4426 9.3780 1.6682
-19.5753 9.2119 1.7281
-19.7086 9.0452 1.7886
-19.8426 8.8776 1.8499
-19.9089 8.6795 1.9054
-20.0323 8.5060 1.9669
-6.2655 2.5899 0.6307
-20.3966 8.2035 2.1039
-20.5342 8.0313 2.1691
-20.6726 7.8582 2.2352
-20.8118 7.6839 2.3022
-20.9520 7.5086 2.3700
-21.0931 7.3321 2.4387
-21.2351 7.1544 2.5084
-21.3781 6.9755 2.5790
-21.9886 6.9425 2.7080
-21.5456 6.5765 2.7079
-21.1200 6.2262 2.7079
-20.7097 5.8903 2.7079
-20.3138 5.5680 2.7079
-20.1770 5.3233 2.7413
-20.3002 5.1483 2.8101
-20.2856 4.9382 2.8603
-19.9204 4.6476 2.8603
-19.5667 4.3678 2.8603
-19.2240 4.0982 2.8603
-18.8917 3.8384 2.8603
-18.5692 3.5878 2.8603
-18.2562 3.3459 2.8603
-17.9521 3.1124 2.8603
-17.6565 2.8869 2.8603
-17.3691 2.6689 2.8603
-17.0894 2.4582 2.8603
-16.8172 2.2543 2.8603
-16.5520 2.0570 2.8603
-16.2935 1.8660 2.8603
-16.0416 1.6810 2.8603
-15.7959 1.5017 2.8603
-15.5561 1.3279 2.8603
-15.3220 1.1594 2.8603
-15.0934 0.9959 2.8603
-14.8701 0.8373 2.8603
-14.6517 0.6833 2.8603
-14.4383 0.5338 2.8603
-14.2295 0.3885 2.8603
-14.0252 0.2474 2.8603
-13.8252 0.1102 2.8603
-13.6293 -0.0232 2.8603
-13.4375 -0.1529 2.8603
-13.2495 -0.2791 2.8603
-13.0652 -0.4019 2.8603
-12.8845 -0.5215 2.8603
-12.7073 -0.6378 2.8603
-12.5335 -0.7512 2.8603
-12.3627 -0.8615 2.8603
-11.5455 -0.9175 2.7079
-11.3897 -1.0167 2.7079
-11.2368 -1.1135 2.7079
-11.0864 -1.2078 2.7079
-10.9387 -1.2998 2.7079
-10.7935 -1.3895 2.7079
-10.6507 -1.4770 2.7079
-10.5102 -1.5624 2.7079
-10.3720 -1.6457 2.7079
-10.2360 -1.7271 2.7079
-10.1022 -1.8066 2.7079
-9.9703 -1.8841 2.7079
-9.8406 -1.9598 2.7079
-9.7127 -2.0338 2.7079
-19.0034 35.9863 -0.3559
-19.4400 35.9644 -0.3025
-20.2214 36.5586 -0.2519
-20.4969 36.2236 -0.1929
-20.9072 36.1279 -0.1343
-21.7320 36.7285 -0.0757
-22.6921 37.5179 -0.0135
-25.9018 41.0118 0.1306
-12.7280 17.7816 0.2680
-12.8645 17.6109 0.3038
-13.0002 17.4412 0.3399
-13.1351 17.2723 0.3763
-13.2694 17.1044 0.4131
-13.3490 16.8691 0.4484
-13.4814 16.7035 0.4857
-13.6138 16.5394 0.5234
-13.7994 16.4400 0.5636
-13.9306 16.2759 0.6022
-14.0612 16.1124 0.6410
-14.1914 15.9496 0.6803
-14.3211 15.7874 0.7199
-14.4503 15.6257 0.7599
-14.5791 15.4646 0.8003
-14.7075 15.3040 0.8411
-14.8356 15.1438 0.8823
-14.9633 14.9840 0.9239
-15.0906 14.8246 0.9660
-15.2177 14.6657 1.0084
-15.3446 14.5070 1.0513
-15.4711 14.3486 1.0946
-15.5975 14.1906 1.1383
-15.7237 14.0327 1.1825
-15.8497 13.8751 1.2272
-15.9755 13.7177 1.2723
-16.1013 13.5604 1.3179
-16.2269 13.4032 1.3640
-16.3525 13.2461 1.4105
-16.4780 13.0891 1.4576
-16.6035 12.9321 1.5052
-16.6608 12.7231 1.5469
-16.7858 12.5667 1.5953
-16.9124 12.4114 1.6445
-17.1040 12.3027 1.7006
-17.2297 12.1455 1.7508
-17.3555 11.9881 1.8017
-17.4815 11.8305 1.8531
-17.6076 11.6727 1.9051
-17.7340 11.5146 1.9577
-17.8605 11.3563 2.0109
-17.9873 11.1977 2.0647
-18.1143 11.0388 2.1192
-18.2417 10.8795 2.1744
-18.3693 10.7198 2.2302
-18.4973 10.5596 2.2867
-18.6257 10.3990 2.3439
-18.7544 10.2379 2.4018
-18.8836 10.0763 2.4604
-19.0132 9.9141 2.5198
-19.1433 9.7514 2.5799
-19.7650 9.8322 2.7081
-19.4441 9.4428 2.7079
-19.1336 9.0680 2.7079
-18.8319 8.7065 2.7079
-18.5385 8.3577 2.7079
-18.2532 8.0209 2.7079
-18.2061 7.7943 2.7426
-6.2588 2.6093 0.9573
-6.3010 2.5567 0.9783
-18.1521 7.1650 2.8603
-17.8877 6.8645 2.8603
-17.6297 6.5736 2.8603
-17.3779 6.2919 2.8603
-17.1321 6.0190 2.8603
-16.8920 5.7545 2.8603
-16.6574 5.4980 2.8603
-16.4280 5.2492 2.8603
-16.2037 5.0079 2.8603
-15.9843 4.7736 2.8603
-15.7696 4.5462 2.8603
-15.5594 4.3253 2.8603
-15.3535 4.1107 2.8603
-15.1519 3.9022 2.8603
-14.9543 3.6994 2.8603
-14.7606 3.5023 2.8603
-14.5707 3.3106 2.8603
-14.3844 3.1240 2.8603
-14.2017 2.9425 2.8603
-14.0223 2.7658 2.8603
-13.8463 2.5937 2.8603
-13.6734 2.4261 2.8603
-13.5036 2.2628 2.8603
-13.3368 2.1038 2.8603
-13.1728 1.9487 2.8603
-13.0117 1.7976 2.8603
-12.8532 1.6502 2.8603
-12.6974 1.5065 2.8603
-12.5441 1.3664 2.8603
-12.3933 1.2296 2.8603
-12.2449 1.0961 2.8603
-12.0988 0.9658 2.8603
-11.9550 0.8387 2.8603
-11.8133 0.7145 2.8603
-11.6738 0.5932 2.8603
-11.5364 0.4748 2.8603
-11.4010 0.3591 2.8603
-10.6671 0.2329 2.7079
-10.5426 0.1283 2.7079
-10.4198 0.0260 2.7079
-10.2987 -0.0739 2.7079
-10.1792 -0.1716 2.7079
-10.0613 -0.2672 2.7079
-9.9451 -0.3607 2.7079
-9.8303 -0.4521 2.7079
-9.7170 -0.5415 2.7079
-9.6052 -0.6290 2.7079
-9.4948 -0.7146 2.7079
-9.3858 -0.7984 2.7079
-9.2781 -0.8804 2.7079
-9.1718 -0.9607 2.7079
-9.0667 -1.0393 2.7079
-8.9628 -1.1163 2.7079
-8.8602 -1.1916 2.7079
-8.7587 -1.2655 2.7079
-8.6585 -1.3378 2.7079
-8.5593 -1.4086 2.7079
-8.4612 -1.4779 2.7079
-8.3642 -1.5459 2.7079
-8.2683 -1.6125 2.7079
-10.6181 20.4198 0.8603
-10.7680 20.2322 0.8873
-10.9167 20.0463 0.9146
-11.0641 19.8620 0.9423
-11.2103 19.6791 0.9705
-11.3553 19.4977 0.9991
-11.4992 19.3176 1.0281
-11.6421 19.1389 1.0575
-11.7839 18.9615 1.0873
-11.9247 18.7854 1.1176
-12.0646 18.6104 1.1483
-12.2035 18.4366 1.1794
-12.3416 18.2640 1.2109
-12.4787 18.0924 1.2429
-12.6151 17.9218 1.2752
-12.7506 17.7523 1.3081
-12.8854 17.5837 1.3413
-13.0195 17.4160 1.3750
-13.1528 17.2492 1.4092
-13.2855 17.0832 1.4437
-13.3635 16.8500 1.4728
-13.4944 16.6863 1.5082
-13.6253 16.5240 1.5440
-13.8094 16.4264 1.5865
-13.9391 16.2641 1.6234
-14.0684 16.1025 1.6607
-14.1971 15.9414 1.6985
-14.3254 15.7809 1.7368
-14.4533 15.6210 1.7756
-14.5807 15.4615 1.8148
-14.7078 15.3025 1.8546
-14.8345 15.1440 1.8948
-14.9609 14.9859 1.9356
-15.0871 14.8281 1.9768
-15.2129 14.6707 2.0186
-15.3385 14.5136 2.0609
-15.4638 14.3568 2.1038
-15.5890 14.2002 2.1472
-15.7139 14.0439 2.1911
-15.8387 13.8877 2.2356
-15.9634 13.7318 2.2806
-16.0880 13.5759 2.3263
-16.2125 13.4202 2.3725
-16.3369 13.2645 2.4192
-16.4613 13.1089 2.4666
-16.5856 12.9534 2.5146
-16.6419 12.7456 2.5528
-16.7658 12.5906 2.6018
-17.2494 12.7004 2.7080
-17.0521 12.3081 2.7079
-16.8584 11.9274 2.7079
-16.6680 11.5577 2.7079
-16.4807 11.1985 2.7079
-16.2964 10.8495 2.7079
-16.1151 10.5103 2.7079
-16.1785 10.3350 2.7490
-16.2847 10.1873 2.7979
-16.3909 10.0394 2.8474
-16.2855 9.7644 2.8603
-16.1084 9.4523 2.8603
-15.9340 9.1486 2.8603
-15.7622 8.8529 2.8603
-15.5929 8.5650 2.8603
-15.4261 8.2845 2.8603
-15.2617 8.0113 2.8603
-15.0997 7.7450 2.8603
-14.9400 7.4856 2.8603
-14.7826 7.2326 2.8603
-14.6273 6.9860 2.8603
-14.4742 6.7456 2.8603
-14.3232 6.5110 2.8603
-14.1743 6.2822 2.8603
-14.0273 6.0589 2.8603
-6.2638 2.6355 1.2906
-6.2742 2.5703 1.3062
-13.5980 5.4208 2.8603
-13.4586 5.2181 2.8603
-13.3210 5.0201 2.8603
-13.1851 4.8268 2.8603
-13.0509 4.6379 2.8603
-12.9184 4.4534 2.8603
-12.7875 4.2731 2.8603
-12.6583 4.0969 2.8603
-12.4044 3.7562 2.8603
-12.5306 3.9246 2.8603
-12.2797 3.5915 2.8603
-11.9143 3.1190 2.8603
-12.1565 3.4305 2.8603
-11.7953 2.9683 2.8603
-12.0347 3.2731 2.8603
-11.6776 2.8209 2.8603
-11.4462 2.5354 2.8603
-11.5613 2.6766 2.8603
-11.3324 2.3971 2.8603
-10.9984 1.9997 2.8603
-11.2199 2.2618 2.8603
-10.8894 1.8726 2.8603
-11.1085 2.1294 2.8603
-10.7815 1.7482 2.8603
-10.5691 1.5070 2.8603
-10.6748 1.6264 2.8603
-9.9070 1.3160 2.7079
-9.6159 0.9971 2.7079
-9.8090 1.2075 2.7079
-9.5208 0.8950 2.7079
-9.7120 1.1012 2.7079
-9.4266 0.7949 2.7079
-9.2409 0.6005 2.7079
-9.3333 0.6967 2.7079
-9.1494 0.5062 2.7079
-8.8799 0.2341 2.7079
-9.0587 0.4137 2.7079
-8.7917 0.1468 2.7079
-8.9689 0.3230 2.7079
-8.7042 0.0613 2.7079
-8.5317 -0.1051 2.7079
-8.6176 -0.0227 2.7079
-8.4466 -0.1859 2.7079
-8.1956 -0.4194 2.7079
-8.3622 -0.2652 2.7079
-8.1133 -0.4944 2.7079
-8.2785 -0.3430 2.7079
-8.0317 -0.5679 2.7079
-7.8706 -0.7110 2.7079
-7.9508 -0.6401 2.7079
-7.7910 -0.7806 2.7079
-7.5559 -0.9819 2.7079
-7.7120 -0.8490 2.7079
-7.4788 -1.0466 2.7079
-7.6336 -0.9160 2.7079
-7.4827 -1.1222 2.7373
-7.5395 -1.2066 2.7867
-7.5973 -1.2927 2.8373
-7.5796 -1.3667 2.8602
-10.5174 20.5446 1.9310
-10.6664 20.3583 1.9533
-10.8140 20.1736 1.9761
-10.9604 19.9905 1.9995
-11.1056 19.8089 2.0234
-11.2497 19.6286 2.0479
-11.3927 19.4498 2.0729
-11.5346 19.2723 2.0985
-11.6755 19.0961 2.1246
-11.8154 18.9211 2.1512
-11.9543 18.7474 2.1784
-12.0923 18.5747 2.2061
-12.2294 18.4033 2.2344
-12.3656 18.2328 2.2632
-12.5010 18.0634 2.2925
-12.6357 17.8950 2.3224
-12.7695 17.7276 2.3528
-12.9026 17.5611 2.3838
-13.0351 17.3954 2.4153
-13.1668 17.2306 2.4473
-13.2979 17.0666 2.4799
-13.3743 16.8354 2.5030
-13.5037 16.6736 2.5366
-13.6331 16.5132 2.5708
-13.8158 16.4174 2.6159
-14.2425 16.6049 2.7080
-14.1800 16.2208 2.7079
-14.1163 15.8447 2.7079
-14.0509 15.4760 2.7079
-13.9839 15.1143 2.7079
-13.9155 14.7596 2.7079
-13.8457 14.4119 2.7079
-13.7747 14.0709 2.7079
-13.7024 13.7366 2.7079
-13.6898 13.4686 2.7200
-13.7960 13.3205 2.7561
-13.9037 13.1744 2.7931
-14.0110 13.0287 2.8307
-14.0762 12.8452 2.8603
-13.9942 12.5316 2.8603
-13.9114 12.2243 2.8603
-13.8280 11.9229 2.8603
-13.7440 11.6275 2.8603
-13.6595 11.3379 2.8603
-13.5746 11.0540 2.8603
-13.4892 10.7757 2.8603
-13.4034 10.5028 2.8603
-13.3174 10.2352 2.8603
-13.2311 9.9729 2.8603
-13.1445 9.7158 2.8603
-13.0578 9.4636 2.8603
-12.9709 9.2164 2.8603
-12.8839 8.9740 2.8603
-12.7968 8.7362 2.8603
-12.7096 8.5031 2.8603
-12.6225 8.2745 2.8603
-12.5353 8.0504 2.8603
-12.4482 7.8305 2.8603
-12.3611 7.6149 2.8603
-12.2741 7.4034 2.8603
-12.1873 7.1960 2.8603
-12.1005 6.9925 2.8603
-12.0139 6.7929 2.8603
-11.9275 6.5971 2.8603
-11.8412 6.4050 2.8603
-11.7551 6.2165 2.8603
-11.6693 6.0316 2.8603
-11.5836 5.8502 2.8603
-11.4982 5.6722 2.8603
-11.4131 5.4975 2.8603
-11.3282 5.3261 2.8603
-11.2436 5.1578 2.8603
-11.1593 4.9927 2.8603
-11.0752 4.8307 2.8603
-10.9915 4.6716 2.8603
-6.2623 2.5923 1.6421
-10.8250 4.3622 2.8603
-10.7422 4.2117 2.8603
-10.6598 4.0640 2.8603
-10.5776 3.9190 2.8603
-10.4959 3.7766 2.8603
-10.4145 3.6368 2.8603
-10.3334 3.4995 2.8603
-10.2527 3.3646 2.8603
-10.1723 3.2322 2.8603
-10.0923 3.1022 2.8603
-10.0126 2.9744 2.8603
-9.9333 2.8490 2.8603
-9.8544 2.7257 2.8603
-9.7759 2.6046 2.8603
-9.6977 2.4857 2.8603
-9.1073 2.2426 2.7079
-9.0340 2.1340 2.7079
-8.9610 2.0272 2.7079
-8.8884 1.9223 2.7079
-8.8161 1.8192 2.7079
-8.7442 1.7179 2.7079
-8.6727 1.6183 2.7079
-8.6015 1.5205 2.7079
-8.5306 1.4243 2.7079
-8.4601 1.3298 2.7079
-8.3899 1.2369 2.7079
-8.3201 1.1456 2.7079
-8.2506 1.0558 2.7079
-8.1815 0.9675 2.7079
-8.1127 0.8808 2.7079
-8.0443 0.7955 2.7079
-7.9762 0.7116 2.7079
-7.9084 0.6292 2.7079
-7.8410 0.5481 2.7079
-7.7739 0.4684 2.7079
-7.7072 0.3900 2.7079
-7.6408 0.3129 2.7079
-7.5746 0.2372 2.7079
-7.5089 0.1626 2.7079
-7.4434 0.0893 2.7079
-7.3783 0.0172 2.7079
-7.3135 -0.0537 2.7079
-7.2490 -0.1235 2.7079
-7.1848 -0.1921 2.7079
-7.1209 -0.2596 2.7079
-7.0574 -0.3260 2.7079
-6.9941 -0.3913 2.7079
-6.9565 -0.4572 2.7178
-7.0045 -0.5290 2.7615
-7.0532 -0.6020 2.8062
-7.1026 -0.6762 2.8518
-7.0580 -0.7418 2.8601
-6.9926 -0.8043 2.8599
-6.9275 -0.8657 2.8597
-6.8627 -0.9262 2.8595
-6.7982 -0.9857 2.8593
-6.7340 -1.0442 2.8591
-6.6701 -1.1018 2.8589
-9.4563 18.7676 2.7384
-9.5890 18.5966 2.7540
-9.7204 18.4270 2.7702
-9.8506 18.2587 2.7869
-9.9797 18.0916 2.8043
-10.1076 17.9259 2.8223
-10.2345 17.7614 2.8408
-10.3602 17.5980 2.8599
-10.4145 17.3186 2.8603
-10.4637 17.0386 2.8603
-10.5093 16.7603 2.8603
-10.5512 16.4837 2.8603
-10.5896 16.2089 2.8603
-10.6246 15.9361 2.8603
-10.6563 15.6654 2.8603
-10.6847 15.3967 2.8603
-10.7099 15.1302 2.8603
-10.7321 14.8660 2.8603
-10.7513 14.6041 2.8603
-10.7676 14.3445 2.8603
-10.7811 14.0874 2.8603
-10.7918 13.8327 2.8603
-10.7999 13.5806 2.8603
-10.8054 13.3310 2.8603
-10.8084 13.0839 2.8603
-10.8090 12.8395 2.8603
-10.8073 12.5977 2.8603
-10.8032 12.3587 2.8603
-10.7970 12.1222 2.8603
-10.7887 11.8884 2.8603
-10.7784 11.6574 2.8603
-10.7660 11.4290 2.8603
-10.7518 11.2034 2.8603
-10.7357 10.9805 2.8603
-10.7178 10.7603 2.8603
-10.6982 10.5429 2.8603
-10.6770 10.3282 2.8603
-10.6541 10.1161 2.8603
-10.6298 9.9068 2.8603
-10.6039 9.7002 2.8603
-10.5767 9.4963 2.8603
-10.5480 9.2951 2.8603
-10.5180 9.0965 2.8603
-10.4868 8.9005 2.8603
-10.4544 8.7072 2.8603
-10.4208 8.5165 2.8603
-10.3860 8.3284 2.8603
-10.3502 8.1429 2.8603
-10.3134 7.9599 2.8603
-10.2755 7.7794 2.8603
-10.2368 7.6015 2.8603
-10.1971 7.4260 2.8603
-10.1565 7.2530 2.8603
-10.1152 7.0824 2.8603
-10.0730 6.9143 2.8603
-10.0300 6.7485 2.8603
-9.9864 6.5851 2.8603
-9.8051 5.9544 2.8603
-9.9420 6.4239 2.8603
-9.7583 5.8024 2.8603
-9.8970 6.2652 2.8603
-9.7109 5.6526 2.8603
-9.8513 6.1087 2.8603
-9.6631 5.5049 2.8603
-9.6147 5.3594 2.8603
-9.4168 4.7982 2.8603
-9.5659 5.2160 2.8603
-9.3664 4.6630 2.8603
-9.5166 5.0747 2.8603
-9.3156 4.5298 2.8603
-9.4669 4.9354 2.8603
-9.2644 4.3985 2.8603
-9.2130 4.2692 2.8603
-6.2535 2.6186 1.9864
-9.1612 4.1417 2.8603
-6.2849 2.5629 2.0082
-9.1092 4.0162 2.8603
-8.8988 3.5321 2.8603
-9.0570 3.8925 2.8603
-8.3744 3.2335 2.7079
-8.3238 3.1248 2.7079
-8.1205 2.7056 2.7079
-8.2732 3.0176 2.7079
-8.0693 2.6046 2.7079
-8.2224 2.9121 2.7079
-8.0181 2.5051 2.7079
-8.1715 2.8080 2.7079
-7.9668 2.4071 2.7079
-7.9154 2.3105 2.7079
-7.7091 1.9382 2.7079
-7.8639 2.2154 2.7079
-7.6575 1.8486 2.7079
-7.8124 2.1216 2.7079
-7.6058 1.7602 2.7079
-7.7608 2.0293 2.7079
-7.5541 1.6732 2.7079
-7.5024 1.5874 2.7079
-7.2955 1.2567 2.7079
-7.4506 1.5029 2.7079
-7.2438 1.1771 2.7079
-7.3989 1.4196 2.7079
-7.1921 1.0986 2.7079
-7.3472 1.3376 2.7079
-7.1405 1.0213 2.7079
-7.0889 0.9451 2.7079
-6.8830 0.6513 2.7079
-7.0374 0.8700 2.7079
-6.8316 0.5805 2.7079
-6.9858 0.7960 2.7079
-6.7803 0.5107 2.7079
-6.9343 0.7231 2.7079
-6.7291 0.4420 2.7079
-6.6779 0.3742 2.7079
-6.5011 0.1135 2.7193
-6.6268 0.3075 2.7079
-6.5426 0.0510 2.7583
-6.5758 0.2417 2.7079
-6.5846 -0.0123 2.7981
-6.5248 0.1769 2.7079
-6.6272 -0.0766 2.8387
-6.6241 -0.1408 2.8602
-6.4098 -0.3860 2.8595
-6.5703 -0.2034 2.8600
-6.3565 -0.4451 2.8593
-6.5167 -0.2652 2.8598
-6.3034 -0.5033 2.8591
-6.4632 -0.3261 2.8596
-6.2503 -0.5606 2.8589
-6.1974 -0.6172 2.8587
-6.1445 -0.6728 2.8585
-6.0918 -0.7277 2.8584
-6.0392 -0.7818 2.8582
-5.9868 -0.8350 2.8580
-5.9344 -0.8875 2.8578
-7.1574 14.4376 2.8603
-7.2364 14.2649 2.8603
-7.3125 14.0915 2.8603
-7.3859 13.9177 2.8603
-7.4566 13.7434 2.8603
-7.5245 13.5688 2.8603
-7.5897 13.3940 2.8603
-7.6523 13.2191 2.8603
-7.7123 13.0440 2.8603
-7.7696 12.8690 2.8603
-7.8244 12.6941 2.8603
-7.8767 12.5194 2.8603
-7.9264 12.3449 2.8603
-7.9738 12.1707 2.8603
-8.0187 11.9969 2.8603
-8.0612 11.8235 2.8603
-8.1014 11.6506 2.8603
-8.1392 11.4783 2.8603
-8.1749 11.3066 2.8603
-8.2083 11.1356 2.8603
-8.2395 10.9654 2.8603
-8.2685 10.7959 2.8603
-8.2955 10.6272 2.8603
-8.3205 10.4594 2.8603
-8.3434 10.2925 2.8603
-8.3643 10.1265 2.8603
-8.3833 9.9615 2.8603
-8.4004 9.7976 2.8603
-8.4156 9.6347 2.8603
-8.4291 9.4729 2.8603
-8.4408 9.3122 2.8603
-8.4507 9.1527 2.8603
-8.4590 8.9943 2.8603
-8.4656 8.8371 2.8603
-8.4705 8.6812 2.8603
-8.4739 8.5264 2.8603
-8.4758 8.3730 2.8603
-8.4762 8.2208 2.8603
-8.4751 8.0698 2.8603
-8.4726 7.9202 2.8603
-8.4687 7.7719 2.8603
-8.4635 7.6250 2.8603
-8.4569 7.4794 2.8603
-8.4491 7.3351 2.8603
-8.4400 7.1922 2.8603
-8.4297 7.0506 2.8603
-8.4182 6.9104 2.8603
-8.4056 6.7716 2.8603
-8.3918 6.6341 2.8603
-8.3770 6.4981 2.8603
-8.3611 6.3634 2.8603
-8.3442 6.2301 2.8603
-8.3263 6.0982 2.8603
-8.3075 5.9676 2.8603
-8.2877 5.8384 2.8603
-8.2670 5.7107 2.8603
-8.2454 5.5842 2.8603
-8.2230 5.4592 2.8603
-8.1997 5.3355 2.8603
-8.1756 5.2132 2.8603
-8.1508 5.0922 2.8603
-8.1252 4.9726 2.8603
-8.0989 4.8544 2.8603
-8.0719 4.7374 2.8603
-8.0441 4.6218 2.8603
-7.5887 4.2674 2.7079
-7.5613 4.1604 2.7079
-7.5331 4.0548 2.7079
-7.5045 3.9503 2.7079
-7.4754 3.8470 2.7079
-7.4457 3.7450 2.7079
-7.4154 3.6442 2.7079
-7.3847 3.5445 2.7079
-7.3536 3.4461 2.7079
-7.3219 3.3488 2.7079
-7.2898 3.2527 2.7079
-7.2573 3.1578 2.7079
-6.2739 2.6609 2.3516
-6.2620 2.5874 2.3581
-7.1574 2.8798 2.7079
-7.1233 2.7894 2.7079
-7.0889 2.7001 2.7079
-7.0541 2.6118 2.7079
-7.0190 2.5247 2.7079
-6.9836 2.4387 2.7079
-6.9479 2.3537 2.7079
-6.9119 2.2697 2.7079
-6.8756 2.1869 2.7079
-6.8391 2.1050 2.7079
-6.8022 2.0242 2.7079
-6.7652 1.9444 2.7079
-6.7279 1.8655 2.7079
-6.6903 1.7877 2.7079
-6.6526 1.7109 2.7079
-6.6147 1.6350 2.7079
-6.5765 1.5601 2.7079
-6.5382 1.4861 2.7079
-6.4997 1.4131 2.7079
-6.4610 1.3410 2.7079
-6.4222 1.2698 2.7079
-6.3831 1.1995 2.7079
-6.3439 1.1302 2.7079
-6.3046 1.0617 2.7079
-6.2652 0.9941 2.7079
-6.2256 0.9273 2.7079
-6.1859 0.8614 2.7079
-6.1461 0.7964 2.7079
-6.1062 0.7322 2.7079
-6.0662 0.6688 2.7079
-6.0979 0.6135 2.7402
-6.1347 0.5580 2.7752
-6.1718 0.5020 2.8109
-6.2093 0.4452 2.8473
-6.1946 0.3845 2.8602
-6.1515 0.3226 2.8600
-6.1082 0.2615 2.8599
-6.0650 0.2012 2.8597
-6.0217 0.1417 2.8595
-5.9783 0.0830 2.8594
-5.9348 0.0250 2.8592
-5.8914 -0.0322 2.8590
-5.8479 -0.0886 2.8589
-5.8044 -0.1443 2.8587
-5.7608 -0.1992 2.8585
-5.7173 -0.2534 2.8584
-5.6737 -0.3069 2.8582
-5.6301 -0.3597 2.8581
-5.5864 -0.4118 2.8579
-5.5428 -0.4631 2.8577
-5.4992 -0.5138 2.8576
-5.4555 -0.5638 2.8574
-5.4119 -0.6132 2.8573
-5.3682 -0.6618 2.8571
-5.3246 -0.7099 2.8570
-5.5595 11.4029 2.8603
-5.6299 11.2854 2.8603
-5.6983 11.1671 2.8603
-5.7647 11.0482 2.8603
-5.8293 10.9285 2.8603
-5.8920 10.8082 2.8603
-5.9528 10.6873 2.8603
-6.0117 10.5660 2.8603
-6.0688 10.4442 2.8603
-6.1239 10.3221 2.8603
-6.1773 10.1996 2.8603
-6.2288 10.0768 2.8603
-6.2784 9.9538 2.8603
-6.3263 9.8306 2.8603
-6.3724 9.7072 2.8603
-6.4167 9.5838 2.8603
-6.4593 9.4603 2.8603
-6.5001 9.3368 2.8603
-6.5393 9.2134 2.8603
-6.5767 9.0900 2.8603
-6.6125 8.9668 2.8603
-6.6466 8.8437 2.8603
-6.6790 8.7209 2.8603
-6.7099 8.5982 2.8603
-6.7392 8.4759 2.8603
-6.7669 8.3538 2.8603
-6.7931 8.2321 2.8603
-6.8177 8.1107 2.8603
-6.8409 7.9898 2.8603
-6.8626 7.8693 2.8603
-6.8828 7.7492 2.8603
-6.9016 7.6296 2.8603
-6.9190 7.5106 2.8603
-6.9350 7.3920 2.8603
-6.9497 7.2740 2.8603
-6.9630 7.1566 2.8603
-6.9750 7.0398 2.8603
-6.9857 6.9237 2.8603
-6.9952 6.8081 2.8603
-7.0034 6.6932 2.8603
-7.0104 6.5790 2.8603
-7.0268 6.1293 2.8603
-7.0163 6.4655 2.8603
-7.0281 6.0187 2.8603
-7.0209 6.3527 2.8603
-7.0283 5.9089 2.8603
-7.0244 6.2406 2.8603
-7.0275 5.7998 2.8603
-6.6513 5.3883 2.7079
-6.6349 4.9858 2.7079
-6.6486 5.2865 2.7079
-6.6285 4.8872 2.7079
-6.6449 5.1855 2.7079
-6.6213 4.7893 2.7079
-6.6403 5.0853 2.7079
-6.6133 4.6922 2.7079
-6.6044 4.5959 2.7079
-6.5611 4.2188 2.7079
-6.5947 4.5004 2.7079
-6.5485 4.1265 2.7079
-6.5843 4.4057 2.7079
-6.5351 4.0351 2.7079
-6.5731 4.3118 2.7079
-6.5210 3.9445 2.7079
-6.5063 3.8547 2.7079
-6.4409 3.5037 2.7079
-6.4909 3.7657 2.7079
-6.4230 3.4180 2.7079
-6.4748 3.6775 2.7079
-6.4046 3.3331 2.7079
-6.4582 3.5902 2.7079
-6.3855 3.2491 2.7079
-6.3660 3.1658 2.7079
-6.2825 2.8410 2.7079
-6.3459 3.0834 2.7079
-6.2604 2.7618 2.7079
-6.3253 3.0018 2.7079
-6.2378 2.6834 2.7079
-6.3041 2.9210 2.7079
-6.2148 2.6058 2.7079
-6.1913 2.5290 2.7079
-6.0933 2.2296 2.7079
-6.1674 2.4530 2.7079
-6.0678 2.1568 2.7079
-6.1431 2.3778 2.7079
-6.0419 2.0847 2.7079
-6.1184 2.3033 2.7079
-6.0157 2.0133 2.7079
-5.9891 1.9427 2.7079
-5.8794 1.6680 2.7079
-5.9621 1.8729 2.7079
-5.8512 1.6011 2.7079
-5.9349 1.8038 2.7079
-5.8227 1.5349 2.7079
-5.9073 1.7355 2.7079
-5.7940 1.4695 2.7079
-5.7649 1.4049 2.7079
-5.6684 1.1579 2.7186
-5.7356 1.3409 2.7079
-5.7011 1.1088 2.7490
-5.7060 1.2777 2.7079
-5.7340 1.0592 2.7800
-5.6762 1.2152 2.7079
-5.7672 1.0092 2.8116
-5.8006 0.9587 2.8437
-5.7004 0.7215 2.8598
-5.5633 0.4898 2.8592
-5.8013 0.9025 2.8602
-5.6664 0.6626 2.8596
-5.5286 0.4336 2.8590
-5.7679 0.8415 2.8601
-5.6322 0.6043 2.8595
-5.4937 0.3780 2.8589
-5.7343 0.7811 2.8599
-5.5978 0.5467 2.8593
-5.4587 0.3231 2.8587
-5.4236 0.2689 2.8586
-5.2817 0.0582 2.8580
-5.1379 -0.1425 2.8575
-5.3883 0.2152 2.8585
-5.2459 0.0071 2.8579
-5.1017 -0.1912 2.8573
-5.3529 0.1623 2.8583
-5.2100 -0.0434 2.8577
-5.0654 -0.2393 2.8572
-5.3174 0.1099 2.8582
-5.1740 -0.0932 2.8576
-5.0289 -0.2867 2.8571
-4.9924 -0.3336 2.8569
-4.9559 -0.3800 2.8568
-4.9192 -0.4257 2.8566
-4.8825 -0.4709 2.8565
-4.8457 -0.5156 2.8564
-4.8088 -0.5596 2.8562
-4.5043 9.3989 2.8603
-4.5661 9.3126 2.8603
-4.6266 9.2256 2.8603
-4.6856 9.1379 2.8603
-4.7432 9.0495 2.8603
-4.7994 8.9605 2.8603
-4.8542 8.8708 2.8603
-4.9077 8.7806 2.8603
-4.9597 8.6898 2.8603
-5.0103 8.5986 2.8603
-5.0596 8.5069 2.8603
-5.1075 8.4148 2.8603
-5.1540 8.3223 2.8603
-5.1992 8.2294 2.8603
-5.2429 8.1363 2.8603
-5.2854 8.0429 2.8603
-5.3264 7.9492 2.8603
-5.3662 7.8553 2.8603
-5.1166 7.3477 2.7079
-5.1518 7.2585 2.7079
-5.1856 7.1691 2.7079
-5.2183 7.0797 2.7079
-5.2497 6.9903 2.7079
-5.2800 6.9008 2.7079
-5.3090 6.8113 2.7079
-5.3368 6.7218 2.7079
-5.3635 6.6324 2.7079
-5.3890 6.5431 2.7079
-5.4134 6.4538 2.7079
-5.4367 6.3646 2.7079
-5.4588 6.2756 2.7079
-5.4798 6.1868 2.7079
-5.4997 6.0981 2.7079
-5.5185 6.0097 2.7079
-5.5363 5.9214 2.7079
-5.5530 5.8334 2.7079
-5.5687 5.7457 2.7079
-5.5833 5.6582 2.7079
-5.5969 5.5710 2.7079
-5.6096 5.4842 2.7079
-5.6212 5.3976 2.7079
-5.6319 5.3114 2.7079
-5.6416 5.2256 2.7079
-5.6504 5.1401 2.7079
-5.6583 5.0550 2.7079
-5.6653 4.9703 2.7079
-5.6713 4.8860 2.7079
-5.6765 4.8022 2.7079
-5.6808 4.7187 2.7079
-5.6843 4.6357 2.7079
-5.6869 4.5532 2.7079
-5.6887 4.4711 2.7079
-5.6897 4.3895 2.7079
-5.6899 4.3083 2.7079
-5.6893 4.2277 2.7079
-5.6880 4.1475 2.7079
-5.6859 4.0679 2.7079
-5.6831 3.9887 2.7079
-5.6795 3.9101 2.7079
-5.6752 3.8320 2.7079
-5.6703 3.7545 2.7079
-5.6646 3.6774 2.7079
-5.6583 3.6009 2.7079
-5.6513 3.5250 2.7079
-5.6437 3.4496 2.7079
-5.6354 3.3748 2.7079
-5.6265 3.3005 2.7079
-5.6171 3.2267 2.7079
-5.6070 3.1535 2.7079
-5.5963 3.0809 2.7079
-5.5851 3.0089 2.7079
-5.5733 2.9374 2.7079
-5.5609 2.8666 2.7079
-5.5481 2.7962 2.7079
-5.5347 2.7265 2.7079
-5.5208 2.6573 2.7079
-5.5064 2.5887 2.7079
-5.4915 2.5207 2.7079
-5.4761 2.4533 2.7079
-5.4602 2.3864 2.7079
-5.4439 2.3202 2.7079
-5.4272 2.2545 2.7079
-5.4100 2.1894 2.7079
-5.3923 2.1248 2.7079
-5.3743 2.0609 2.7079
-5.3558 1.9975 2.7079
-5.3370 1.9347 2.7079
-5.3177 1.8725 2.7079
-5.2981 1.8108 2.7079
-5.2781 1.7497 2.7079
-5.2578 1.6892 2.7079
-5.2795 1.6425 2.7299
-5.3094 1.5980 2.7564
-5.3393 1.5532 2.7834
-5.3695 1.5081 2.8108
-5.3998 1.4626 2.8388
-5.4170 1.4133 2.8603
-5.3928 1.3535 2.8601
-5.3683 1.2943 2.8600
-5.3435 1.2356 2.8599
-5.3184 1.1776 2.8597
-5.2930 1.1201 2.8596
-5.2673 1.0632 2.8595
-5.2413 1.0069 2.8593
-5.2151 0.9512 2.8592
-5.1886 0.8960 2.8591
-5.1619 0.8414 2.8590
-5.1349 0.7874 2.8588
-5.1076 0.7339 2.8587
-5.0802 0.6810 2.8586
-5.0525 0.6287 2.8584
-5.0246 0.5769 2.8583
-4.9964 0.5256 2.8582
-4.9681 0.4749 2.8581
-4.9395 0.4247 2.8579
-4.9108 0.3751 2.8578
-4.8819 0.3260 2.8577
-4.8527 0.2774 2.8576
-4.8234 0.2294 2.8574
-4.7939 0.1819 2.8573
-4.7643 0.1349 2.8572
-4.7345 0.0884 2.8571
-4.7045 0.0424 2.8569
-4.6743 -0.0030 2.8568
-4.6440 -0.0480 2.8567
-4.6136 -0.0924 2.8566
-4.5830 -0.1364 2.8564
-4.5522 -0.1798 2.8563
-4.5214 -0.2228 2.8562
-4.4904 -0.2653 2.8561
-4.4592 -0.3073 2.8560
-4.4280 -0.3488 2.8558
-4.3966 -0.3898 2.8557
-4.3651 -0.4304 2.8556
