ply
format ascii 1.0
element vertex 1880
property float32 x
property float32 y
property float32 z
end_header
-11.1636 1.2635 -2.4550
-10.9889 1.0287 -2.3466
-11.2150 1.1594 -2.4304
-10.5086 0.8813 -2.2109
-11.0505 0.6051 -2.2223
-10.6835 0.7921 -2.2144
-10.8640 0.7001 -2.2182
-10.6439 0.4799 -2.1081
-10.9600 0.1771 -2.0720
-10.7472 0.3808 -2.0961
-10.8525 0.2799 -2.0840
-11.0696 0.0723 -2.0600
-11.9404 -0.2664 -2.1175
-11.1815 -0.0345 -2.0480
-11.2958 -0.1435 -2.0359
-11.7831 -0.3761 -2.0557
-11.5921 -0.4814 -1.9892
-11.5435 -0.7015 -1.9153
-11.5641 -0.5915 -1.9515
-11.9672 -1.1888 -1.8522
-11.5297 -0.8116 -1.8806
-11.7241 -1.2781 -1.7823
-11.2839 -0.9031 -1.8090
-11.3217 -1.3440 -1.6901
-11.8513 -1.5219 -1.7369
-11.0484 -0.9908 -1.7405
-11.5294 -1.5928 -1.6584
-10.9413 -1.9403 -1.4564
-10.8446 -2.0301 -1.4147
-11.2400 -1.6625 -1.5865
-10.7494 -2.1187 -1.3739
-11.1389 -1.7565 -1.5422
-11.0393 -1.8490 -1.4989
-17.8346 -5.8832 -1.6773
-25.2642 -10.2495 -1.9234
-24.4106 -10.4501 -1.7335
-24.2351 -10.1024 -1.7831
-24.0401 -10.5641 -1.6456
-24.2257 -11.4843 -1.4718
-24.4832 -11.0388 -1.6132
-24.1947 -11.7539 -1.4076
-24.3342 -12.1103 -1.3530
-24.0583 -11.1249 -1.5234
-24.4025 -12.4366 -1.2937
-24.2551 -12.6550 -1.2231
-24.0547 -12.8444 -1.1505
-37.2390 -21.2793 -1.4895
-23.8556 -13.0327 -1.0789
-37.4686 -21.8887 -1.4002
-38.2150 -21.3547 -1.6286
-37.5399 -22.4150 -1.3039
-37.2206 -22.7106 -1.1943
-37.0092 -23.0709 -1.0891
-37.2363 -23.7108 -0.9963
-36.9208 -24.0104 -0.8888
-31.0981 -35.1523 1.8709
-26.7186 -31.4099 1.7975
-28.7768 -33.1715 1.8328
-24.8878 -29.8401 1.7649
-23.2624 -28.4489 1.7357
-21.8110 -27.2095 1.7095
-20.4937 -26.0821 1.6848
-11.1290 1.1936 -1.8624
-11.1800 1.0899 -1.8365
-11.2314 0.9854 -1.8105
-11.2831 0.8803 -1.7846
-10.6300 0.7262 -1.6492
-10.8085 0.6338 -1.6445
-10.9929 0.5383 -1.6398
-11.1771 0.4394 -1.6341
-11.2435 0.3336 -1.6107
-11.3108 0.2267 -1.5872
-11.3789 0.1185 -1.5636
-11.4479 0.0091 -1.5400
-11.5772 -0.1021 -1.5240
-10.9571 -0.2020 -1.4109
-11.0674 -0.3104 -1.3935
-11.5296 -0.4342 -1.4189
-12.1100 -0.5726 -1.4561
-12.0602 -0.6863 -1.4161
-12.0109 -0.7992 -1.3766
-11.5156 -0.8773 -1.2876
-11.1873 -0.9603 -1.2197
-11.8339 -1.1302 -1.2573
-11.5212 -1.2119 -1.1922
-11.2242 -1.2896 -1.1305
-11.6267 -1.4488 -1.1390
-11.2785 -1.5153 -1.0740
-11.1767 -1.6108 -1.0337
-11.0766 -1.7048 -0.9942
-10.9779 -1.7974 -0.9554
-10.8807 -1.8887 -0.9173
-10.7850 -1.9786 -0.8800
-47.5647 -9.1980 -3.7520
-47.3729 -9.6323 -3.6086
-17.8651 -5.8312 -0.7821
-24.9231 -10.5899 -0.4789
-24.8679 -10.8494 -0.4090
-24.8127 -11.1101 -0.3393
-24.2149 -11.1228 -0.2636
-24.5219 -11.5503 -0.1984
-24.5110 -11.8343 -0.1295
-24.2774 -12.0107 -0.0598
-24.1238 -12.2248 0.0089
-23.9308 -12.4177 0.0770
-36.6297 -31.5304 2.8627
-32.2146 -29.4105 2.8627
-35.0490 -30.7685 2.8627
-30.9384 -28.8031 2.8627
-33.5814 -30.0639 2.8627
-29.7436 -28.2371 2.8627
-27.5676 -27.2138 2.8627
-28.6223 -27.7085 2.8627
-26.5737 -26.7501 2.8627
-23.9048 -25.5187 2.8627
-25.6350 -26.3145 2.8627
-23.1054 -25.1543 2.8627
-24.7467 -25.9048 2.8627
-22.3451 -24.8101 2.8627
-21.6209 -24.4842 2.8627
-20.9300 -24.1756 2.8627
-19.8035 -23.3331 2.7968
-18.5935 -22.3486 2.7103
-18.0212 -22.0986 2.7103
-17.4723 -21.8608 2.7103
-11.1299 0.9095 -1.2214
-11.1650 0.8041 -1.1923
-10.5824 0.6597 -1.0990
-10.7592 0.5668 -1.0859
-10.9310 0.4703 -1.0714
-11.0691 0.3695 -1.0528
-11.2556 0.2673 -1.0380
-10.9955 0.1553 -0.9824
-11.0601 0.0499 -0.9564
-11.1256 -0.0568 -0.9303
-11.1919 -0.1648 -0.9039
-11.2591 -0.2741 -0.8774
-11.3271 -0.3847 -0.8506
-11.6062 -0.5058 -0.8387
-11.5604 -0.6152 -0.8028
-11.7339 -0.7375 -0.7819
-11.4632 -0.8311 -0.7316
-11.1695 -0.9177 -0.6816
-10.8903 -1.0001 -0.6341
-11.5637 -1.1740 -0.6410
-11.3048 -1.2575 -0.5951
-11.2058 -1.3555 -0.5586
-11.1084 -1.4520 -0.5228
-11.0125 -1.5471 -0.4876
-10.9180 -1.6409 -0.4530
-10.8248 -1.7333 -0.4190
-24.5130 -11.4756 1.0892
-31.6921 -17.5446 2.1003
-39.0042 -22.0896 2.7103
-37.2643 -21.5844 2.7103
-35.6596 -21.1199 2.7103
-32.0191 -20.6862 2.8627
-34.1746 -20.6915 2.7103
-30.8347 -20.3492 2.8627
-29.7237 -20.0343 2.8627
-32.7961 -20.2950 2.7103
-28.6790 -19.7394 2.8627
-27.6949 -19.4627 2.8627
-32.9985 -20.8667 2.8381
-26.7658 -19.2027 2.8627
-24.2648 -18.5090 2.8627
-25.8872 -18.9579 2.8627
-25.0547 -18.7270 2.8627
-23.5140 -18.3028 2.8627
-21.4674 -17.7467 2.8627
-20.8457 -17.5797 2.8627
-22.7992 -18.1076 2.8627
-20.2508 -17.4208 2.8627
-22.1179 -17.9225 2.8627
-19.6806 -17.2694 2.8627
-17.1498 -16.6103 2.8627
-19.1337 -17.1252 2.8627
-16.6985 -16.4954 2.8627
-18.6085 -16.9875 2.8627
-16.2630 -16.3852 2.8627
-18.1037 -16.8561 2.8627
-15.8423 -16.2797 2.8627
-17.6178 -16.7305 2.8627
-15.4357 -16.1784 2.8627
-15.0422 -16.0813 2.8627
-14.6612 -15.9880 2.8627
-14.2920 -15.8984 2.8627
-13.9339 -15.8122 2.8627
-13.5865 -15.7294 2.8627
-13.2490 -15.6497 2.8627
-12.9209 -15.5730 2.8627
-12.6020 -15.4992 2.8627
-40.6465 3.0736 -2.3930
-40.8110 2.6911 -2.2849
-40.3614 2.2715 -2.1435
-11.9845 0.5588 -0.6021
-11.9577 0.4423 -0.5664
-11.1422 0.3048 -0.4960
-10.7882 0.1913 -0.4494
-10.9228 0.0886 -0.4239
-11.0608 -0.0166 -0.3978
-11.2023 -0.1246 -0.3711
-11.3206 -0.2347 -0.3429
-11.3570 -0.3448 -0.3118
-11.4461 -0.4577 -0.2819
-11.5144 -0.5713 -0.2510
-11.6618 -0.6911 -0.2212
-11.5191 -0.7938 -0.1859
-11.4027 -0.8960 -0.1518
-11.2772 -0.9953 -0.1182
-11.1542 -1.0926 -0.0853
-11.1059 -1.1958 -0.0535
-11.0101 -1.2927 -0.0218
-10.9158 -1.3881 0.0093
-40.0196 -5.8735 0.2617
-40.5837 -6.3557 0.3811
-40.9981 -6.8254 0.5020
-41.7593 -7.3658 0.6309
-42.3804 -7.8967 0.7618
-43.0227 -8.4457 0.8970
-43.6875 -9.0139 1.0368
-47.4117 -12.1897 1.8152
-44.3761 -9.6025 1.1815
-48.2438 -12.9009 1.9891
-44.9536 -10.1817 1.3273
-45.8427 -10.8486 1.4869
-46.6121 -11.5062 1.6480
-46.0113 -15.7035 2.8627
-17.8326 -5.8944 1.0552
-43.8528 -15.4420 2.8627
-38.3840 -14.7826 2.8627
-41.8765 -15.2032 2.8627
-36.8329 -14.5966 2.8627
-40.0599 -14.9841 2.8627
-35.3925 -14.4244 2.8627
-32.7996 -14.1157 2.8627
-34.0516 -14.2645 2.8627
-31.6278 -13.9769 2.8627
-24.4950 -11.6899 2.4586
-28.9033 -13.1100 2.7103
-26.1328 -12.7852 2.7103
-24.4508 -11.3782 2.3732
-25.3100 -12.6895 2.7103
-23.7908 -12.5138 2.7103
-24.5305 -12.5992 2.7103
-23.3378 -12.5676 2.7397
-22.3635 -12.9018 2.8627
-23.6796 -13.0514 2.8627
-21.7494 -12.8326 2.8627
-23.0061 -12.9747 2.8627
-21.1618 -12.7666 2.8627
-20.5989 -12.7038 2.8627
-20.0593 -12.6438 2.8627
-18.1032 -12.4295 2.8627
-19.5412 -12.5866 2.8627
-17.6588 -12.3815 2.8627
-19.0433 -12.5319 2.8627
-17.2302 -12.3356 2.8627
-18.5644 -12.4796 2.8627
-16.8163 -12.2914 2.8627
-16.4165 -12.2491 2.8627
-16.0299 -12.2084 2.8627
-14.9399 -12.0937 2.8623
-14.5982 -12.0580 2.8621
-15.6556 -12.1693 2.8627
-14.2670 -12.0238 2.8620
-15.2929 -12.1314 2.8627
-13.9454 -11.9909 2.8618
-12.4653 -11.8429 2.8612
-13.6328 -11.9591 2.8617
-12.1921 -11.8162 2.8610
-13.3290 -11.9285 2.8615
-11.9257 -11.7905 2.8609
-13.0334 -11.8989 2.8614
-11.6658 -11.7656 2.8608
-12.7456 -11.8704 2.8613
-11.4121 -11.7416 2.8607
-11.1608 -11.7146 2.8597
-10.9108 -11.6836 2.8575
-10.6639 -11.6504 2.8546
-10.4200 -11.6150 2.8510
-10.1780 -11.5762 2.8463
-9.9496 -11.5477 2.8441
-9.7329 -11.5278 2.8438
-9.5206 -11.5085 2.8435
-43.4878 15.8371 -4.1106
-42.3707 14.9663 -3.8702
-42.5975 14.5835 -3.7562
-42.8871 14.2198 -3.6471
-43.1785 13.8537 -3.5371
-43.4718 13.4850 -3.4264
-43.7672 13.1137 -3.3148
-44.0647 12.7396 -3.2023
-44.3779 12.3665 -3.0898
-44.6970 11.9910 -2.9766
-45.0189 11.6123 -2.8623
-45.3436 11.2301 -2.7469
-45.6712 10.8444 -2.6304
-45.5984 10.3632 -2.4906
-46.4525 10.0870 -2.3998
-46.9034 9.7121 -2.2848
-47.3612 9.3316 -2.1680
-47.8261 8.9451 -2.0494
-48.2984 8.5526 -1.9288
-48.7783 8.1536 -1.8062
-49.2661 7.7481 -1.6815
-11.6120 0.1356 0.1009
-11.5870 0.0239 0.1335
-11.5621 -0.0874 0.1661
-11.5372 -0.1982 0.1985
-10.9180 -0.2926 0.2189
-11.4879 -0.4185 0.2630
-11.6039 -0.5345 0.2987
-11.4004 -0.6351 0.3260
-11.2999 -0.7386 0.3554
-11.2011 -0.8405 0.3844
-11.1039 -0.9407 0.4129
-11.0081 -1.0394 0.4410
-10.9139 -1.1366 0.4687
-38.2416 -4.3554 1.7529
-38.7525 -4.7921 1.8887
-39.2787 -5.2419 2.0285
-39.8209 -5.7054 2.1727
-40.3800 -6.1833 2.3214
-40.9569 -6.6764 2.4749
-42.3044 -7.3157 2.6811
-40.8574 -7.4721 2.7103
-39.1042 -7.5422 2.7103
-39.4011 -7.9948 2.8486
-38.0181 -8.0973 2.8627
-36.5539 -8.1554 2.8627
-35.1917 -8.2094 2.8627
-33.9208 -8.2595 2.8627
-32.7321 -8.3063 2.8627
-31.6178 -8.3500 2.8627
-30.5707 -8.3910 2.8627
-29.5850 -8.4294 2.8627
-28.6551 -8.4656 2.8627
-27.7762 -8.4996 2.8627
-26.9441 -8.5317 2.8627
-17.8375 -5.8392 1.9524
-25.4056 -8.5907 2.8627
-23.3781 -8.1591 2.7103
-22.7353 -8.1835 2.7103
-22.1220 -8.2067 2.7103
-21.5364 -8.2288 2.7103
-20.9763 -8.2498 2.7103
-20.4402 -8.2698 2.7103
-19.9264 -8.2889 2.7103
-19.4333 -8.3072 2.7103
-18.9598 -8.3246 2.7103
-18.5045 -8.3413 2.7103
-18.7983 -8.6958 2.8201
-18.6366 -8.8433 2.8627
-18.2069 -8.8588 2.8627
-17.7923 -8.8736 2.8627
-17.3920 -8.8879 2.8627
-17.0051 -8.9016 2.8627
-16.6308 -8.9148 2.8627
-16.2687 -8.9275 2.8627
-15.9179 -8.9397 2.8627
-15.5779 -8.9515 2.8627
-15.2476 -8.9626 2.8627
-14.9268 -8.9731 2.8625
-14.6153 -8.9832 2.8624
-14.3126 -8.9929 2.8622
-14.0183 -9.0023 2.8621
-13.7320 -9.0114 2.8620
-13.4533 -9.0202 2.8618
-13.1820 -9.0287 2.8617
-12.9175 -9.0368 2.8616
-12.6579 -9.0436 2.8611
-12.3972 -9.0444 2.8588
-12.1378 -9.0412 2.8554
-11.8832 -9.0366 2.8515
-11.6488 -9.0427 2.8512
-11.4198 -9.0486 2.8508
-11.1960 -9.0543 2.8504
-10.9770 -9.0598 2.8501
-10.7629 -9.0652 2.8498
-10.5531 -9.0704 2.8494
-10.3479 -9.0754 2.8491
-10.1467 -9.0803 2.8488
-9.9496 -9.0849 2.8485
-9.7563 -9.0895 2.8482
-9.5668 -9.0939 2.8479
-9.3808 -9.0982 2.8476
-9.1982 -9.1023 2.8473
-9.0190 -9.1064 2.8470
-8.8429 -9.1103 2.8467
-8.6699 -9.1140 2.8465
-8.4999 -9.1176 2.8462
-8.3327 -9.1213 2.8459
-8.1682 -9.1247 2.8457
-8.0064 -9.1280 2.8454
-7.8472 -9.1313 2.8452
-7.6904 -9.1344 2.8449
-44.1755 16.7102 -2.0660
-43.6488 16.0308 -1.9101
-43.0859 15.3536 -1.7566
-42.5412 14.6984 -1.6078
-42.0793 14.0858 -1.4658
-42.1540 13.6601 -1.3441
-42.5451 13.3350 -1.2318
-42.9410 13.0059 -1.1178
-43.5187 12.7244 -1.0062
-42.3030 11.9278 -0.8554
-42.7176 11.6018 -0.7403
-43.1014 11.2616 -0.6229
-43.5767 10.9388 -0.5046
-44.0317 10.6037 -0.3839
-44.4793 10.2598 -0.2608
-44.6894 9.8565 -0.1347
-46.7493 9.8403 -0.0081
-47.2034 9.4627 0.1257
-47.4047 9.0299 0.2604
-48.1330 8.6900 0.4005
-27.6449 4.7172 0.3080
-27.9137 4.4874 0.3897
-28.1869 4.2538 0.4729
-28.4647 4.0164 0.5576
-28.7472 3.7749 0.6440
-29.0346 3.5292 0.7321
-29.2073 3.2658 0.8185
-29.6191 3.0240 0.9133
-29.9224 2.7648 1.0068
-30.2314 2.5006 1.1022
-30.5464 2.2314 1.1996
-30.8675 1.9569 1.2992
-31.1951 1.6768 1.4009
-31.5293 1.3911 1.5049
-31.8706 1.0993 1.6113
-32.2192 0.8014 1.7201
-32.5753 0.4969 1.8315
-32.9394 0.1858 1.9456
-33.1721 -0.1320 2.0538
-33.6824 -0.4580 2.1816
-11.8089 -0.2742 0.7987
-34.4714 -1.1324 2.4303
-11.4673 -0.4872 0.8415
-35.5355 -1.8527 2.7103
-34.2349 -2.1156 2.7103
-33.0217 -2.3601 2.7103
-33.2245 -2.6966 2.8240
-32.5579 -2.9586 2.8627
-31.5033 -3.1693 2.8627
-30.5107 -3.3669 2.8627
-29.5746 -3.5527 2.8627
-28.6902 -3.7277 2.8627
-27.8531 -3.8928 2.8627
-27.0594 -4.0487 2.8627
-26.3059 -4.1962 2.8627
-25.5893 -4.3359 2.8627
-24.9069 -4.4685 2.8627
-24.2562 -4.5944 2.8627
-23.6349 -4.7142 2.8627
-23.0409 -4.8282 2.8627
-22.4724 -4.9369 2.8627
-21.9278 -5.0406 2.8627
-21.4053 -5.1396 2.8627
-20.9037 -5.2342 2.8627
-19.3343 -5.0413 2.7103
-18.8952 -5.1233 2.7103
-18.4723 -5.2020 2.7103
-18.0648 -5.2774 2.7103
-17.6716 -5.3498 2.7103
-17.2921 -5.4194 2.7103
-16.9255 -5.4862 2.7103
-16.5710 -5.5504 2.7103
-16.2280 -5.6123 2.7103
-15.8959 -5.6719 2.7103
-15.5741 -5.7292 2.7103
-15.5384 -5.8892 2.7594
-15.8006 -6.1662 2.8627
-15.4903 -6.2205 2.8627
-15.1888 -6.2730 2.8627
-14.8956 -6.3237 2.8627
-14.6100 -6.3724 2.8626
-14.3320 -6.4195 2.8625
-14.0607 -6.4647 2.8622
-13.7825 -6.5018 2.8590
-13.5243 -6.5436 2.8585
-13.2727 -6.5841 2.8581
-13.0273 -6.6233 2.8576
-12.7878 -6.6612 2.8572
-12.5541 -6.6980 2.8568
-12.3258 -6.7336 2.8563
-12.1028 -6.7682 2.8559
-11.8849 -6.8017 2.8555
-11.6717 -6.8342 2.8552
-11.4632 -6.8658 2.8548
-11.2591 -6.8964 2.8544
-11.0593 -6.9262 2.8540
-10.8636 -6.9550 2.8537
-10.6718 -6.9831 2.8534
-10.4839 -7.0104 2.8530
-10.2996 -7.0369 2.8527
-10.1189 -7.0626 2.8524
-9.9415 -7.0877 2.8520
-9.7674 -7.1121 2.8517
-9.5964 -7.1357 2.8514
-9.4286 -7.1588 2.8511
-9.2636 -7.1812 2.8508
-9.1015 -7.2030 2.8505
-8.9421 -7.2243 2.8503
-8.7853 -7.2450 2.8500
-8.6311 -7.2651 2.8497
-8.4793 -7.2846 2.8494
-8.3299 -7.3038 2.8492
-8.1829 -7.3224 2.8489
-8.0380 -7.3404 2.8487
-7.8953 -7.3580 2.8484
-7.7547 -7.3752 2.8482
-7.6161 -7.3919 2.8479
-7.4794 -7.4082 2.8477
-7.3447 -7.4241 2.8475
-7.2117 -7.4396 2.8472
-7.0805 -7.4546 2.8470
-6.9511 -7.4693 2.8468
-6.8232 -7.4836 2.8465
-6.6970 -7.4976 2.8463
-6.5724 -7.5112 2.8461
-6.4493 -7.5244 2.8459
-43.7783 16.2163 0.3019
-43.2483 15.5490 0.4198
-23.5404 8.2090 0.2944
-23.7523 8.0278 0.3634
-23.9666 7.8446 0.4335
-24.1834 7.6593 0.5046
-24.4027 7.4719 0.5768
-24.6247 7.2821 0.6502
-24.8494 7.0900 0.7248
-25.0549 6.8894 0.7999
-25.2090 6.6723 0.8743
-25.4417 6.4734 0.9524
-25.7922 6.2998 1.0364
-26.0323 6.0946 1.1176
-26.2758 5.8864 1.2002
-26.5229 5.6752 1.2843
-26.7735 5.4609 1.3700
-27.0280 5.2434 1.4572
-27.2863 5.0226 1.5461
-27.5487 4.7982 1.6367
-27.8153 4.5703 1.7290
-28.0863 4.3387 1.8231
-28.3618 4.1032 1.9192
-28.6419 3.8637 2.0171
-28.9270 3.6200 2.1171
-29.0977 3.3583 2.2102
-29.3976 3.1074 2.3145
-29.8074 2.8619 2.4296
-30.1138 2.5999 2.5384
-31.1241 2.3865 2.7105
-30.1530 2.0211 2.7103
-29.2399 1.6781 2.7103
-28.5184 1.3621 2.7238
-28.7935 1.0981 2.8314
-28.2966 0.8070 2.8627
-27.5227 0.5203 2.8627
-26.7872 0.2488 2.8627
-26.0874 -0.0085 2.8627
-25.4205 -0.2528 2.8627
-24.7841 -0.4850 2.8627
-24.1762 -0.7059 2.8627
-11.4281 -0.4438 1.3866
-11.4711 -0.5562 1.4254
-22.5040 -1.3086 2.8627
-21.9917 -1.4917 2.8627
-21.4996 -1.6667 2.8627
-21.0264 -1.8343 2.8627
-20.5710 -1.9948 2.8627
-20.1323 -2.1487 2.8627
-19.7094 -2.2963 2.8627
-19.3013 -2.4381 2.8627
-18.9073 -2.5744 2.8627
-18.5265 -2.7054 2.8627
-18.1582 -2.8314 2.8627
-16.8540 -2.7955 2.7103
-16.5272 -2.9062 2.7103
-16.2104 -3.0129 2.7103
-15.9033 -3.1158 2.7103
-15.6053 -3.2150 2.7103
-15.3159 -3.3109 2.7103
-15.0348 -3.4035 2.7103
-14.7615 -3.4929 2.7103
-14.4957 -3.5794 2.7103
-14.2371 -3.6631 2.7103
-13.9852 -3.7441 2.7103
-13.7399 -3.8224 2.7103
-13.5008 -3.8983 2.7103
-13.3324 -3.9913 2.7236
-13.5554 -4.2029 2.8174
-13.5378 -4.3432 2.8625
-13.3067 -4.4132 2.8620
-13.0810 -4.4812 2.8615
-12.8605 -4.5471 2.8611
-12.6450 -4.6111 2.8606
-12.4343 -4.6732 2.8602
-12.2283 -4.7335 2.8598
-12.0266 -4.7921 2.8594
-11.8292 -4.8491 2.8590
-11.6359 -4.9044 2.8586
-11.4465 -4.9582 2.8582
-11.2610 -5.0105 2.8578
-11.0791 -5.0614 2.8574
-10.9007 -5.1109 2.8571
-10.7257 -5.1591 2.8567
-10.5539 -5.2060 2.8564
-10.3854 -5.2517 2.8560
-10.2198 -5.2961 2.8557
-10.0573 -5.3394 2.8554
-9.8975 -5.3816 2.8550
-9.7406 -5.4227 2.8547
-9.5862 -5.4627 2.8544
-9.4344 -5.5018 2.8541
-9.2851 -5.5398 2.8538
-9.1382 -5.5769 2.8535
-8.9937 -5.6131 2.8532
-8.8514 -5.6483 2.8529
-8.7112 -5.6827 2.8527
-8.5732 -5.7163 2.8524
-8.4371 -5.7490 2.8521
-8.3031 -5.7810 2.8519
-8.1710 -5.8121 2.8516
-8.0407 -5.8425 2.8514
-7.9123 -5.8722 2.8511
-7.7856 -5.9012 2.8509
-7.6605 -5.9295 2.8506
-7.5372 -5.9571 2.8504
-7.4154 -5.9840 2.8501
-7.2951 -6.0103 2.8499
-7.1764 -6.0360 2.8497
-7.0591 -6.0611 2.8495
-6.9433 -6.0856 2.8492
-6.8288 -6.1095 2.8490
-6.7156 -6.1329 2.8488
-6.6037 -6.1557 2.8486
-6.4932 -6.1780 2.8484
-6.3838 -6.1997 2.8482
-6.2756 -6.2210 2.8480
-6.1686 -6.2418 2.8478
-6.0626 -6.2620 2.8476
-5.9578 -6.2818 2.8474
-5.8541 -6.3011 2.8472
-5.7513 -6.3200 2.8470
-5.6496 -6.3384 2.8468
-5.5489 -6.3564 2.8466
-20.3888 10.9193 0.4116
-20.5705 10.7640 0.4714
-20.7535 10.6075 0.5320
-20.9379 10.4499 0.5935
-21.0289 10.2447 0.6528
-21.2155 10.0853 0.7157
-21.4165 9.9305 0.7800
-21.6776 9.8004 0.8475
-21.8697 9.6362 0.9134
-22.0636 9.4705 0.9802
-22.2593 9.3032 1.0481
-22.4568 9.1344 1.1170
-22.6562 8.9638 1.1869
-22.8577 8.7916 1.2579
-23.0612 8.6177 1.3300
-23.2668 8.4419 1.4033
-23.4747 8.2641 1.4778
-23.6849 8.0845 1.5534
-23.8974 7.9028 1.6303
-24.1124 7.7190 1.7085
-24.3299 7.5330 1.7880
-24.5501 7.3448 1.8689
-24.7730 7.1543 1.9512
-24.9987 6.9613 2.0349
-25.1432 6.7433 2.1131
-25.3599 6.5423 2.1983
-25.7080 6.3707 2.2965
-25.9462 6.1671 2.3865
-26.1877 5.9607 2.4783
-26.4326 5.7512 2.5717
-27.1155 5.6289 2.7104
-26.4093 5.2194 2.7103
-25.7380 4.8315 2.7103
-25.0985 4.4634 2.7103
-25.1565 4.2259 2.7843
-25.2497 3.9936 2.8627
-24.6610 3.6590 2.8627
-24.0973 3.3400 2.8627
-23.5570 3.0356 2.8627
-23.0386 2.7448 2.8627
-22.5406 2.4668 2.8627
-22.0619 2.2008 2.8627
-21.6012 1.9460 2.8627
-21.1574 1.7017 2.8627
-20.7297 1.4675 2.8627
-20.3170 1.2426 2.8627
-19.9185 1.0265 2.8627
-19.5335 0.8188 2.8627
-19.1612 0.6189 2.8627
-18.8009 0.4266 2.8627
-18.4520 0.2413 2.8627
-18.1140 0.0627 2.8627
-17.7861 -0.1095 2.8627
-17.4681 -0.2756 2.8627
-17.1594 -0.4362 2.8627
-11.4122 -0.4000 1.9378
-11.4544 -0.5120 1.9792
-11.4975 -0.6251 2.0212
-16.0087 -1.0252 2.8627
-14.9023 -1.0989 2.7103
-14.6547 -1.2231 2.7103
-14.4135 -1.3433 2.7103
-14.1783 -1.4598 2.7103
-13.9489 -1.5727 2.7103
-13.7251 -1.6822 2.7103
-13.5066 -1.7884 2.7103
-13.2931 -1.8914 2.7103
-13.0846 -1.9914 2.7103
-12.8808 -2.0885 2.7103
-12.6815 -2.1829 2.7103
-12.4865 -2.2745 2.7103
-12.2958 -2.3636 2.7103
-12.1090 -2.4501 2.7103
-11.9261 -2.5343 2.7103
-11.7469 -2.6163 2.7103
-11.8919 -2.7706 2.7854
-12.0401 -2.9294 2.8627
-11.8600 -3.0087 2.8623
-11.6835 -3.0859 2.8619
-11.5103 -3.1611 2.8615
-11.3404 -3.2343 2.8611
-11.1736 -3.3055 2.8607
-11.0098 -3.3750 2.8603
-10.8490 -3.4427 2.8600
-10.6910 -3.5087 2.8596
-10.5357 -3.5730 2.8593
-10.3830 -3.6357 2.8589
-10.2329 -3.6969 2.8586
-10.0853 -3.7566 2.8582
-9.9401 -3.8148 2.8579
-9.7972 -3.8716 2.8576
-9.6565 -3.9270 2.8573
-9.5180 -3.9811 2.8570
-9.3817 -4.0339 2.8567
-9.2473 -4.0855 2.8564
-9.1150 -4.1359 2.8561
-8.9846 -4.1850 2.8558
-8.8560 -4.2331 2.8555
-8.7293 -4.2800 2.8552
-8.6043 -4.3259 2.8549
-8.4810 -4.3707 2.8547
-8.3594 -4.4145 2.8544
-8.2394 -4.4573 2.8541
-8.1209 -4.4991 2.8539
-8.0040 -4.5400 2.8536
-7.8885 -4.5800 2.8534
-7.7745 -4.6191 2.8531
-7.6619 -4.6573 2.8529
-7.5506 -4.6946 2.8527
-7.4407 -4.7312 2.8524
-7.3320 -4.7669 2.8522
-7.2246 -4.8019 2.8520
-7.1184 -4.8361 2.8517
-7.0134 -4.8695 2.8515
-6.9096 -4.9022 2.8513
-6.8069 -4.9342 2.8511
-6.7052 -4.9656 2.8509
-6.6046 -4.9962 2.8507
-6.5051 -5.0261 2.8505
-6.4066 -5.0555 2.8503
-6.3090 -5.0841 2.8501
-6.2124 -5.1122 2.8499
-6.1168 -5.1397 2.8497
-6.0220 -5.1665 2.8495
-5.9282 -5.1928 2.8493
-5.8352 -5.2185 2.8491
-5.7430 -5.2437 2.8489
-5.6517 -5.2683 2.8487
-5.5611 -5.2924 2.8485
-5.4714 -5.3159 2.8484
-5.3823 -5.3390 2.8482
-5.2941 -5.3615 2.8480
-5.2065 -5.3835 2.8478
-5.1197 -5.4051 2.8476
-5.0335 -5.4262 2.8475
-4.9480 -5.4468 2.8473
-4.8632 -5.4670 2.8471
-20.1671 11.1079 1.4484
-20.3460 10.9550 1.5115
-20.5261 10.8010 1.5755
-20.7076 10.6458 1.6405
-20.8904 10.4895 1.7065
-21.0747 10.3319 1.7734
-21.1650 10.1274 1.8331
-21.3516 9.9680 1.9018
-21.6238 9.8455 1.9793
-21.8143 9.6826 2.0504
-22.0065 9.5183 2.1227
-22.2005 9.3524 2.1961
-22.3964 9.1850 2.2707
-22.5942 9.0159 2.3466
-22.7939 8.8451 2.4236
-22.9957 8.6726 2.5020
-23.1997 8.4983 2.5817
-23.8244 8.4709 2.7104
-23.3136 8.0402 2.7103
-22.8240 7.6292 2.7103
-22.3535 7.2362 2.7103
-22.0453 6.9053 2.7282
-22.2269 6.7306 2.8065
-22.2285 6.5008 2.8627
-21.8007 6.1510 2.8627
-21.3878 5.8153 2.8627
-20.9890 5.4928 2.8627
-20.6034 5.1828 2.8627
-20.2304 4.8846 2.8627
-19.8693 4.5975 2.8627
-19.5195 4.3211 2.8627
-19.1804 4.0547 2.8627
-18.8516 3.7978 2.8627
-18.5324 3.5500 2.8627
-18.2224 3.3108 2.8627
-17.9212 3.0797 2.8627
-17.6284 2.8565 2.8627
-17.3435 2.6407 2.8627
-17.0663 2.4320 2.8627
-16.7964 2.2300 2.8627
-16.5334 2.0346 2.8627
-16.2771 1.8453 2.8627
-16.0272 1.6619 2.8627
-15.7834 1.4841 2.8627
-15.5455 1.3118 2.8627
-15.3131 1.1446 2.8627
-15.0861 0.9824 2.8627
-14.8644 0.8250 2.8627
-14.6476 0.6722 2.8627
-14.4355 0.5237 2.8627
-13.4707 0.3593 2.7103
-13.2785 0.2266 2.7103
-13.0903 0.0975 2.7103
-12.9060 -0.0279 2.7103
-12.7255 -0.1500 2.7103
-12.5486 -0.2687 2.7103
-11.3957 -0.3539 2.4958
-11.4378 -0.4656 2.5400
-11.4802 -0.5783 2.5847
-11.8744 -0.7131 2.7103
-11.7136 -0.8170 2.7103
-11.5558 -0.9184 2.7103
-11.4009 -1.0171 2.7103
-11.2486 -1.1134 2.7103
-11.0990 -1.2073 2.7103
-10.9520 -1.2988 2.7103
-10.8074 -1.3881 2.7103
-10.6652 -1.4753 2.7103
-10.5253 -1.5603 2.7103
-10.6232 -1.6806 2.7718
-10.7547 -1.8089 2.8431
-10.6870 -1.9048 2.8625
-10.5471 -1.9861 2.8621
-10.4093 -2.0656 2.8618
-10.2736 -2.1432 2.8614
-10.1400 -2.2190 2.8611
-10.0083 -2.2931 2.8607
-9.8785 -2.3654 2.8604
-9.7506 -2.4362 2.8601
-9.6245 -2.5053 2.8598
-9.5002 -2.5729 2.8595
-9.3776 -2.6390 2.8591
-9.2566 -2.7036 2.8588
-9.1372 -2.7667 2.8586
-9.0195 -2.8285 2.8583
-8.9032 -2.8890 2.8580
-8.7884 -2.9481 2.8577
-8.6751 -3.0060 2.8574
-8.5632 -3.0626 2.8571
-8.4527 -3.1180 2.8569
-8.3435 -3.1722 2.8566
-8.2356 -3.2253 2.8563
-8.1289 -3.2773 2.8561
-8.0235 -3.3281 2.8558
-7.9193 -3.3779 2.8556
-7.8163 -3.4267 2.8553
-7.7144 -3.4744 2.8551
-7.6136 -3.5212 2.8549
-7.5139 -3.5670 2.8546
-7.4153 -3.6118 2.8544
-7.3177 -3.6558 2.8542
-7.2211 -3.6988 2.8539
-7.1255 -3.7409 2.8537
-7.0308 -3.7822 2.8535
-6.9371 -3.8227 2.8533
-6.8443 -3.8623 2.8531
-6.7524 -3.9012 2.8529
-6.6614 -3.9392 2.8526
-6.5712 -3.9765 2.8524
-6.4818 -4.0130 2.8522
-6.3933 -4.0488 2.8520
-6.3055 -4.0839 2.8518
-6.2185 -4.1183 2.8516
-6.1323 -4.1520 2.8515
-6.0468 -4.1850 2.8513
-5.9620 -4.2174 2.8511
-5.8779 -4.2491 2.8509
-5.7945 -4.2801 2.8507
-5.7118 -4.3106 2.8505
-5.6297 -4.3404 2.8503
-5.5483 -4.3697 2.8502
-5.4675 -4.3983 2.8500
-5.3873 -4.4264 2.8498
-5.3077 -4.4539 2.8496
-5.2287 -4.4808 2.8495
-5.1503 -4.5072 2.8493
-5.0724 -4.5331 2.8491
-4.9950 -4.5585 2.8490
-4.9182 -4.5833 2.8488
-4.8419 -4.6076 2.8486
-4.7662 -4.6314 2.8485
-4.6909 -4.6548 2.8483
-4.6161 -4.6776 2.8482
-4.5418 -4.7000 2.8480
-4.4679 -4.7219 2.8478
-4.3945 -4.7434 2.8477
-4.3215 -4.7644 2.8475
-19.9461 11.2958 2.4818
-20.1222 11.1453 2.5481
-20.2995 10.9938 2.6155
-20.6801 10.9481 2.7104
-20.3351 10.5204 2.7103
-20.0007 10.1086 2.7103
-19.6762 9.7120 2.7103
-19.3613 9.3295 2.7103
-19.4301 9.1374 2.7637
-19.5876 8.9862 2.8303
-19.5065 8.7265 2.8627
-19.2091 8.3763 2.8627
-18.9195 8.0378 2.8627
-18.6375 7.7107 2.8627
-18.3627 7.3942 2.8627
-18.0947 7.0881 2.8627
-17.8334 6.7917 2.8627
-17.5784 6.5048 2.8627
-17.3294 6.2268 2.8627
-17.0863 5.9574 2.8627
-16.8488 5.6962 2.8627
-16.6166 5.4429 2.8627
-16.3896 5.1971 2.8627
-16.1676 4.9587 2.8627
-15.9504 4.7271 2.8627
-15.7377 4.5023 2.8627
-15.5295 4.2839 2.8627
-15.3256 4.0716 2.8627
-15.1258 3.8653 2.8627
-14.9300 3.6647 2.8627
-14.7380 3.4696 2.8627
-14.5497 3.2798 2.8627
-14.3650 3.0950 2.8627
-14.1837 2.9153 2.8627
-14.0058 2.7402 2.8627
-13.8312 2.5697 2.8627
-13.6596 2.4036 2.8627
-13.4911 2.2418 2.8627
-13.3255 2.0841 2.8627
-13.1628 1.9304 2.8627
-13.0028 1.7805 2.8627
-12.1617 1.5474 2.7103
-12.0152 1.4124 2.7103
-11.8711 1.2807 2.7103
-11.7293 1.1522 2.7103
-11.5897 1.0268 2.7103
-11.4523 0.9043 2.7103
-11.3170 0.7848 2.7103
-11.1837 0.6680 2.7103
-11.0524 0.5541 2.7103
-10.9231 0.4426 2.7103
-10.7957 0.3338 2.7103
-10.6700 0.2274 2.7103
-10.5462 0.1234 2.7103
-10.4240 0.0218 2.7103
-10.3036 -0.0775 2.7103
-10.1848 -0.1747 2.7103
-10.0676 -0.2697 2.7103
-9.9519 -0.3627 2.7103
-9.8378 -0.4536 2.7103
-9.7251 -0.5425 2.7103
-9.6138 -0.6296 2.7103
-9.5119 -0.7154 2.7126
-9.6146 -0.8168 2.7736
-9.7198 -0.9207 2.8362
-9.6982 -1.0136 2.8626
-9.5866 -1.0961 2.8622
-9.4765 -1.1769 2.8619
-9.3676 -1.2561 2.8616
-9.2600 -1.3335 2.8613
-9.1536 -1.4094 2.8610
-9.0484 -1.4837 2.8607
-8.9445 -1.5565 2.8604
-8.8417 -1.6278 2.8601
-8.7400 -1.6977 2.8599
-8.6395 -1.7661 2.8596
-8.5400 -1.8332 2.8593
-8.4416 -1.8990 2.8590
-8.3442 -1.9634 2.8588
-8.2478 -2.0266 2.8585
-8.1524 -2.0885 2.8583
-8.0579 -2.1492 2.8580
-7.9644 -2.2087 2.8578
-7.8718 -2.2670 2.8575
-7.7801 -2.3243 2.8573
-7.6893 -2.3804 2.8570
-7.5993 -2.4354 2.8568
-7.5102 -2.4894 2.8566
-7.4219 -2.5423 2.8563
-7.3345 -2.5942 2.8561
-7.2478 -2.6451 2.8559
-7.1618 -2.6951 2.8556
-7.0766 -2.7441 2.8554
-6.9922 -2.7922 2.8552
-6.9085 -2.8394 2.8550
-6.8254 -2.8856 2.8548
-6.7431 -2.9310 2.8546
-6.6615 -2.9756 2.8544
-6.5805 -3.0193 2.8542
-6.5001 -3.0622 2.8540
-6.4204 -3.1043 2.8538
-6.3413 -3.1456 2.8536
-6.2629 -3.1862 2.8534
-6.1850 -3.2260 2.8532
-6.1077 -3.2650 2.8530
-6.0310 -3.3033 2.8528
-5.9548 -3.3409 2.8526
-5.8792 -3.3779 2.8525
-5.8041 -3.4141 2.8523
-5.7295 -3.4496 2.8521
-5.6555 -3.4845 2.8519
-5.5820 -3.5188 2.8517
-5.5089 -3.5524 2.8516
-5.4364 -3.5853 2.8514
-5.3643 -3.6177 2.8512
-5.2927 -3.6494 2.8511
-5.2215 -3.6806 2.8509
-5.1508 -3.7112 2.8507
-5.0805 -3.7412 2.8506
-5.0107 -3.7706 2.8504
-4.9413 -3.7995 2.8503
-4.8722 -3.8278 2.8501
-4.8036 -3.8556 2.8499
-4.7354 -3.8829 2.8498
-4.6676 -3.9097 2.8496
-4.6001 -3.9359 2.8495
-4.5331 -3.9617 2.8493
-4.4663 -3.9869 2.8492
-4.4000 -4.0117 2.8490
-4.3340 -4.0359 2.8489
-4.2683 -4.0598 2.8487
-4.2030 -4.0831 2.8486
-4.1380 -4.1060 2.8484
-4.0733 -4.1284 2.8483
-4.0089 -4.1504 2.8481
-3.9449 -4.1720 2.8480
-3.8811 -4.1931 2.8479
-16.0587 9.3495 2.8627
-15.8861 9.0502 2.8627
-15.7160 8.7588 2.8627
-15.5485 8.4749 2.8627
-15.3834 8.1983 2.8627
-15.2206 7.9289 2.8627
-15.0602 7.6662 2.8627
-14.9021 7.4102 2.8627
-14.7461 7.1606 2.8627
-14.5923 6.9171 2.8627
-14.4406 6.6797 2.8627
-14.2910 6.4481 2.8627
-14.1434 6.2220 2.8627
-13.9978 6.0015 2.8627
-13.8540 5.7862 2.8627
-13.7122 5.5760 2.8627
-13.5722 5.3708 2.8627
-13.4340 5.1704 2.8627
-13.2975 4.9746 2.8627
-13.1627 4.7834 2.8627
-13.0297 4.5965 2.8627
-12.8982 4.4140 2.8627
-12.7684 4.2355 2.8627
-12.6401 4.0611 2.8627
-12.5134 3.8906 2.8627
-12.3882 3.7239 2.8627
-12.2645 3.5608 2.8627
-12.1422 3.4014 2.8627
-12.0213 3.2454 2.8627
-11.9018 3.0928 2.8627
-11.7836 2.9434 2.8627
-11.6668 2.7973 2.8627
-10.9364 2.5129 2.7103
-10.8281 2.3805 2.7103
-10.7211 2.2507 2.7103
-10.6153 2.1237 2.7103
-10.5106 1.9993 2.7103
-10.4069 1.8775 2.7103
-10.3044 1.7582 2.7103
-10.2030 1.6414 2.7103
-10.1026 1.5269 2.7103
-10.0032 1.4147 2.7103
-9.9048 1.3048 2.7103
-9.8074 1.1971 2.7103
-9.7110 1.0916 2.7103
-9.6155 0.9881 2.7103
-9.5210 0.8867 2.7103
-9.4273 0.7873 2.7103
-9.3346 0.6899 2.7103
-9.2427 0.5943 2.7103
-9.1517 0.5006 2.7103
-9.0615 0.4087 2.7103
-8.9722 0.3185 2.7103
-8.8837 0.2301 2.7103
-8.7959 0.1434 2.7103
-8.7090 0.0582 2.7103
-8.7010 -0.0255 2.7349
-8.7860 -0.1103 2.7893
-8.8728 -0.1968 2.8450
-8.8387 -0.2814 2.8625
-8.7499 -0.3631 2.8623
-8.6619 -0.4433 2.8620
-8.5746 -0.5220 2.8617
-8.4881 -0.5992 2.8614
-8.4023 -0.6751 2.8612
-8.3172 -0.7495 2.8609
-8.2329 -0.8225 2.8606
-8.1492 -0.8942 2.8604
-8.0662 -0.9646 2.8601
-7.9838 -1.0338 2.8599
-7.9021 -1.1016 2.8596
-7.8211 -1.1683 2.8594
-7.7407 -1.2338 2.8592
-7.6609 -1.2980 2.8589
-7.5817 -1.3611 2.8587
-7.5031 -1.4231 2.8585
-7.4251 -1.4840 2.8582
-7.3476 -1.5438 2.8580
-7.2708 -1.6026 2.8578
-7.1944 -1.6603 2.8576
-7.1187 -1.7170 2.8573
-7.0434 -1.7727 2.8571
-6.9687 -1.8274 2.8569
-6.8945 -1.8811 2.8567
-6.8209 -1.9339 2.8565
-6.7477 -1.9858 2.8563
-6.6750 -2.0368 2.8561
-6.6028 -2.0869 2.8559
-6.5311 -2.1361 2.8557
-6.4598 -2.1845 2.8555
-6.3890 -2.2320 2.8553
-6.3187 -2.2787 2.8551
-6.2487 -2.3246 2.8549
-6.1793 -2.3697 2.8547
-6.1102 -2.4140 2.8545
-6.0416 -2.4576 2.8544
-5.9734 -2.5004 2.8542
-5.9056 -2.5425 2.8540
-5.8382 -2.5838 2.8538
-5.7712 -2.6244 2.8536
-5.7045 -2.6644 2.8535
-5.6383 -2.7036 2.8533
-5.5724 -2.7422 2.8531
-5.5069 -2.7801 2.8530
-5.4418 -2.8173 2.8528
-5.3770 -2.8539 2.8526
-5.3125 -2.8898 2.8525
-5.2484 -2.9252 2.8523
-5.1846 -2.9599 2.8521
-5.1212 -2.9940 2.8520
-5.0581 -3.0276 2.8518
-4.9953 -3.0605 2.8517
-4.9328 -3.0929 2.8515
-4.8706 -3.1247 2.8514
-4.8088 -3.1559 2.8512
-4.7472 -3.1866 2.8510
-4.6859 -3.2168 2.8509
-4.6249 -3.2464 2.8507
-4.5642 -3.2755 2.8506
-4.5038 -3.3041 2.8505
-4.4436 -3.3321 2.8503
-4.3837 -3.3597 2.8502
-4.3241 -3.3868 2.8500
-4.2648 -3.4134 2.8499
-4.2056 -3.4395 2.8497
-4.1468 -3.4651 2.8496
-4.0882 -3.4903 2.8495
-4.0298 -3.5150 2.8493
-3.9716 -3.5392 2.8492
-3.9137 -3.5630 2.8491
-3.8561 -3.5864 2.8489
-3.7986 -3.6093 2.8488
-3.7414 -3.6318 2.8487
-3.6843 -3.6538 2.8485
-3.6275 -3.6755 2.8484
-3.5709 -3.6967 2.8483
-3.5145 -3.7175 2.8481
-12.2532 7.3341 2.8627
-12.1668 7.1292 2.8627
-12.0805 6.9281 2.8627
-11.9944 6.7308 2.8627
-11.9083 6.5375 2.8627
-11.8227 6.3474 2.8627
-11.7371 6.1611 2.8627
-11.6517 5.9782 2.8627
-11.5666 5.7988 2.8627
-11.4817 5.6227 2.8627
-11.3971 5.4499 2.8627
-11.3127 5.2804 2.8627
-11.2286 5.1139 2.8627
-11.1448 4.9505 2.8627
-11.0613 4.7901 2.8627
-10.9781 4.6327 2.8627
-10.8952 4.4781 2.8627
-10.8126 4.3264 2.8627
-10.7303 4.1774 2.8627
-10.6483 4.0311 2.8627
-10.5667 3.8874 2.8627
-10.4855 3.7464 2.8627
-9.8506 3.4158 2.7103
-9.7743 3.2870 2.7103
-9.6984 3.1605 2.7103
-9.6227 3.0362 2.7103
-9.5475 2.9142 2.7103
-9.4725 2.7943 2.7103
-9.3979 2.6765 2.7103
-9.3236 2.5609 2.7103
-9.2497 2.4472 2.7103
-9.1761 2.3355 2.7103
-9.1029 2.2258 2.7103
-9.0299 2.1180 2.7103
-8.9574 2.0121 2.7103
-8.8852 1.9079 2.7103
-8.8134 1.8057 2.7103
-8.7419 1.7051 2.7103
-8.6707 1.6063 2.7103
-8.5999 1.5092 2.7103
-8.5295 1.4137 2.7103
-8.4593 1.3198 2.7103
-8.3896 1.2276 2.7103
-8.3201 1.1369 2.7103
-8.2511 1.0477 2.7103
-8.1823 0.9601 2.7103
-8.1139 0.8739 2.7103
-8.0458 0.7892 2.7103
-7.9781 0.7059 2.7103
-7.9435 0.6265 2.7216
-8.0145 0.5552 2.7694
-8.0866 0.4826 2.8183
-8.1440 0.4079 2.8627
-8.0735 0.3270 2.8625
-8.0034 0.2473 2.8622
-7.9336 0.1691 2.8620
-7.8642 0.0921 2.8617
-7.7951 0.0163 2.8615
-7.7264 -0.0581 2.8612
-7.6580 -0.1314 2.8610
-7.5900 -0.2034 2.8608
-7.5223 -0.2743 2.8605
-7.4550 -0.3440 2.8603
-7.3880 -0.4125 2.8601
-7.3213 -0.4799 2.8599
-7.2550 -0.5463 2.8596
-7.1890 -0.6115 2.8594
-7.1233 -0.6757 2.8592
-7.0579 -0.7389 2.8590
-6.9929 -0.8010 2.8588
-6.9282 -0.8621 2.8586
-6.8637 -0.9223 2.8584
-6.7997 -0.9815 2.8582
-6.7358 -1.0397 2.8580
-6.6724 -1.0970 2.8578
-6.6092 -1.1533 2.8576
-6.5463 -1.2088 2.8574
-6.4837 -1.2634 2.8572
-6.4213 -1.3170 2.8570
-6.3593 -1.3699 2.8568
-6.2976 -1.4219 2.8566
-6.2361 -1.4730 2.8564
-6.1749 -1.5234 2.8562
-6.1140 -1.5729 2.8560
-6.0534 -1.6217 2.8559
-5.9930 -1.6696 2.8557
-5.9329 -1.7168 2.8555
-5.8731 -1.7633 2.8553
-5.8135 -1.8090 2.8552
-5.7542 -1.8540 2.8550
-5.6951 -1.8982 2.8548
-5.6363 -1.9418 2.8547
-5.5777 -1.9846 2.8545
-5.5194 -2.0268 2.8543
-5.4613 -2.0683 2.8542
-5.3459 -2.1493 2.8538
-5.4035 -2.1092 2.8540
-5.2885 -2.1889 2.8537
-5.2314 -2.2278 2.8535
-5.1177 -2.3037 2.8532
-5.1744 -2.2661 2.8534
-5.0613 -2.3408 2.8531
-4.8932 -2.4484 2.8526
-4.8375 -2.4832 2.8525
-5.0050 -2.3773 2.8529
-4.7821 -2.5173 2.8523
-4.9490 -2.4131 2.8528
-4.7269 -2.5509 2.8522
-4.6719 -2.5840 2.8520
-4.4538 -2.7108 2.8514
-4.3998 -2.7413 2.8513
-4.6171 -2.6165 2.8519
-4.3460 -2.7712 2.8512
-4.5625 -2.6485 2.8517
-4.2923 -2.8006 2.8510
-4.2388 -2.8295 2.8509
-4.5081 -2.6799 2.8516
-4.1855 -2.8580 2.8508
-4.0267 -2.9405 2.8504
-4.1324 -2.8860 2.8506
-4.0794 -2.9135 2.8505
-3.9740 -2.9671 2.8502
-3.8172 -3.0441 2.8498
-3.9216 -2.9932 2.8501
-3.7652 -3.0688 2.8497
-3.7134 -3.0932 2.8496
-3.8693 -3.0188 2.8500
-3.6617 -3.1171 2.8495
-3.6102 -3.1406 2.8493
-3.5589 -3.1637 2.8492
-3.5077 -3.1863 2.8491
-3.4566 -3.2086 2.8490
-3.4057 -3.2305 2.8489
-3.3549 -3.2519 2.8487
-3.3043 -3.2730 2.8486
-3.2538 -3.2937 2.8485
-3.2034 -3.3139 2.8484
-9.8431 6.0578 2.8627
-9.7969 5.9051 2.8627
-9.7501 5.7546 2.8627
-9.7028 5.6063 2.8627
-9.6550 5.4601 2.8627
-9.6067 5.3161 2.8627
-9.5580 5.1741 2.8627
-9.5088 5.0342 2.8627
-9.4593 4.8963 2.8627
-9.4093 4.7604 2.8627
-8.8608 4.3802 2.7103
-8.8128 4.2552 2.7103
-8.7646 4.1321 2.7103
-8.7160 4.0108 2.7103
-8.6672 3.8913 2.7103
-8.6182 3.7734 2.7103
-8.5689 3.6574 2.7103
-8.5193 3.5430 2.7103
-8.4696 3.4303 2.7103
-8.4197 3.3192 2.7103
-8.3696 3.2098 2.7103
-8.3193 3.1020 2.7103
-8.2689 2.9957 2.7103
-8.2184 2.8911 2.7103
-8.1677 2.7879 2.7103
-8.1169 2.6863 2.7103
-8.0660 2.5861 2.7103
-8.0150 2.4874 2.7103
-7.9639 2.3902 2.7103
-7.9127 2.2944 2.7103
-7.8615 2.2000 2.7103
-7.8102 2.1070 2.7103
-7.7589 2.0153 2.7103
-7.7075 1.9250 2.7103
-7.6561 1.8360 2.7103
-7.6047 1.7483 2.7103
-7.5532 1.6619 2.7103
-7.5018 1.5767 2.7103
-7.4503 1.4928 2.7103
-7.3988 1.4101 2.7103
-7.3474 1.3286 2.7103
-7.2959 1.2484 2.7103
-7.2978 1.1778 2.7303
-7.3586 1.1164 2.7727
-7.4203 1.0540 2.8161
-7.4829 0.9907 2.8604
-7.4344 0.9126 2.8625
-7.3797 0.8349 2.8623
-7.3250 0.7584 2.8621
-7.2704 0.6829 2.8619
-7.2159 0.6086 2.8616
-7.1615 0.5353 2.8614
-7.1072 0.4631 2.8612
-7.0529 0.3920 2.8610
-6.9987 0.3219 2.8608
-6.9447 0.2529 2.8606
-6.8907 0.1848 2.8604
-6.8368 0.1178 2.8602
-6.7830 0.0517 2.8600
-6.7293 -0.0134 2.8598
-6.6756 -0.0775 2.8596
-6.6221 -0.1407 2.8594
-6.5688 -0.2030 2.8592
-6.5155 -0.2644 2.8590
-6.4623 -0.3249 2.8588
-6.4092 -0.3845 2.8586
-6.3562 -0.4432 2.8584
-6.3034 -0.5011 2.8583
-6.2506 -0.5581 2.8581
-6.1980 -0.6143 2.8579
-6.1455 -0.6697 2.8577
-6.0931 -0.7243 2.8575
-6.0409 -0.7780 2.8574
-5.9887 -0.8310 2.8572
-5.9367 -0.8832 2.8570
-5.8848 -0.9347 2.8568
-5.8330 -0.9854 2.8567
-5.7813 -1.0353 2.8565
-5.7297 -1.0846 2.8563
-5.6783 -1.1331 2.8562
-5.6270 -1.1809 2.8560
-5.5758 -1.2280 2.8558
-5.5247 -1.2744 2.8557
-5.4738 -1.3201 2.8555
-5.4229 -1.3651 2.8554
-5.3722 -1.4095 2.8552
-5.3216 -1.4532 2.8550
-5.2712 -1.4963 2.8549
-5.2209 -1.5388 2.8547
-5.1706 -1.5806 2.8546
-5.1205 -1.6218 2.8544
-5.0706 -1.6624 2.8543
-5.0207 -1.7024 2.8541
-4.9710 -1.7418 2.8540
-4.9213 -1.7806 2.8538
-4.8718 -1.8188 2.8537
-4.8225 -1.8565 2.8536
-4.7732 -1.8936 2.8534
-4.7240 -1.9301 2.8533
-4.6750 -1.9661 2.8531
-4.6261 -2.0016 2.8530
-4.5773 -2.0365 2.8529
-4.5286 -2.0709 2.8527
-4.4800 -2.1047 2.8526
-4.4315 -2.1381 2.8524
-4.3832 -2.1709 2.8523
-4.3349 -2.2032 2.8522
-4.2868 -2.2351 2.8520
-4.2388 -2.2664 2.8519
-4.1909 -2.2973 2.8518
-4.1431 -2.3276 2.8516
-4.0954 -2.3575 2.8515
-4.0478 -2.3870 2.8514
-4.0003 -2.4159 2.8513
-3.9529 -2.4445 2.8511
-3.9056 -2.4725 2.8510
-3.8585 -2.5001 2.8509
-3.8114 -2.5273 2.8508
-3.7644 -2.5540 2.8506
-3.7175 -2.5803 2.8505
-3.6707 -2.6062 2.8504
-3.6241 -2.6317 2.8503
-3.5775 -2.6567 2.8502
-3.5310 -2.6813 2.8500
-3.4846 -2.7055 2.8499
-3.4383 -2.7294 2.8498
-3.3921 -2.7528 2.8497
-3.3460 -2.7758 2.8496
-3.3000 -2.7984 2.8495
-3.1168 -2.8850 2.8490
-3.2540 -2.8206 2.8494
-3.0712 -2.9057 2.8489
-3.2082 -2.8425 2.8492
-3.0257 -2.9261 2.8488
-3.1625 -2.8639 2.8491
-2.9803 -2.9461 2.8487
-2.9349 -2.9657 2.8486
-7.7386 4.8983 2.7103
-7.7149 4.7848 2.7103
-7.6906 4.6726 2.7103
-7.6655 4.5616 2.7103
-7.6398 4.4519 2.7103
-7.6135 4.3434 2.7103
-7.5866 4.2362 2.7103
-7.5591 4.1302 2.7103
-7.5310 4.0254 2.7103
-7.5023 3.9219 2.7103
-7.4732 3.8195 2.7103
-7.4435 3.7183 2.7103
-7.4132 3.6184 2.7103
-7.3826 3.5196 2.7103
-7.3514 3.4220 2.7103
-7.3198 3.3255 2.7103
-7.2878 3.2302 2.7103
-7.2553 3.1360 2.7103
-7.2224 3.0430 2.7103
-7.1892 2.9511 2.7103
-7.1556 2.8603 2.7103
-7.1216 2.7706 2.7103
-7.0872 2.6820 2.7103
-7.0526 2.5944 2.7103
-7.0176 2.5080 2.7103
-6.9823 2.4226 2.7103
-6.9467 2.3383 2.7103
-6.9108 2.2550 2.7103
-6.8747 2.1727 2.7103
-6.8382 2.0915 2.7103
-6.8016 2.0112 2.7103
-6.7647 1.9320 2.7103
-6.7275 1.8537 2.7103
-6.6901 1.7765 2.7103
-6.6816 1.7076 2.7222
-6.7344 1.6542 2.7594
-6.7877 1.6002 2.7973
-6.8417 1.5454 2.8360
-6.8656 1.4834 2.8627
-6.8244 1.4076 2.8625
-6.7831 1.3329 2.8623
-6.7416 1.2591 2.8621
-6.7000 1.1862 2.8619
-6.6583 1.1143 2.8617
-6.6164 1.0433 2.8615
-6.5744 0.9732 2.8613
-6.5322 0.9040 2.8611
-6.4900 0.8357 2.8609
-6.4476 0.7683 2.8608
-6.4052 0.7018 2.8606
-6.3627 0.6361 2.8604
-6.3200 0.5713 2.8602
-6.2773 0.5073 2.8600
-6.2346 0.4442 2.8598
-6.1058 0.2596 2.8593
-6.1917 0.3818 2.8597
-6.0628 0.1997 2.8591
-6.1488 0.3203 2.8595
-6.0197 0.1406 2.8590
-5.9766 0.0822 2.8588
-5.9335 0.0246 2.8586
-5.7605 -0.1982 2.8580
-5.7171 -0.2521 2.8578
-5.8903 -0.0322 2.8585
-5.6738 -0.3053 2.8576
-5.8470 -0.0883 2.8583
-5.6305 -0.3578 2.8575
-5.5871 -0.4096 2.8573
-5.8037 -0.1436 2.8581
-5.5437 -0.4606 2.8572
-5.4136 -0.6099 2.8567
-5.5003 -0.5110 2.8570
-5.4570 -0.5608 2.8569
-5.3702 -0.6583 2.8565
-5.2401 -0.7997 2.8561
-5.3268 -0.7061 2.8564
-5.1967 -0.8456 2.8559
-5.1534 -0.8908 2.8558
-5.2835 -0.7532 2.8562
-5.1101 -0.9355 2.8556
-5.0668 -0.9795 2.8555
-4.8937 -1.1498 2.8549
-5.0235 -1.0230 2.8554
-4.8505 -1.1909 2.8548
-4.8074 -1.2315 2.8547
-4.9802 -1.0658 2.8552
-4.7642 -1.2715 2.8545
-4.9370 -1.1081 2.8551
-4.7211 -1.3109 2.8544
-4.6780 -1.3498 2.8542
-4.5490 -1.4634 2.8538
-4.6350 -1.3882 2.8541
-4.5060 -1.5002 2.8537
-4.5920 -1.4261 2.8540
-4.3774 -1.6075 2.8533
-4.4631 -1.5365 2.8536
-4.3346 -1.6423 2.8532
-4.4202 -1.5722 2.8534
-4.2918 -1.6766 2.8530
-4.2491 -1.7104 2.8529
-4.2064 -1.7437 2.8528
-4.0361 -1.8722 2.8523
-4.1638 -1.7765 2.8527
-3.9937 -1.9032 2.8522
-3.9513 -1.9338 2.8520
-4.1212 -1.8089 2.8525
-3.9089 -1.9638 2.8519
-4.0787 -1.8408 2.8524
-3.8666 -1.9935 2.8518
-3.8243 -2.0227 2.8517
-3.6977 -2.1078 2.8513
-3.7820 -2.0515 2.8516
-3.7398 -2.0798 2.8515
-3.6556 -2.1353 2.8512
-3.5296 -2.2153 2.8509
-3.6135 -2.1624 2.8511
-3.4876 -2.2412 2.8508
-3.4458 -2.2666 2.8507
-3.5715 -2.1890 2.8510
-3.4040 -2.2917 2.8505
-3.3622 -2.3164 2.8504
-3.0296 -2.5002 2.8496
-3.1955 -2.4113 2.8500
-2.9883 -2.5215 2.8495
-3.3204 -2.3407 2.8503
-3.1540 -2.4341 2.8499
-2.9470 -2.5425 2.8494
-3.2788 -2.3646 2.8502
-3.1125 -2.4565 2.8498
-2.9057 -2.5631 2.8493
-3.0711 -2.4785 2.8497
-3.2371 -2.3881 2.8501
-2.8644 -2.5833 2.8492
-2.8233 -2.6033 2.8491
-2.7821 -2.6228 2.8490
-2.7410 -2.6420 2.8489
-2.7000 -2.6609 2.8488
-6.5748 4.2819 2.7103
-6.5626 4.1896 2.7103
-6.5498 4.0981 2.7103
-6.5362 4.0074 2.7103
-6.5220 3.9175 2.7103
-6.5071 3.8285 2.7103
-6.4916 3.7402 2.7103
-6.4754 3.6528 2.7103
-6.4586 3.5661 2.7103
-6.4412 3.4803 2.7103
-6.4233 3.3953 2.7103
-6.4047 3.3111 2.7103
-6.3857 3.2277 2.7103
-6.3660 3.1451 2.7103
-6.3459 3.0633 2.7103
-6.3252 2.9823 2.7103
-6.3041 2.9022 2.7103
-6.2824 2.8228 2.7103
-6.2603 2.7442 2.7103
-6.2377 2.6664 2.7103
-6.2147 2.5894 2.7103
-6.1913 2.5131 2.7103
-6.1674 2.4377 2.7103
-6.1431 2.3630 2.7103
-6.1184 2.2891 2.7103
-6.0933 2.2160 2.7103
-6.1385 2.1686 2.7419
-6.1854 2.1212 2.7746
-6.2327 2.0733 2.8080
-6.2804 2.0250 2.8421
-6.2976 1.9664 2.8627
-6.2685 1.8939 2.8625
-6.2391 1.8221 2.8623
-6.2094 1.7511 2.8622
-6.1793 1.6809 2.8620
-6.1490 1.6114 2.8618
-6.1184 1.5428 2.8616
-6.0874 1.4749 2.8615
-6.0563 1.4077 2.8613
-6.0248 1.3413 2.8611
-5.9931 1.2756 2.8610
-5.9611 1.2107 2.8608
-5.9289 1.1465 2.8606
-5.8965 1.0831 2.8605
-5.8639 1.0203 2.8603
-5.8310 0.9583 2.8602
-5.7979 0.8970 2.8600
-5.7646 0.8364 2.8598
-5.7312 0.7764 2.8597
-5.6975 0.7172 2.8595
-5.6637 0.6587 2.8594
-5.6296 0.6008 2.8592
-5.5954 0.5436 2.8590
-5.5611 0.4871 2.8589
-5.5266 0.4312 2.8587
-5.4919 0.3760 2.8586
-5.4571 0.3214 2.8584
-5.4222 0.2675 2.8583
-5.3871 0.2143 2.8581
-5.3519 0.1616 2.8580
-5.3165 0.1096 2.8578
-5.2811 0.0582 2.8577
-5.2455 0.0074 2.8575
-5.2098 -0.0428 2.8574
-5.1740 -0.0924 2.8573
-5.1381 -0.1414 2.8571
-5.1021 -0.1897 2.8570
-5.0660 -0.2376 2.8568
-5.0298 -0.2848 2.8567
-4.9935 -0.3314 2.8566
-4.9572 -0.3775 2.8564
-4.9207 -0.4230 2.8563
-4.8842 -0.4679 2.8561
-4.8477 -0.5124 2.8560
-4.8110 -0.5562 2.8559
-4.7743 -0.5995 2.8557
-4.7375 -0.6423 2.8556
-4.7007 -0.6845 2.8555
-4.6638 -0.7262 2.8553
-4.6268 -0.7674 2.8552
-4.5898 -0.8081 2.8551
-4.5528 -0.8483 2.8550
-4.5157 -0.8879 2.8548
-4.4785 -0.9271 2.8547
-4.4413 -0.9657 2.8546
-4.4041 -1.0039 2.8544
-4.3669 -1.0415 2.8543
-4.2923 -1.1154 2.8541
-4.3296 -1.0787 2.8542
-4.1427 -1.2576 2.8536
-4.2549 -1.1517 2.8539
-4.1052 -1.2919 2.8534
-4.2175 -1.1874 2.8538
-4.0678 -1.3258 2.8533
-4.1801 -1.2227 2.8537
-4.0303 -1.3593 2.8532
-3.8426 -1.5201 2.8526
-3.9928 -1.3924 2.8531
-3.8051 -1.5510 2.8525
-3.9553 -1.4249 2.8530
-3.7675 -1.5814 2.8524
-3.9177 -1.4571 2.8529
-3.7299 -1.6115 2.8523
-3.8802 -1.4888 2.8527
-3.6923 -1.6411 2.8522
-3.6547 -1.6703 2.8521
-3.5419 -1.7555 2.8517
-3.6171 -1.6991 2.8519
-3.5795 -1.7275 2.8518
-3.5043 -1.7831 2.8516
-3.3916 -1.8636 2.8513
-3.4667 -1.8103 2.8515
-3.3540 -1.8897 2.8512
-3.4291 -1.8371 2.8514
-3.3164 -1.9153 2.8511
-3.2788 -1.9406 2.8510
-3.2412 -1.9656 2.8509
-3.0910 -2.0617 2.8505
-3.0535 -2.0848 2.8504
-3.2036 -1.9902 2.8508
-3.0159 -2.1076 2.8503
-3.1661 -2.0144 2.8507
-2.9784 -2.1300 2.8502
-3.1285 -2.0382 2.8506
-2.9409 -2.1521 2.8501
-2.9034 -2.1738 2.8500
-2.7910 -2.2370 2.8497
-2.8659 -2.1952 2.8499
-2.7535 -2.2574 2.8496
-2.8284 -2.2163 2.8498
-2.6413 -2.3165 2.8493
-2.7161 -2.2774 2.8495
-2.6039 -2.3356 2.8492
-2.6787 -2.2971 2.8494
-2.5665 -2.3543 2.8491
-2.5291 -2.3728 2.8490
-2.4918 -2.3909 2.8489
-5.6786 3.8073 2.7103
-5.6735 3.7303 2.7103
-5.6676 3.6539 2.7103
-5.6610 3.5780 2.7103
-5.6539 3.5026 2.7103
-5.6461 3.4277 2.7103
-5.6377 3.3534 2.7103
-5.6286 3.2797 2.7103
-5.6190 3.2065 2.7103
-5.6088 3.1339 2.7103
-5.5980 3.0619 2.7103
-5.5867 2.9903 2.7103
-5.5748 2.9194 2.7103
-5.5623 2.8490 2.7103
-5.5494 2.7792 2.7103
-5.5359 2.7100 2.7103
-5.5652 2.6620 2.7316
-5.6073 2.6199 2.7595
-5.6496 2.5774 2.7879
-5.6922 2.5345 2.8168
-5.7351 2.4914 2.8462
-5.7509 2.4362 2.8627
-5.7329 2.3672 2.8625
-5.7144 2.2988 2.8624
-5.6955 2.2310 2.8622
-5.6761 2.1638 2.8621
-5.6564 2.0973 2.8619
-5.6362 2.0313 2.8618
-5.6156 1.9659 2.8616
-5.5946 1.9012 2.8615
-5.5732 1.8370 2.8613
-5.5515 1.7735 2.8612
-5.5294 1.7106 2.8610
-5.5069 1.6482 2.8609
-5.4841 1.5865 2.8607
-5.4610 1.5253 2.8606
-5.4375 1.4647 2.8605
-5.4137 1.4048 2.8603
-5.3896 1.3454 2.8602
-5.3651 1.2866 2.8600
-5.3404 1.2284 2.8599
-5.3154 1.1707 2.8597
-5.2901 1.1137 2.8596
-5.2386 1.0013 2.8593
-5.2645 1.0572 2.8595
-5.2125 0.9459 2.8592
-5.1327 0.7832 2.8588
-5.1056 0.7301 2.8586
-5.1862 0.8911 2.8590
-5.0782 0.6776 2.8585
-5.1596 0.8369 2.8589
-5.0229 0.5741 2.8582
-5.0507 0.6255 2.8584
-4.9097 0.3736 2.8577
-4.9949 0.5232 2.8581
-4.6746 -0.0022 2.8567
-4.8810 0.3248 2.8576
-4.7935 0.1816 2.8572
-4.9667 0.4728 2.8580
-4.6445 -0.0469 2.8565
-4.8520 0.2765 2.8574
-4.7640 0.1349 2.8570
-4.9383 0.4229 2.8578
-4.6142 -0.0911 2.8564
-4.8229 0.2288 2.8573
-4.5838 -0.1348 2.8563
-4.5532 -0.1781 2.8562
-4.7344 0.0887 2.8569
-4.4297 -0.3461 2.8557
-4.3043 -0.5066 2.8552
-4.5226 -0.2208 2.8560
-4.3985 -0.3869 2.8555
-4.7046 0.0430 2.8568
-4.2727 -0.5456 2.8551
-4.4917 -0.2630 2.8559
-4.3672 -0.4273 2.8554
-4.2409 -0.5841 2.8549
-4.1772 -0.6598 2.8547
-4.4608 -0.3048 2.8558
-4.3358 -0.4672 2.8553
-4.2091 -0.6222 2.8548
-4.0486 -0.8059 2.8542
-3.9187 -0.9451 2.8538
-4.1452 -0.6970 2.8546
-3.7877 -1.0777 2.8533
-4.0163 -0.8414 2.8541
-3.8861 -0.9789 2.8537
-3.7548 -1.1098 2.8532
-4.1131 -0.7337 2.8545
-3.9838 -0.8764 2.8540
-3.6557 -1.2038 2.8529
-3.8534 -1.0122 2.8536
-3.7218 -1.1415 2.8531
-3.9513 -0.9110 2.8539
-4.0809 -0.7700 2.8543
-3.8206 -1.0452 2.8534
-3.6226 -1.2343 2.8528
-3.6888 -1.1729 2.8530
-3.5229 -1.3236 2.8525
-3.2551 -1.5452 2.8517
-3.3893 -1.4374 2.8521
-3.1204 -1.6474 2.8513
-3.4896 -1.3526 2.8524
-3.5894 -1.2645 2.8527
-3.2215 -1.5713 2.8516
-3.0867 -1.6720 2.8512
-3.4562 -1.3812 2.8523
-3.3558 -1.4649 2.8520
-3.1879 -1.5970 2.8515
-3.0529 -1.6963 2.8511
-3.5562 -1.2942 2.8526
-3.4228 -1.4095 2.8522
-3.1542 -1.6224 2.8514
-3.0191 -1.7203 2.8510
-3.3223 -1.4920 2.8519
-2.8498 -1.8352 2.8505
-2.9853 -1.7439 2.8509
-2.7140 -1.9211 2.8501
-2.5779 -2.0020 2.8498
-2.8159 -1.8571 2.8504
-3.2887 -1.5188 2.8518
-2.6800 -1.9418 2.8500
-2.5439 -2.0214 2.8497
-2.9514 -1.7672 2.8508
-2.7819 -1.8788 2.8503
-2.6460 -1.9622 2.8499
-2.5098 -2.0405 2.8496
-2.7480 -1.9001 2.8502
-2.9176 -1.7902 2.8507
-2.6119 -1.9822 2.8498
-2.4757 -2.0593 2.8495
-2.8837 -1.8129 2.8506
-2.4417 -2.0779 2.8494
-2.4076 -2.0961 2.8493
-2.3735 -2.1140 2.8492
-2.3394 -2.1316 2.8491
-2.3053 -2.1489 2.8491
