ply
format ascii 1.0
element vertex 1948
property float32 x
property float32 y
property float32 z
end_header
7.5744 -4.2321 -0.3229
7.9247 -5.2670 -0.1685
7.6320 -4.6586 -0.2445
7.5667 -4.1328 -0.3424
7.8439 -5.1049 -0.1881
7.5982 -4.5381 -0.2637
7.5591 -4.0348 -0.3619
7.7711 -4.9515 -0.2073
7.5902 -4.4347 -0.2835
7.7005 -4.8028 -0.2261
7.5516 -3.9379 -0.3812
7.5822 -4.3328 -0.3033
7.5475 -3.8440 -0.4007
7.5908 -3.5055 -0.4817
7.6331 -3.1754 -0.5631
7.5585 -3.7585 -0.4209
7.6015 -3.4223 -0.5020
7.5693 -3.6736 -0.4412
7.5801 -3.5893 -0.4614
7.7058 -2.8640 -0.6477
7.7267 -2.7876 -0.6694
7.7475 -2.7114 -0.6911
7.7683 -2.6353 -0.7130
7.6435 -3.0940 -0.5835
7.6121 -3.3395 -0.5223
7.7890 -2.5593 -0.7350
7.8098 -2.4834 -0.7571
7.8305 -2.4075 -0.7794
7.8527 -2.3321 -0.8019
7.8838 -2.2593 -0.8255
7.9150 -2.1863 -0.8494
7.9463 -2.1131 -0.8734
7.6640 -3.0170 -0.6048
7.9777 -2.0396 -0.8977
7.6226 -3.2572 -0.5427
8.0092 -1.9660 -0.9222
8.0407 -1.8921 -0.9469
8.0724 -1.8180 -0.9719
8.1042 -1.7436 -0.9971
8.3547 -1.3816 -1.1392
7.6849 -2.9404 -0.6262
8.4097 -1.3078 -1.1694
8.1399 -1.6697 -1.0230
8.4653 -1.2332 -1.2000
8.5215 -1.1578 -1.2312
8.9476 -0.7797 -1.4161
9.0412 -0.7001 -1.4562
9.1536 -0.6201 -1.5001
8.5917 -1.0833 -1.2648
9.2688 -0.5382 -1.5453
8.1929 -1.5987 -1.0514
9.3869 -0.4542 -1.5917
9.5079 -0.3681 -1.6395
9.6227 -0.2795 -1.6870
8.6783 -1.0095 -1.3013
9.7334 -0.1887 -1.7347
8.2463 -1.5270 -1.0802
9.8353 -0.0956 -1.7816
9.9394 -0.0005 -1.8297
10.0457 0.0967 -1.8790
10.1545 0.1961 -1.9296
10.2657 0.2977 -1.9816
8.7664 -0.9343 -1.3387
10.3795 0.4018 -2.0350
8.3002 -1.4547 -1.1095
10.4960 0.5083 -2.0899
10.6153 0.6173 -2.1462
11.2594 1.2060 -2.4538
11.3987 1.3333 -2.5210
8.8561 -0.8577 -1.3770
11.5577 1.4663 -2.5938
10.7376 0.7291 -2.2042
11.7060 1.6013 -2.6656
12.5182 2.3407 -3.0623
12.6966 2.5031 -3.1502
12.8810 2.6711 -3.2414
11.8587 1.7403 -2.7397
13.0719 2.8448 -3.3359
10.8631 0.8437 -2.2639
13.2695 3.0247 -3.4341
13.4743 3.2112 -3.5361
13.6867 3.4045 -3.6421
13.8966 3.6025 -3.7497
12.0160 1.8836 -2.8163
14.1248 3.8108 -3.8644
10.9917 0.9613 -2.3253
14.3621 4.0274 -3.9840
14.6092 4.2528 -4.1088
14.8667 4.4878 -4.2391
15.1353 4.7329 -4.3754
12.1782 2.0312 -2.8955
15.4159 4.9890 -4.5181
11.1238 1.0820 -2.3886
15.7093 5.2567 -4.6676
16.0207 5.5385 -4.8257
17.8101 7.1688 -5.7441
18.2459 7.5570 -5.9656
12.3455 2.1835 -2.9775
18.6856 7.9592 -6.1935
16.3436 5.8327 -4.9907
16.6827 6.1416 -5.1644
17.0391 6.4663 -5.3473
17.4143 6.8082 -5.5403
7.8324 -5.0807 0.2566
7.7594 -4.9269 0.2306
7.6886 -4.7779 0.2052
7.6200 -4.6334 0.1804
7.5967 -4.5188 0.1572
7.5886 -4.4150 0.1345
7.5807 -4.3126 0.1120
7.5728 -4.2115 0.0898
7.5651 -4.1117 0.0676
7.5574 -4.0133 0.0457
7.5499 -3.9161 0.0239
7.5501 -3.8240 0.0023
7.5611 -3.7381 -0.0192
7.5720 -3.6528 -0.0407
7.5828 -3.5681 -0.0622
7.5936 -3.4839 -0.0837
7.6043 -3.4003 -0.1051
7.6149 -3.3172 -0.1265
7.6255 -3.2346 -0.1479
7.6360 -3.1524 -0.1692
7.6490 -3.0718 -0.1907
7.7330 -2.7642 -0.2777
7.6701 -2.9946 -0.2123
7.7540 -2.6877 -0.2996
7.6911 -2.9177 -0.2340
7.7748 -2.6112 -0.3216
7.7121 -2.8409 -0.2558
7.7957 -2.5349 -0.3437
7.8165 -2.4586 -0.3659
7.9257 -2.1612 -0.4571
7.8373 -2.3825 -0.3882
7.9571 -2.0877 -0.4805
7.8631 -2.3078 -0.4108
7.9887 -2.0139 -0.5041
7.8943 -2.2346 -0.4339
8.0203 -1.9400 -0.5278
8.0520 -1.8657 -0.5518
8.2125 -1.5724 -0.6521
8.0838 -1.7913 -0.5759
8.2662 -1.5003 -0.6789
8.1158 -1.7165 -0.6002
8.3205 -1.4275 -0.7061
8.1592 -1.6438 -0.6256
8.3753 -1.3540 -0.7337
8.4306 -1.2797 -0.7617
8.7121 -0.9806 -0.8832
8.4866 -1.2046 -0.7900
8.8009 -0.9048 -0.9167
8.5431 -1.1288 -0.8188
8.8915 -0.8275 -0.9509
8.6248 -1.0551 -0.8505
8.9838 -0.7488 -0.9859
9.0848 -0.6690 -1.0225
9.5533 -0.3334 -1.1835
9.1985 -0.5882 -1.0612
9.6686 -0.2440 -1.2254
9.3149 -0.5054 -1.1009
9.7740 -0.1522 -1.2669
9.4342 -0.4206 -1.1418
9.9817 0.0377 -1.3517
9.8767 -0.0582 -1.3088
10.0890 0.1357 -1.3957
10.4257 0.4434 -1.5346
10.1987 0.2360 -1.4408
10.3109 0.3385 -1.4871
10.5432 0.5509 -1.5834
10.9136 0.8893 -1.7380
10.6636 0.6609 -1.6335
11.0434 1.0080 -1.7925
11.1766 1.1297 -1.8486
10.7870 0.7737 -1.6850
11.3135 1.2548 -1.9064
11.4541 1.3833 -1.9659
12.0756 1.9384 -2.2265
12.2393 2.0874 -2.2965
11.6132 1.5174 -2.0298
12.4081 2.2411 -2.3689
11.7629 1.6537 -2.0933
12.5824 2.3998 -2.4437
11.9169 1.7939 -2.1588
12.7624 2.5637 -2.5213
13.5473 3.2783 -2.8612
12.9486 2.7332 -2.6016
13.1412 2.9086 -2.6850
13.7520 3.4711 -2.9526
13.3406 3.0901 -2.7714
13.9737 3.6734 -3.0495
14.4437 4.1023 -3.2555
14.2041 3.8836 -3.1504
14.6931 4.3299 -3.3652
14.9531 4.5671 -3.4797
15.5076 5.0732 -3.7247
15.2243 4.8146 -3.5994
16.7864 6.2370 -4.2916
15.8038 5.3435 -3.8559
17.1463 6.5649 -4.4519
16.1180 5.6280 -3.9945
17.5253 6.9102 -4.6210
17.9250 7.2744 -4.7996
16.4441 5.9250 -4.1393
18.3613 7.6650 -4.9924
20.3069 9.4446 -5.8688
18.8052 8.0710 -5.1919
19.2756 8.5014 -5.4037
20.8528 9.9532 -6.1188
19.7752 8.9583 -5.6288
7.7486 -4.9043 0.6675
7.6777 -4.7549 0.6354
7.6089 -4.6100 0.6042
7.5953 -4.5009 0.5779
7.5872 -4.3965 0.5523
7.5792 -4.2936 0.5270
7.5713 -4.1921 0.5019
7.5635 -4.0920 0.4771
7.5558 -3.9931 0.4526
7.5483 -3.8955 0.4283
7.5525 -3.8050 0.4049
7.5635 -3.7187 0.3819
7.5745 -3.6331 0.3590
7.5854 -3.5480 0.3362
7.5962 -3.4635 0.3135
7.6069 -3.3795 0.2909
7.6176 -3.2960 0.2684
7.6282 -3.2131 0.2459
7.6388 -3.1306 0.2234
7.6548 -3.0507 0.2012
7.6759 -2.9732 0.1791
7.6971 -2.8959 0.1570
7.7181 -2.8188 0.1349
7.7392 -2.7418 0.1127
7.7602 -2.6649 0.0905
7.7811 -2.5882 0.0683
7.8021 -2.5115 0.0460
7.8230 -2.4350 0.0237
7.8439 -2.3585 0.0013
7.8730 -2.2845 -0.0211
7.9045 -2.2109 -0.0437
7.9360 -2.1372 -0.0664
7.9675 -2.0634 -0.0892
7.9992 -1.9893 -0.1122
8.0310 -1.9150 -0.1352
8.0628 -1.8404 -0.1585
8.0948 -1.7656 -0.1819
8.1269 -1.6906 -0.2054
8.1778 -1.6189 -0.2296
8.2854 -1.4745 -0.2791
8.3400 -1.4013 -0.3043
8.3951 -1.3273 -0.3298
8.4508 -1.2526 -0.3556
8.5071 -1.1771 -0.3818
8.5702 -1.1016 -0.4086
8.6567 -1.0279 -0.4370
8.7447 -0.9528 -0.4660
8.8343 -0.8763 -0.4956
8.9256 -0.7984 -0.5258
9.0187 -0.7190 -0.5567
9.1271 -0.6390 -0.5891
9.2418 -0.5574 -0.6227
9.3594 -0.4737 -0.6571
9.4799 -0.3880 -0.6924
9.5964 -0.2999 -0.7283
9.7116 -0.2096 -0.7647
9.8131 -0.1169 -0.8008
9.9167 -0.0222 -0.8377
10.0225 0.0745 -0.8755
10.1307 0.1734 -0.9142
10.2413 0.2744 -0.9538
10.3544 0.3778 -0.9945
10.4702 0.4836 -1.0362
10.5887 0.5919 -1.0790
10.7102 0.7029 -1.1229
10.8346 0.8166 -1.1680
10.9622 0.9332 -1.2144
11.0931 1.0529 -1.2621
11.2275 1.1757 -1.3111
8.2313 -1.5471 -0.2542
11.3655 1.3018 -1.3615
11.5074 1.4314 -1.4135
11.6666 1.5666 -1.4686
12.2979 2.1414 -1.7007
12.4682 2.2964 -1.7636
11.8175 1.7040 -1.5240
12.6439 2.4565 -1.8286
11.9728 1.8454 -1.5810
12.8255 2.6218 -1.8959
13.0133 2.7928 -1.9656
12.1329 1.9912 -1.6399
13.2076 2.9696 -2.0378
13.8239 3.5371 -2.2696
13.4088 3.1528 -2.1127
13.6173 3.3427 -2.1904
14.0475 3.7412 -2.3534
14.7733 4.4035 -2.6262
14.2799 3.9533 -2.4407
15.0355 4.6429 -2.7251
14.5216 4.1739 -2.5315
15.3091 4.8926 -2.8284
15.5949 5.1534 -2.9364
15.8938 5.4262 -3.0495
17.2481 6.6585 -3.5625
17.6305 7.0070 -3.7079
18.0338 7.3745 -3.8615
18.4704 7.7671 -4.0261
18.9181 8.1767 -4.1975
19.3926 8.6108 -4.3793
19.8965 9.0718 -4.5726
20.4142 9.5537 -4.7742
20.9898 10.0785 -4.9947
21.6053 10.6396 -5.2308
22.2653 11.2413 -5.4842
23.0070 11.9048 -5.7649
23.7700 12.6016 -6.0587
16.2106 5.7131 -3.1688
16.5396 6.0129 -3.2935
16.8850 6.3276 -3.4245
7.6673 -4.7329 1.0668
7.6022 -4.5900 1.0294
7.5940 -4.4836 1.0004
7.5858 -4.3788 0.9717
7.5778 -4.2754 0.9434
7.5699 -4.1735 0.9155
7.5620 -4.0729 0.8879
7.5543 -3.9736 0.8606
7.5467 -3.8756 0.8337
7.5548 -3.7867 0.8087
7.5659 -3.7000 0.7843
7.5769 -3.6140 0.7599
7.5879 -3.5285 0.7358
7.5987 -3.4436 0.7117
7.6095 -3.3593 0.6878
7.6203 -3.2754 0.6640
7.6309 -3.1921 0.6403
7.6415 -3.1093 0.6167
7.6604 -3.0303 0.5938
7.6816 -2.9524 0.5712
7.7028 -2.8748 0.5486
7.7240 -2.7973 0.5261
7.7451 -2.7200 0.5035
7.7662 -2.6428 0.4810
7.7873 -2.5657 0.4585
7.8083 -2.4888 0.4359
7.8293 -2.4119 0.4134
7.8513 -2.3354 0.3909
7.8828 -2.2617 0.3688
7.9143 -2.1878 0.3467
7.9460 -2.1138 0.3245
7.9777 -2.0396 0.3022
8.0095 -1.9652 0.2798
8.0414 -1.8906 0.2573
8.0734 -1.8157 0.2347
8.1055 -1.7406 0.2120
8.1425 -1.6662 0.1893
8.1959 -1.5946 0.1668
8.2498 -1.5223 0.1440
8.3042 -1.4493 0.1210
8.3591 -1.3757 0.0978
8.4145 -1.3013 0.0742
8.4705 -1.2262 0.0505
8.5271 -1.1502 0.0264
8.6008 -1.0756 0.0021
8.6879 -1.0012 -0.0227
8.7767 -0.9255 -0.0480
8.8670 -0.8484 -0.0737
8.9591 -0.7699 -0.1000
9.0553 -0.6900 -0.1268
9.1685 -0.6095 -0.1545
9.2844 -0.5271 -0.1829
9.4031 -0.4427 -0.2120
9.5241 -0.3561 -0.2418
9.6388 -0.2671 -0.2722
9.7491 -0.1758 -0.3031
9.8514 -0.0824 -0.3344
9.9558 0.0130 -0.3664
10.0625 0.1105 -0.3991
10.1716 0.2102 -0.4326
10.2830 0.3121 -0.4668
10.3971 0.4163 -0.5019
10.5138 0.5229 -0.5379
10.6333 0.6321 -0.5747
10.7557 0.7440 -0.6125
10.8811 0.8586 -0.6513
11.0098 0.9762 -0.6911
11.1418 1.0968 -0.7320
11.2773 1.2206 -0.7740
11.4164 1.3478 -0.8172
11.5708 1.4799 -0.8624
11.7186 1.6145 -0.9082
11.8708 1.7530 -0.9554
12.0274 1.8957 -1.0041
12.1887 2.0426 -1.0542
12.3551 2.1941 -1.1060
12.5268 2.3504 -1.1594
12.7040 2.5117 -1.2146
12.8870 2.6784 -1.2717
13.0764 2.8508 -1.3308
13.2722 3.0292 -1.3920
13.4751 3.2139 -1.4554
13.6853 3.4053 -1.5212
13.8938 3.6013 -1.5884
14.1193 3.8071 -1.6592
14.3536 4.0210 -1.7329
14.5973 4.2435 -1.8095
14.8511 4.4751 -1.8894
15.1156 4.7164 -1.9727
15.3915 4.9682 -2.0597
15.6797 5.2313 -2.1506
15.9839 5.5073 -2.2461
16.3003 5.7956 -2.3459
16.6320 6.0980 -2.4506
16.9804 6.4154 -2.5605
17.3465 6.7491 -2.6763
17.7322 7.1005 -2.7982
18.1389 7.4711 -2.9268
18.5755 7.8656 -3.0640
19.0268 8.2785 -3.2074
19.5051 8.7162 -3.3595
20.0130 9.1809 -3.5211
20.5408 9.6695 -3.6909
21.1213 10.1988 -3.8752
21.7422 10.7648 -4.0724
22.4078 11.3717 -4.2839
23.1490 12.0374 -4.5164
23.9180 12.7398 -4.7613
24.7495 13.4993 -5.0263
25.6374 14.3155 -5.3110
26.6199 15.2127 -5.6243
27.6789 16.1849 -5.9637
7.6010 -4.5735 1.4589
7.5927 -4.4666 1.4266
7.5845 -4.3613 1.3947
7.5764 -4.2574 1.3633
7.5684 -4.1550 1.3323
7.5606 -4.0540 1.3018
7.5528 -3.9543 1.2717
7.5459 -3.8563 1.2421
7.5572 -3.7686 1.2158
7.5683 -3.6815 1.1897
7.5794 -3.5950 1.1638
7.5904 -3.5091 1.1381
7.6013 -3.4239 1.1126
7.6121 -3.3392 1.0873
7.6229 -3.2550 1.0621
7.6336 -3.1714 1.0371
7.6445 -3.0884 1.0123
7.6659 -3.0099 0.9890
7.6873 -2.9317 0.9658
7.7086 -2.8538 0.9427
7.7298 -2.7759 0.9196
7.7511 -2.6983 0.8966
7.7722 -2.6208 0.8736
7.7934 -2.5434 0.8507
7.8145 -2.4661 0.8278
7.8356 -2.3890 0.8050
7.8608 -2.3131 0.7826
7.8924 -2.2391 0.7608
7.9241 -2.1649 0.7390
7.9559 -2.0905 0.7172
7.9878 -2.0160 0.6953
8.0197 -1.9413 0.6734
8.0518 -1.8663 0.6514
8.0839 -1.7911 0.6294
8.1162 -1.7157 0.6073
8.1603 -1.6424 0.5860
8.2140 -1.5703 0.5652
8.2682 -1.4976 0.5442
8.3228 -1.4243 0.5230
8.3781 -1.3502 0.5016
8.4338 -1.2754 0.4801
8.4901 -1.1998 0.4583
8.5471 -1.1235 0.4363
8.6313 -1.0496 0.4154
8.7191 -0.9746 0.3942
8.8085 -0.8983 0.3727
8.8996 -0.8206 0.3507
8.9924 -0.7414 0.3284
9.0956 -0.6614 0.3059
9.2098 -0.5801 0.2832
9.3268 -0.4969 0.2600
9.4467 -0.4117 0.2363
9.5652 -0.3241 0.2118
9.6810 -0.2343 0.1867
9.7865 -0.1422 0.1607
9.8896 -0.0480 0.1342
9.9948 0.0481 0.1070
10.1023 0.1464 0.0794
10.2122 0.2468 0.0511
10.3246 0.3495 0.0222
10.4395 0.4545 -0.0074
10.5571 0.5620 -0.0376
10.6776 0.6720 -0.0686
10.8010 0.7848 -0.1003
10.9274 0.9003 -0.1327
11.0571 1.0188 -0.1660
11.1902 1.1404 -0.2001
11.3267 1.2652 -0.2351
11.4670 1.3934 -0.2711
11.6214 1.5265 -0.3083
11.7703 1.6622 -0.3463
11.9237 1.8018 -0.3854
12.0815 1.9455 -0.4257
12.2442 2.0936 -0.4671
12.4119 2.2463 -0.5099
12.5849 2.4039 -0.5539
12.7635 2.5665 -0.5994
12.9480 2.7346 -0.6464
13.1389 2.9083 -0.6949
13.3363 3.0881 -0.7451
13.5408 3.2743 -0.7971
13.7440 3.4651 -0.8505
13.9630 3.6650 -0.9062
14.1904 3.8725 -0.9641
14.4266 4.0881 -1.0243
14.6723 4.3123 -1.0868
14.9281 4.5458 -1.1519
15.1947 4.7892 -1.2197
15.4729 5.0430 -1.2904
15.7635 5.3082 -1.3643
16.0699 5.5865 -1.4417
16.3889 5.8772 -1.5226
16.7233 6.1820 -1.6074
17.0745 6.5020 -1.6965
17.4437 6.8384 -1.7900
17.8324 7.1927 -1.8885
18.2491 7.5692 -1.9931
18.6790 7.9626 -2.1025
19.1338 8.3788 -2.2182
19.6157 8.8199 -2.3407
20.1276 9.2883 -2.4708
20.6654 9.7835 -2.6084
21.2507 10.3171 -2.7566
21.8767 10.8878 -2.9150
22.5478 11.4997 -3.0848
23.2882 12.1674 -3.2700
24.0629 12.8752 -3.4664
24.8905 13.6349 -3.6772
25.7995 14.4652 -3.9075
26.7895 15.3695 -4.1582
27.8612 16.3518 -4.4307
29.0521 17.4387 -4.7320
30.3818 18.6477 -5.0671
31.7601 19.9288 -5.4224
33.3765 21.4062 -5.8319
7.5913 -4.4492 1.8584
7.5831 -4.3434 1.8232
7.5750 -4.2391 1.7885
7.5670 -4.1362 1.7543
7.5591 -4.0348 1.7207
7.5513 -3.9347 1.6876
7.5482 -3.8383 1.6560
7.5595 -3.7501 1.6279
7.5707 -3.6626 1.6000
7.5818 -3.5757 1.5724
7.5929 -3.4895 1.5451
7.6038 -3.4038 1.5180
7.6147 -3.3188 1.4912
7.6255 -3.2343 1.4645
7.6363 -3.1503 1.4381
7.6500 -3.0681 1.4125
7.6716 -2.9893 1.3885
7.6930 -2.9108 1.3646
7.7144 -2.8324 1.3408
7.7358 -2.7543 1.3171
7.7571 -2.6763 1.2935
7.7783 -2.5985 1.2700
7.7995 -2.5208 1.2467
7.8207 -2.4432 1.2234
7.8419 -2.3658 1.2001
7.8704 -2.2905 1.1781
7.9022 -2.2162 1.1566
7.9341 -2.1416 1.1350
7.9660 -2.0669 1.1135
7.9980 -1.9921 1.0920
8.0301 -1.9170 1.0705
8.0623 -1.8417 1.0490
8.0945 -1.7663 1.0274
8.1269 -1.6905 1.0059
8.1783 -1.6183 0.9866
8.2323 -1.5458 0.9674
8.2868 -1.4727 0.9481
8.3418 -1.3989 0.9287
8.3973 -1.3244 0.9092
8.4534 -1.2492 0.8895
8.5100 -1.1732 0.8697
8.5752 -1.0974 0.8505
8.6621 -1.0232 0.8332
8.7507 -0.9477 0.8156
8.8409 -0.8708 0.7977
8.9327 -0.7924 0.7796
9.0262 -0.7126 0.7612
9.1365 -0.6323 0.7437
9.2518 -0.5503 0.7260
9.3699 -0.4663 0.7080
9.4909 -0.3802 0.6896
9.6070 -0.2918 0.6702
9.7225 -0.2011 0.6502
9.8243 -0.1082 0.6288
9.9281 -0.0133 0.6069
10.0342 0.0837 0.5847
10.1426 0.1827 0.5620
10.2533 0.2839 0.5389
10.3666 0.3873 0.5154
10.4824 0.4932 0.4913
10.6010 0.6015 0.4668
10.7224 0.7124 0.4417
10.8468 0.8261 0.4161
10.5256 0.9040 0.3740
10.4756 1.0018 0.3426
10.3929 1.0954 0.3105
11.3767 1.3103 0.3078
10.9547 1.3691 0.2654
11.1469 1.5027 0.2385
11.2954 1.6340 0.2097
11.3984 1.7616 0.1794
12.1362 1.9959 0.1566
11.7902 2.0563 0.1187
9.4971 1.7511 0.0686
9.4166 1.8306 0.0413
12.8236 2.6219 0.0197
13.0096 2.7913 -0.0172
13.2020 2.9664 -0.0552
13.4010 3.1477 -0.0945
13.6071 3.3354 -0.1350
13.8121 3.5277 -0.1769
14.0329 3.7292 -0.2203
14.2621 3.9384 -0.2653
14.5002 4.1557 -0.3119
14.7479 4.3818 -0.3603
15.0058 4.6172 -0.4106
15.2746 4.8625 -0.4630
15.5550 5.1185 -0.5175
15.8479 5.3859 -0.5743
16.1567 5.6663 -0.6337
16.4782 5.9594 -0.6958
16.8154 6.2667 -0.7607
17.1694 6.5893 -0.8288
17.5416 6.9286 -0.9003
17.9335 7.2858 -0.9754
18.3501 7.6638 -1.0547
18.7833 8.0604 -1.1379
19.2416 8.4799 -1.2259
19.7273 8.9244 -1.3190
20.2431 9.3965 -1.4176
20.7911 9.8984 -1.5225
21.3812 10.4365 -1.6345
22.0123 11.0119 -1.7542
22.7042 11.6366 -1.8837
23.4285 12.2984 -2.0211
24.2091 13.0116 -2.1690
25.0469 13.7794 -2.3282
25.9630 14.6163 -2.5013
26.9607 15.5276 -2.6897
28.0451 16.5202 -2.8949
29.2456 17.6159 -3.1209
30.5853 18.8342 -3.3717
31.9880 20.1337 -3.6404
33.6186 21.6240 -3.9472
35.4915 23.3250 -4.2965
37.6098 25.2502 -4.6916
39.9433 27.3909 -5.1318
7.5816 -4.3246 2.2590
7.5735 -4.2198 2.2209
7.5654 -4.1165 2.1834
7.5575 -4.0146 2.1465
7.5497 -3.9142 2.1102
7.5507 -3.8194 2.0769
7.5620 -3.7308 2.0468
7.5733 -3.6429 2.0171
7.5844 -3.5556 1.9877
7.5955 -3.4690 1.9586
7.6065 -3.3830 1.9298
7.6174 -3.2976 1.9014
7.6283 -3.2127 1.8731
7.6391 -3.1284 1.8452
7.6558 -3.0470 1.8190
7.6774 -2.9679 1.7941
7.6990 -2.8890 1.7694
7.7204 -2.8103 1.7449
7.7419 -2.7319 1.7205
7.7633 -2.6536 1.6963
7.7846 -2.5754 1.6722
7.8059 -2.4974 1.6482
7.8272 -2.4195 1.6244
7.8485 -2.3418 1.6007
7.8804 -2.2672 1.5793
7.9123 -2.1925 1.5579
7.9443 -2.1176 1.5366
7.9764 -2.0426 1.5153
8.0086 -1.9674 1.4941
8.0408 -1.8920 1.4729
8.0731 -1.8165 1.4517
8.1055 -1.7406 1.4306
8.1430 -1.6656 1.4104
8.1968 -1.5934 1.3929
8.2511 -1.5205 1.3754
8.3059 -1.4470 1.3578
8.3613 -1.3728 1.3401
8.4171 -1.2978 1.3224
8.4735 -1.2222 1.3045
8.5305 -1.1458 1.2866
8.6063 -1.0708 1.2714
8.6940 -0.9960 1.2575
8.7833 -0.9199 1.2435
8.8742 -0.8423 1.2293
8.9667 -0.7634 1.2150
9.0649 -0.6832 1.2010
9.1787 -0.6023 1.1886
9.2951 -0.5195 1.1760
9.4143 -0.4347 1.1632
9.5349 -0.3477 1.1500
9.6500 -0.2584 1.1356
9.7606 -0.1668 1.1201
9.8632 -0.0731 1.1033
9.9679 0.0225 1.0861
10.0748 0.1202 1.0688
10.1840 0.2200 1.0511
10.2956 0.3220 1.0332
10.4098 0.4263 1.0150
10.5266 0.5330 0.9965
10.6461 0.6422 0.9777
10.7685 0.7540 0.9586
10.8938 0.8685 0.9391
10.4949 0.9388 0.8753
10.4056 1.0321 0.8387
10.3829 1.1312 0.8078
10.3017 1.2230 0.7728
10.2215 1.3136 0.7383
10.1424 1.4030 0.7045
10.0644 1.4913 0.6711
9.9309 1.5695 0.6347
9.8547 1.6551 0.6026
9.7819 1.7400 0.5711
12.0386 2.2614 0.6695
9.6387 1.9070 0.5094
12.3953 2.5769 0.6209
12.5828 2.7427 0.5955
12.7770 2.9144 0.5694
12.9996 3.0974 0.5435
13.6753 3.3982 0.5339
13.8822 3.5921 0.5036
14.1047 3.7952 0.4726
12.6200 3.5267 0.3878
12.5563 3.6399 0.3510
12.4355 3.7354 0.3131
11.5483 3.5908 0.2585
11.7662 3.7835 0.2306
11.9940 3.9850 0.2015
12.1652 4.1727 0.1702
16.2460 5.7485 0.1816
16.5703 6.0441 0.1385
16.9103 6.3540 0.0935
17.2672 6.6793 0.0464
17.6426 7.0214 -0.0029
18.0378 7.3817 -0.0546
18.4543 7.7615 -0.1088
18.8910 8.1612 -0.1659
19.3530 8.5842 -0.2261
19.8426 9.0323 -0.2896
20.3624 9.5083 -0.3568
20.9209 10.0172 -0.4281
21.5161 10.5599 -0.5040
22.1527 11.1403 -0.5849
22.8440 11.7670 -0.6715
23.5740 12.4342 -0.7640
24.3608 13.1532 -0.8634
25.2093 13.9294 -0.9705
26.1330 14.7732 -1.0864
27.1345 15.6896 -1.2122
28.2367 16.6956 -1.3496
29.4526 17.8038 -1.5004
30.7979 19.0290 -1.6666
32.2263 20.3481 -1.8471
33.8872 21.8618 -2.0517
35.7636 23.5695 -2.2819
37.8895 25.5044 -2.5421
40.2529 27.6702 -2.8343
7.5719 -4.1991 2.6625
7.5638 -4.0954 2.6215
7.5558 -3.9931 2.5812
7.5480 -3.8922 2.5415
7.5532 -3.7992 2.5069
7.5646 -3.7102 2.4747
7.5759 -3.6219 2.4430
7.5872 -3.5342 2.4116
7.5983 -3.4472 2.3807
7.6093 -3.3608 2.3500
7.6203 -3.2751 2.3198
7.6312 -3.1899 2.2899
7.6420 -3.1053 2.2603
7.6619 -3.0247 2.2337
7.6836 -2.9453 2.2079
7.7052 -2.8660 2.1823
7.7268 -2.7870 2.1569
7.7484 -2.7082 2.1317
7.7698 -2.6296 2.1067
7.7913 -2.5511 2.0819
7.8127 -2.4728 2.0573
7.8340 -2.3946 2.0328
7.8589 -2.3176 2.0095
7.8909 -2.2427 1.9881
7.9230 -2.1676 1.9668
7.9551 -2.0924 1.9456
7.9873 -2.0171 1.9245
8.0196 -1.9415 1.9035
8.0520 -1.8658 1.8825
8.0844 -1.7899 1.8617
8.1170 -1.7138 1.8409
8.1621 -1.6399 1.8230
8.2163 -1.5673 1.8070
8.2709 -1.4940 1.7911
8.3260 -1.4200 1.7751
8.3817 -1.3454 1.7591
8.4378 -1.2700 1.7431
8.4946 -1.1939 1.7271
8.5521 -1.1171 1.7112
8.6390 -1.0429 1.7008
8.7275 -0.9675 1.6905
8.8175 -0.8907 1.6801
8.9091 -0.8125 1.6696
9.0025 -0.7329 1.6591
9.1081 -0.6525 1.6505
9.2229 -0.5708 1.6431
9.3405 -0.4872 1.6356
9.4610 -0.4015 1.6281
9.5789 -0.3136 1.6196
9.6951 -0.2234 1.6104
9.8005 -0.1309 1.5989
9.9039 -0.0365 1.5866
10.0094 0.0600 1.5743
10.1172 0.1585 1.5618
10.2273 0.2591 1.5492
10.3399 0.3619 1.5365
10.4550 0.4670 1.5237
10.5727 0.5746 1.5108
10.6932 0.6847 1.4977
10.8166 0.7974 1.4846
10.5470 0.8799 1.4180
10.5599 0.9836 1.3902
10.4044 1.0703 1.3408
10.3522 1.1659 1.3054
10.2715 1.2571 1.2669
10.1919 1.3471 1.2291
10.1134 1.4359 1.1920
10.0358 1.5236 1.1554
9.9593 1.6101 1.1195
9.8836 1.6956 1.0842
9.7531 1.7700 1.0436
9.6854 1.8541 1.0102
9.6964 1.9531 0.9853
12.4608 2.6348 1.2327
12.6500 2.8022 1.2176
12.8459 2.9754 1.2021
12.9664 3.1350 1.1788
12.9193 3.2554 1.1401
12.8243 3.3629 1.0976
12.7302 3.4693 1.0557
12.6369 3.5747 1.0144
12.5229 3.6729 0.9720
12.4061 3.7685 0.9301
15.1696 4.7677 1.0970
15.4430 5.0172 1.0759
15.7282 5.2777 1.0541
16.0274 5.5501 1.0316
16.3398 5.8348 1.0084
16.6670 6.1330 0.9844
17.0100 6.4457 0.9594
17.3701 6.7740 0.9336
17.7488 7.1192 0.9067
18.1472 7.4825 0.8786
18.5642 7.8644 0.8492
19.0047 8.2676 0.8185
19.4706 8.6942 0.7864
19.9644 9.1463 0.7527
20.4953 9.6295 0.7174
21.0583 10.1429 0.6802
21.6590 10.6906 0.6409
22.3015 11.2764 0.5992
22.9925 11.9056 0.5550
23.7289 12.5786 0.5077
24.5226 13.3041 0.4572
25.3826 14.0894 0.4031
26.3148 14.9410 0.3448
27.3297 15.8682 0.2818
28.4423 16.8838 0.2135
29.6693 18.0023 0.1391
31.0272 19.2391 0.0575
32.4833 20.5796 -0.0325
34.1629 22.1098 -0.1322
36.0488 23.8286 -0.2437
38.1558 25.7557 -0.3689
40.5875 27.9733 -0.5113
6.6492 -3.5805 2.7001
6.7412 -3.5423 2.7011
6.8337 -3.5030 2.7019
6.9270 -3.4627 2.7026
7.0213 -3.4215 2.7034
7.1167 -3.3795 2.7041
7.2127 -3.3364 2.7048
7.3099 -3.2923 2.7054
7.4081 -3.2473 2.7061
7.5074 -3.2013 2.7067
7.6077 -3.1542 2.7072
7.6466 -3.0808 2.6858
7.6684 -3.0007 2.6587
7.6903 -2.9209 2.6318
7.7120 -2.8413 2.6052
7.7337 -2.7619 2.5788
7.7553 -2.6828 2.5527
7.7769 -2.6038 2.5269
7.7984 -2.5251 2.5013
7.8199 -2.4464 2.4759
7.8413 -2.3680 2.4507
7.8699 -2.2917 2.4280
7.9021 -2.2164 2.4066
7.9344 -2.1410 2.3853
7.9666 -2.0655 2.3641
7.9990 -1.9898 2.3431
8.0314 -1.9139 2.3222
8.0639 -1.8379 2.3015
8.0965 -1.7617 2.2809
8.1292 -1.6852 2.2604
8.1825 -1.6126 2.2456
8.2370 -1.5395 2.2312
8.2920 -1.4657 2.2167
8.3474 -1.3913 2.2024
8.4034 -1.3162 2.1880
8.4599 -1.2404 2.1738
8.5170 -1.1638 2.1596
8.5862 -1.0880 2.1483
8.6739 -1.0132 2.1414
8.7631 -0.9371 2.1346
8.8539 -0.8596 2.1278
8.9463 -0.7808 2.1211
9.0406 -0.7005 2.1145
9.1540 -0.6198 2.1120
9.2701 -0.5373 2.1097
9.3889 -0.4527 2.1074
9.5106 -0.3662 2.1054
9.6258 -0.2772 2.1013
9.7406 -0.1861 2.0968
9.8428 -0.0928 2.0892
9.9471 0.0025 2.0815
10.0535 0.0998 2.0740
10.1622 0.1991 2.0665
10.2733 0.3006 2.0590
10.3869 0.4043 2.0516
10.5029 0.5103 2.0443
10.6217 0.6188 2.0370
10.7433 0.7299 2.0298
10.8677 0.8436 2.0226
10.5133 0.9180 1.9271
10.4240 1.0114 1.8817
10.4013 1.1103 1.8488
10.3201 1.2022 1.8060
10.2400 1.2927 1.7639
10.1610 1.3821 1.7226
10.0830 1.4703 1.6821
10.0060 1.5573 1.6424
9.9300 1.6433 1.6033
9.8549 1.7282 1.5649
9.7557 1.8074 1.5233
9.6579 1.8853 1.4825
9.7019 1.9907 1.4638
12.5305 2.6965 1.8578
12.7216 2.8655 1.8530
12.9194 3.0404 1.8483
13.0444 3.2020 1.8325
12.8851 3.2941 1.7770
12.7907 3.4008 1.7312
12.6973 3.5065 1.6861
12.6047 3.6112 1.6417
12.4659 3.7009 1.5920
12.4833 3.8365 1.5626
15.2590 4.8499 1.8716
15.5350 5.1018 1.8663
15.8230 5.3647 1.8612
16.1249 5.6397 1.8563
16.4402 5.9272 1.8514
16.7705 6.2282 1.8468
17.1169 6.5439 1.8423
17.4805 6.8754 1.8379
17.8629 7.2240 1.8337
18.2615 7.5894 1.8293
18.6825 7.9749 1.8252
19.1271 8.3821 1.8212
19.5975 8.8128 1.8174
20.0960 9.2693 1.8139
20.6381 9.7601 1.8118
21.2069 10.2787 1.8092
21.8138 10.8321 1.8069
22.4629 11.4240 1.8051
23.1543 12.0562 1.8032
23.8979 12.7359 1.8018
24.6994 13.4686 1.8009
25.5723 14.2644 1.8010
26.5141 15.1249 1.8012
27.5440 16.0644 1.8025
28.6688 17.0911 1.8044
29.9089 18.2216 1.8075
31.2819 19.4722 1.8119
32.7683 20.8366 1.8154
34.4700 22.3864 1.8226
36.3682 24.1189 1.8307
38.5090 26.0749 1.8405
40.9681 28.3180 1.8534
5.8657 -3.0626 2.7073
5.9498 -3.0296 2.7120
6.0159 -2.9865 2.7081
6.0919 -2.9473 2.7086
6.1686 -2.9074 2.7090
6.2455 -2.8666 2.7093
6.3228 -2.8248 2.7095
6.4007 -2.7823 2.7097
6.4793 -2.7389 2.7098
6.5583 -2.6946 2.7099
6.6377 -2.6493 2.7099
6.7179 -2.6032 2.7099
6.7987 -2.5562 2.7099
6.8802 -2.5083 2.7099
6.9624 -2.4594 2.7099
7.0454 -2.4097 2.7099
7.1291 -2.3589 2.7099
7.2136 -2.3072 2.7099
7.2989 -2.2544 2.7099
7.3849 -2.2006 2.7099
7.4718 -2.1458 2.7099
7.5596 -2.0899 2.7099
7.6481 -2.0328 2.7099
7.7376 -1.9746 2.7099
7.8280 -1.9153 2.7099
7.9193 -1.8548 2.7099
8.0115 -1.7930 2.7099
8.1047 -1.7300 2.7099
8.1502 -1.6559 2.6938
8.2046 -1.5830 2.6807
8.2594 -1.5094 2.6677
8.3147 -1.4352 2.6548
8.3705 -1.3603 2.6420
8.4269 -1.2847 2.6293
8.4837 -1.2084 2.6167
8.5412 -1.1314 2.6043
8.6231 -1.0565 2.5992
8.7116 -0.9811 2.5957
8.8016 -0.9043 2.5925
8.8932 -0.8261 2.5895
8.9865 -0.7465 2.5866
9.0891 -0.6660 2.5861
9.2037 -0.5845 2.5886
9.3211 -0.5010 2.5915
9.4412 -0.4155 2.5946
9.5605 -0.3279 2.5970
9.6763 -0.2379 2.5981
9.7853 -0.1458 2.5970
9.8884 -0.0516 2.5939
9.9936 0.0445 2.5910
10.1010 0.1426 2.5883
10.2108 0.2429 2.5859
10.3228 0.3452 2.5837
10.4374 0.4499 2.5816
10.5546 0.5569 2.5799
10.6744 0.6664 2.5783
10.7971 0.7785 2.5771
10.5613 0.8638 2.4908
10.4917 0.9597 2.4448
11.1834 1.1314 2.5748
11.3188 1.2550 2.5746
11.4577 1.3819 2.5747
11.6030 1.5125 2.5757
10.0705 1.4111 2.2083
10.0019 1.4994 2.1664
9.9743 1.5931 2.1338
9.8989 1.6784 2.0915
9.7685 1.7526 2.0383
9.7010 1.8365 1.9989
9.6286 1.9184 1.9591
11.3376 2.3718 2.2776
11.5016 2.5210 2.2812
11.6708 2.6752 2.2851
12.0074 2.8733 2.3207
12.0593 3.0078 2.3005
12.2715 3.1854 2.3104
12.4930 3.3704 2.3212
14.3470 4.0178 2.6304
14.5847 4.2347 2.6383
12.4325 3.7387 2.2187
15.0886 4.6947 2.6562
15.3561 4.9389 2.6663
15.6350 5.1935 2.6773
15.9260 5.4592 2.6892
16.2308 5.7370 2.7022
16.5114 6.0137 2.7099
16.7511 6.2823 2.7099
16.9967 6.5597 2.7099
17.2485 6.8462 2.7099
17.5067 7.1423 2.7099
17.7717 7.4485 2.7099
18.0436 7.7652 2.7099
18.3230 8.0930 2.7099
18.6101 8.4323 2.7099
18.9053 8.7839 2.7099
19.2088 9.1482 2.7099
19.5213 9.5260 2.7099
19.8432 9.9179 2.7099
20.1748 10.3248 2.7099
20.5167 10.7474 2.7099
20.8695 11.1866 2.7099
21.2337 11.6434 2.7099
21.6099 12.1187 2.7099
21.9989 12.6137 2.7099
22.4014 13.1294 2.7099
22.8180 13.6672 2.7099
23.2498 14.2285 2.7099
23.6975 14.8146 2.7099
24.5250 15.6588 2.7506
25.7257 16.7726 2.8287
26.5613 17.6804 2.8623
27.1132 18.4231 2.8623
27.6882 19.2022 2.8623
28.2880 20.0204 2.8623
28.9142 20.8803 2.8623
29.5688 21.7852 2.8623
30.2540 22.7386 2.8623
30.9720 23.7442 2.8623
31.7255 24.8063 2.8623
32.5174 25.9296 2.8623
33.3508 27.1193 2.8623
34.2292 28.3812 2.8623
35.1567 29.7218 2.8623
36.1377 31.1483 2.8623
37.1774 32.6693 2.8623
5.5209 -2.7901 2.8616
5.5870 -2.7519 2.8618
5.6534 -2.7129 2.8619
5.7201 -2.6734 2.8621
5.7873 -2.6331 2.8622
5.8187 -2.5761 2.8447
5.8367 -2.5133 2.8209
5.8545 -2.4507 2.7974
5.8723 -2.3884 2.7742
5.8899 -2.3262 2.7513
5.9074 -2.2643 2.7286
5.9382 -2.2076 2.7123
5.9993 -2.1616 2.7099
6.0660 -2.1168 2.7099
6.1332 -2.0713 2.7099
6.2008 -2.0249 2.7099
6.2689 -1.9778 2.7099
6.3374 -1.9298 2.7099
6.4063 -1.8809 2.7099
6.4757 -1.8312 2.7099
6.5456 -1.7806 2.7099
6.6159 -1.7291 2.7099
6.6868 -1.6767 2.7099
6.7581 -1.6234 2.7099
6.8299 -1.5691 2.7099
6.9022 -1.5138 2.7099
6.9750 -1.4576 2.7099
7.0484 -1.4003 2.7099
7.1223 -1.3420 2.7099
7.1967 -1.2827 2.7099
7.2717 -1.2222 2.7099
7.3472 -1.1607 2.7099
7.4234 -1.0981 2.7099
7.5001 -1.0343 2.7099
7.5774 -0.9693 2.7099
7.6553 -0.9031 2.7099
7.7338 -0.8357 2.7099
7.8129 -0.7671 2.7099
7.8927 -0.6972 2.7099
7.9732 -0.6260 2.7099
8.0543 -0.5535 2.7099
8.1361 -0.4796 2.7099
8.2185 -0.4043 2.7099
8.3017 -0.3276 2.7099
8.3855 -0.2494 2.7099
8.4701 -0.1697 2.7099
8.5555 -0.0886 2.7099
8.6416 -0.0058 2.7099
8.7284 0.0785 2.7099
8.8160 0.1645 2.7099
8.9045 0.2522 2.7099
8.9937 0.3415 2.7099
9.0838 0.4327 2.7099
9.1747 0.5256 2.7099
9.2665 0.6203 2.7099
9.3591 0.7170 2.7099
9.4526 0.8155 2.7099
9.5471 0.9161 2.7099
9.6424 1.0187 2.7099
9.7387 1.1233 2.7099
9.8360 1.2302 2.7099
9.9343 1.3392 2.7099
10.0336 1.4504 2.7099
10.1338 1.5639 2.7099
10.2352 1.6799 2.7099
10.3376 1.7982 2.7099
10.4410 1.9190 2.7099
9.6690 1.8727 2.4847
9.7135 1.9775 2.4713
10.7582 2.2972 2.7099
10.8662 2.4287 2.7099
10.9755 2.5630 2.7099
11.0860 2.7004 2.7099
11.1977 2.8406 2.7099
11.3107 2.9840 2.7099
11.4250 3.1306 2.7099
11.5406 3.2805 2.7099
11.6576 3.4337 2.7099
11.7761 3.5904 2.7099
11.8959 3.7506 2.7099
12.0172 3.9145 2.7099
12.1399 4.0823 2.7099
12.2642 4.2539 2.7099
12.3900 4.4295 2.7099
12.5175 4.6092 2.7099
12.6465 4.7933 2.7099
12.8457 5.0084 2.7245
13.1079 5.2541 2.7515
13.3829 5.5119 2.7804
13.6716 5.7828 2.8111
13.9753 6.0677 2.8438
14.2138 6.3318 2.8623
14.3632 6.5618 2.8623
14.5148 6.7977 2.8623
14.6684 7.0395 2.8623
14.8241 7.2875 2.8623
14.9821 7.5419 2.8623
15.1424 7.8029 2.8623
15.3050 8.0706 2.8623
15.4699 8.3455 2.8623
15.6373 8.6275 2.8623
15.8072 8.9172 2.8623
15.9796 9.2146 2.8623
16.1546 9.5202 2.8623
16.3324 9.8341 2.8623
16.5129 10.1566 2.8623
16.6962 10.4882 2.8623
16.8825 10.8291 2.8623
17.0717 11.1797 2.8623
17.2639 11.5403 2.8623
17.4593 11.9112 2.8623
17.6579 12.2930 2.8623
17.8599 12.6860 2.8623
18.0652 13.0907 2.8623
18.2741 13.5074 2.8623
18.4865 13.9368 2.8623
18.7026 14.3792 2.8623
18.9225 14.8353 2.8623
19.1462 15.3055 2.8623
19.3740 15.7905 2.8623
19.6059 16.2908 2.8623
19.8420 16.8072 2.8623
20.0826 17.3402 2.8623
20.3275 17.8906 2.8623
20.5771 18.4592 2.8623
20.8315 19.0467 2.8623
21.0907 19.6540 2.8623
21.3550 20.2820 2.8623
21.6245 20.9315 2.8623
21.8993 21.6036 2.8623
22.1796 22.2993 2.8623
22.4657 23.0197 2.8623
22.7575 23.7660 2.8623
23.0554 24.5393 2.8623
23.3596 25.3411 2.8623
23.6701 26.1726 2.8623
4.9623 -2.4223 2.8618
5.0189 -2.3862 2.8620
5.0758 -2.3494 2.8622
5.1327 -2.3120 2.8623
5.1896 -2.2739 2.8623
5.2468 -2.2352 2.8623
5.3041 -2.1958 2.8623
5.3617 -2.1558 2.8623
5.4195 -2.1151 2.8623
5.4776 -2.0738 2.8623
5.5359 -2.0318 2.8623
5.5944 -1.9891 2.8623
5.6531 -1.9457 2.8623
5.7121 -1.9017 2.8623
5.7714 -1.8569 2.8623
5.8308 -1.8114 2.8623
5.8906 -1.7652 2.8623
5.9506 -1.7182 2.8623
6.0108 -1.6704 2.8623
6.0713 -1.6219 2.8623
6.1242 -1.5706 2.8587
6.1554 -1.5133 2.8449
6.1867 -1.4557 2.8313
6.2180 -1.3979 2.8180
6.2495 -1.3398 2.8047
6.2810 -1.2815 2.7917
6.3166 -1.2236 2.7806
6.3538 -1.1657 2.7703
6.3911 -1.1073 2.7601
6.4286 -1.0486 2.7500
6.4664 -0.9894 2.7402
6.5082 -0.9303 2.7321
6.5527 -0.8710 2.7251
6.6017 -0.8116 2.7200
6.6511 -0.7515 2.7151
6.7009 -0.6907 2.7103
6.7618 -0.6302 2.7099
6.8240 -0.5688 2.7099
6.8864 -0.5063 2.7099
6.9492 -0.4429 2.7099
7.0122 -0.3784 2.7099
7.0756 -0.3128 2.7099
7.1392 -0.2462 2.7099
7.2032 -0.1784 2.7099
7.2675 -0.1095 2.7099
7.3321 -0.0395 2.7099
7.4038 0.0318 2.7124
7.4783 0.1043 2.7158
7.5542 0.1784 2.7194
7.6312 0.2538 2.7233
7.7122 0.3310 2.7284
7.7970 0.4098 2.7347
7.8836 0.4904 2.7413
7.9721 0.5729 2.7484
8.0626 0.6572 2.7559
8.1551 0.7435 2.7639
8.2499 0.8320 2.7723
8.3468 0.9225 2.7813
8.4460 1.0154 2.7907
8.5478 1.1106 2.8007
8.6520 1.2082 2.8112
8.7590 1.3085 2.8223
8.8688 1.4115 2.8340
8.9815 1.5173 2.8463
9.0974 1.6261 2.8593
9.1824 1.7316 2.8623
9.2581 1.8372 2.8623
9.3342 1.9447 2.8623
9.4107 2.0540 2.8623
9.4875 2.1653 2.8623
9.5647 2.2786 2.8623
9.6423 2.3939 2.8623
9.7202 2.5112 2.8623
9.7985 2.6306 2.8623
9.8772 2.7522 2.8623
9.9562 2.8760 2.8623
10.0356 3.0019 2.8623
10.1154 3.1302 2.8623
10.1955 3.2608 2.8623
10.2760 3.3938 2.8623
10.3569 3.5292 2.8623
10.4381 3.6671 2.8623
10.5196 3.8075 2.8623
10.6015 3.9505 2.8623
10.6838 4.0962 2.8623
10.7663 4.2445 2.8623
10.8492 4.3956 2.8623
10.9324 4.5496 2.8623
11.0159 4.7064 2.8623
11.0998 4.8661 2.8623
11.1839 5.0289 2.8623
11.2684 5.1947 2.8623
11.3531 5.3637 2.8623
11.4381 5.5359 2.8623
11.6946 6.0724 2.8623
11.5233 5.7113 2.8623
11.7805 6.2580 2.8623
11.6088 5.8901 2.8623
11.8667 6.4474 2.8623
12.0396 6.8370 2.8623
11.9530 6.6403 2.8623
12.1263 7.0374 2.8623
12.3871 7.6626 2.8623
12.2131 7.2418 2.8623
12.4743 7.8792 2.8623
12.3001 7.4502 2.8623
12.5614 8.1000 2.8623
12.7359 8.5548 2.8623
12.6487 8.3252 2.8623
12.8230 8.7890 2.8623
13.0841 9.5196 2.8623
12.9102 9.0278 2.8623
13.1709 9.7730 2.8623
12.9972 9.2713 2.8623
13.2575 10.0313 2.8623
13.4298 10.5635 2.8623
13.3438 10.2948 2.8623
13.5155 10.8376 2.8623
13.7703 11.6934 2.8623
13.6009 11.1172 2.8623
13.8542 11.9901 2.8623
13.6858 11.4024 2.8623
13.9375 12.2928 2.8623
14.1022 12.9165 2.8623
14.0202 12.6016 2.8623
14.1834 13.2378 2.8623
14.4215 14.2408 2.8623
14.2637 13.5655 2.8623
14.4988 14.5885 2.8623
14.3431 13.8998 2.8623
14.5750 14.9433 2.8623
14.7233 15.6740 2.8623
14.6499 15.3051 2.8623
14.7953 16.0503 2.8623
14.8658 16.4340 2.8623
14.9346 16.8253 2.8623
4.4923 -2.1129 2.8617
4.5414 -2.0787 2.8619
4.5906 -2.0441 2.8620
4.6399 -2.0089 2.8622
4.6892 -1.9731 2.8623
4.7384 -1.9367 2.8623
4.7878 -1.8998 2.8623
4.8372 -1.8622 2.8623
4.8868 -1.8241 2.8623
4.9365 -1.7855 2.8623
4.9863 -1.7462 2.8623
5.0362 -1.7064 2.8623
5.0863 -1.6659 2.8623
5.1364 -1.6249 2.8623
5.1867 -1.5832 2.8623
5.2371 -1.5409 2.8623
5.2875 -1.4980 2.8623
5.3382 -1.4544 2.8623
5.3889 -1.4102 2.8623
5.4397 -1.3653 2.8623
5.4907 -1.3198 2.8623
5.5417 -1.2735 2.8623
5.5929 -1.2266 2.8623
5.6442 -1.1790 2.8623
5.6956 -1.1307 2.8623
5.7471 -1.0817 2.8623
5.7988 -1.0319 2.8623
5.8505 -0.9814 2.8623
5.9024 -0.9302 2.8623
5.9544 -0.8782 2.8623
6.0065 -0.8254 2.8623
6.0586 -0.7719 2.8623
6.1110 -0.7175 2.8623
6.1634 -0.6624 2.8623
6.2159 -0.6064 2.8623
6.2685 -0.5497 2.8623
6.3213 -0.4920 2.8623
6.3741 -0.4336 2.8623
6.4270 -0.3742 2.8623
6.4801 -0.3140 2.8623
6.5332 -0.2529 2.8623
6.5865 -0.1909 2.8623
6.6398 -0.1280 2.8623
6.6932 -0.0642 2.8623
6.7468 0.0006 2.8623
6.8004 0.0664 2.8623
6.8541 0.1331 2.8623
6.9079 0.2008 2.8623
6.9617 0.2695 2.8623
7.0157 0.3392 2.8623
7.0697 0.4100 2.8623
7.1238 0.4818 2.8623
7.1779 0.5547 2.8623
7.2322 0.6286 2.8623
7.2865 0.7037 2.8623
7.3408 0.7798 2.8623
7.3952 0.8571 2.8623
7.4497 0.9355 2.8623
7.5042 1.0151 2.8623
7.5587 1.0959 2.8623
7.6133 1.1779 2.8623
7.6679 1.2611 2.8623
7.7225 1.3455 2.8623
7.7772 1.4312 2.8623
7.8319 1.5182 2.8623
7.8865 1.6065 2.8623
7.9412 1.6961 2.8623
7.9959 1.7870 2.8623
8.0505 1.8793 2.8623
8.1052 1.9729 2.8623
8.1597 2.0680 2.8623
8.2143 2.1645 2.8623
8.2688 2.2624 2.8623
8.3232 2.3617 2.8623
8.3777 2.4626 2.8623
8.4320 2.5650 2.8623
8.4862 2.6689 2.8623
8.5403 2.7743 2.8623
8.5944 2.8814 2.8623
8.6483 2.9900 2.8623
8.7021 3.1003 2.8623
8.7557 3.2122 2.8623
8.9157 3.5581 2.8623
8.8092 3.3258 2.8623
8.8625 3.4411 2.8623
8.9686 3.6769 2.8623
9.1261 4.0439 2.8623
9.0213 3.7974 2.8623
9.1781 4.1699 2.8623
9.0738 3.9197 2.8623
9.2298 4.2978 2.8623
9.3323 4.5594 2.8623
9.2812 4.4276 2.8623
9.3831 4.6931 2.8623
9.5332 5.1062 2.8623
9.4335 4.8287 2.8623
9.5824 5.2480 2.8623
9.4835 4.9664 2.8623
9.6311 5.3919 2.8623
9.7272 5.6861 2.8623
9.6794 5.5379 2.8623
9.7745 5.8364 2.8623
9.8213 5.9890 2.8623
9.8674 6.1438 2.8623
10.0885 6.9522 2.8623
10.1305 7.1209 2.8623
10.1718 7.2921 2.8623
10.2122 7.4657 2.8623
10.2517 7.6418 2.8623
10.2904 7.8203 2.8623
10.3280 8.0014 2.8623
10.3647 8.1850 2.8623
10.4003 8.3712 2.8623
10.4348 8.5599 2.8623
10.4683 8.7512 2.8623
10.5005 8.9452 2.8623
10.5315 9.1418 2.8623
10.5612 9.3410 2.8623
9.9130 6.3009 2.8623
10.5896 9.5429 2.8623
9.9579 6.4602 2.8623
10.6166 9.7474 2.8623
10.0021 6.6218 2.8623
10.0457 6.7858 2.8623
10.6422 9.9547 2.8623
10.7290 10.8109 2.8623
10.6663 10.1647 2.8623
10.7466 11.0317 2.8623
10.6888 10.3773 2.8623
10.7623 11.2553 2.8623
10.7762 11.4816 2.8623
10.7098 10.5927 2.8623
10.7882 11.7106 2.8623
10.7982 11.9423 2.8623
10.8061 12.1767 2.8623
10.8118 12.4138 2.8623
4.0899 -1.8480 2.8615
4.1330 -1.8159 2.8617
4.1760 -1.7833 2.8619
4.2191 -1.7502 2.8621
4.2623 -1.7166 2.8623
4.3053 -1.6824 2.8623
4.3482 -1.6478 2.8623
4.3912 -1.6126 2.8623
4.4342 -1.5770 2.8623
4.4773 -1.5408 2.8623
4.5204 -1.5041 2.8623
4.5635 -1.4669 2.8623
4.6066 -1.4292 2.8623
4.6498 -1.3909 2.8623
4.6930 -1.3521 2.8623
4.7362 -1.3128 2.8623
4.7795 -1.2729 2.8623
4.8228 -1.2324 2.8623
4.8661 -1.1915 2.8623
4.9094 -1.1499 2.8623
4.9528 -1.1077 2.8623
4.9961 -1.0650 2.8623
5.0395 -1.0217 2.8623
5.0829 -0.9777 2.8623
5.1263 -0.9332 2.8623
5.1697 -0.8881 2.8623
5.2131 -0.8424 2.8623
5.2566 -0.7960 2.8623
5.3000 -0.7490 2.8623
5.3434 -0.7014 2.8623
5.3869 -0.6531 2.8623
5.4303 -0.6042 2.8623
5.4737 -0.5546 2.8623
5.5171 -0.5044 2.8623
5.5606 -0.4534 2.8623
5.6039 -0.4018 2.8623
5.6473 -0.3495 2.8623
5.6907 -0.2965 2.8623
5.7340 -0.2428 2.8623
5.7773 -0.1883 2.8623
5.8206 -0.1332 2.8623
5.8638 -0.0773 2.8623
5.9070 -0.0206 2.8623
5.9501 0.0368 2.8623
5.9933 0.0949 2.8623
6.0363 0.1539 2.8623
6.0793 0.2136 2.8623
6.1223 0.2741 2.8623
6.1651 0.3354 2.8623
6.2079 0.3974 2.8623
6.2507 0.4604 2.8623
6.2933 0.5241 2.8623
6.3359 0.5887 2.8623
6.3783 0.6541 2.8623
6.4207 0.7204 2.8623
6.4630 0.7876 2.8623
6.5052 0.8556 2.8623
6.5472 0.9246 2.8623
6.5891 0.9944 2.8623
6.6309 1.0651 2.8623
6.6726 1.1367 2.8623
6.7141 1.2093 2.8623
6.7554 1.2828 2.8623
6.7966 1.3573 2.8623
6.8377 1.4327 2.8623
6.8785 1.5091 2.8623
6.9192 1.5865 2.8623
6.9597 1.6649 2.8623
7.0000 1.7443 2.8623
7.0400 1.8247 2.8623
7.0799 1.9061 2.8623
7.1195 1.9886 2.8623
7.1589 2.0721 2.8623
7.1980 2.1567 2.8623
7.2368 2.2423 2.8623
7.2754 2.3291 2.8623
7.4638 2.7794 2.8623
7.3137 2.4169 2.8623
7.5005 2.8728 2.8623
7.5368 2.9674 2.8623
7.3517 2.5058 2.8623
7.5727 3.0632 2.8623
7.3894 2.5959 2.8623
7.6082 3.1602 2.8623
7.4268 2.6870 2.8623
7.6434 3.2584 2.8623
7.6781 3.3578 2.8623
7.7462 3.5602 2.8623
7.7124 3.4584 2.8623
7.7795 3.6632 2.8623
7.8766 3.9799 2.8623
7.9078 4.0880 2.8623
7.8124 3.7675 2.8623
7.9385 4.1974 2.8623
7.8447 3.8731 2.8623
7.9687 4.3081 2.8623
7.9982 4.4201 2.8623
8.1099 4.8811 2.8623
8.0271 4.5334 2.8623
8.1361 4.9998 2.8623
8.0554 4.6479 2.8623
8.1616 5.1197 2.8623
8.0830 4.7639 2.8623
8.1863 5.2410 2.8623
8.2102 5.3637 2.8623
8.2975 5.8680 2.8623
8.2333 5.4877 2.8623
8.3172 5.9975 2.8623
8.2556 5.6131 2.8623
8.3358 6.1284 2.8623
8.2770 5.7399 2.8623
8.3536 6.2607 2.8623
8.3703 6.3943 2.8623
8.4265 6.9428 2.8623
8.3860 6.5294 2.8623
8.4378 7.0833 2.8623
8.4006 6.6658 2.8623
8.4479 7.2253 2.8623
8.4141 6.8036 2.8623
8.4567 7.3685 2.8623
8.4643 7.5132 2.8623
8.4814 8.1051 2.8623
8.4706 7.6592 2.8623
8.4822 8.2563 2.8623
8.4756 7.8065 2.8623
8.4816 8.4089 2.8623
8.4794 8.5627 2.8623
8.4792 7.9551 2.8623
8.4757 8.7178 2.8623
8.4704 8.8740 2.8623
8.4635 9.0316 2.8623
8.4549 9.1903 2.8623
8.4446 9.3501 2.8623
8.4326 9.5111 2.8623
8.4188 9.6732 2.8623
8.4032 9.8365 2.8623
3.7400 -1.6177 2.8612
3.7784 -1.5876 2.8616
3.8163 -1.5569 2.8618
3.8543 -1.5258 2.8620
3.8923 -1.4943 2.8621
3.9302 -1.4623 2.8623
3.9680 -1.4298 2.8623
4.0057 -1.3969 2.8623
4.0434 -1.3635 2.8623
4.0810 -1.3296 2.8623
4.1187 -1.2954 2.8623
4.1563 -1.2606 2.8623
4.1938 -1.2254 2.8623
4.2314 -1.1897 2.8623
4.2689 -1.1536 2.8623
4.3064 -1.1170 2.8623
4.3439 -1.0799 2.8623
4.3813 -1.0423 2.8623
4.4187 -1.0042 2.8623
4.4560 -0.9656 2.8623
4.4933 -0.9266 2.8623
4.5306 -0.8870 2.8623
4.5678 -0.8469 2.8623
4.6049 -0.8064 2.8623
4.6420 -0.7653 2.8623
4.6790 -0.7236 2.8623
4.7160 -0.6815 2.8623
4.7529 -0.6388 2.8623
4.7898 -0.5956 2.8623
4.8266 -0.5518 2.8623
4.8633 -0.5075 2.8623
4.8999 -0.4627 2.8623
4.9365 -0.4173 2.8623
4.9729 -0.3713 2.8623
5.0093 -0.3247 2.8623
5.0456 -0.2776 2.8623
5.0818 -0.2299 2.8623
5.1179 -0.1816 2.8623
5.1539 -0.1328 2.8623
5.1898 -0.0833 2.8623
5.2256 -0.0332 2.8623
5.2613 0.0175 2.8623
5.2968 0.0688 2.8623
5.3323 0.1207 2.8623
5.3676 0.1732 2.8623
5.4027 0.2264 2.8623
5.4378 0.2802 2.8623
5.4726 0.3346 2.8623
5.5074 0.3897 2.8623
5.5420 0.4454 2.8623
5.5764 0.5018 2.8623
5.6106 0.5589 2.8623
5.6447 0.6166 2.8623
5.6786 0.6751 2.8623
5.7123 0.7342 2.8623
5.7458 0.7939 2.8623
5.7792 0.8544 2.8623
5.8123 0.9156 2.8623
5.8452 0.9775 2.8623
5.8779 1.0401 2.8623
5.9103 1.1034 2.8623
5.9426 1.1674 2.8623
5.9745 1.2322 2.8623
6.0063 1.2977 2.8623
6.0377 1.3640 2.8623
6.0689 1.4309 2.8623
6.0999 1.4987 2.8623
6.1305 1.5672 2.8623
6.1609 1.6365 2.8623
6.1909 1.7065 2.8623
6.2207 1.7773 2.8623
6.2501 1.8489 2.8623
6.2792 1.9213 2.8623
6.3079 1.9944 2.8623
6.3363 2.0684 2.8623
6.3643 2.1432 2.8623
6.3920 2.2188 2.8623
6.4192 2.2951 2.8623
6.4986 2.5292 2.8623
6.4461 2.3723 2.8623
6.5242 2.6088 2.8623
6.4726 2.4503 2.8623
6.5494 2.6894 2.8623
6.5983 2.8529 2.8623
6.6903 3.1901 2.8623
6.5741 2.7707 2.8623
6.6221 2.9359 2.8623
6.7120 3.2765 2.8623
6.7737 3.5410 2.8623
6.6454 3.0198 2.8623
6.7332 3.3638 2.8623
6.7931 3.6309 2.8623
6.6681 3.1045 2.8623
6.7538 3.4520 2.8623
6.8475 3.9057 2.8623
6.8119 3.7216 2.8623
6.9106 4.2843 2.8623
6.9621 4.6767 2.8623
6.8300 3.8132 2.8623
6.8643 3.9990 2.8623
7.0005 5.0828 2.8623
6.9246 4.3811 2.8623
6.9729 4.7769 2.8623
7.0247 5.5022 2.8623
6.8805 4.0933 2.8623
7.0079 5.1864 2.8623
6.9829 4.8780 2.8623
6.9379 4.4788 2.8623
7.0284 5.6091 2.8623
6.8959 4.1883 2.8623
7.0145 5.2909 2.8623
6.9921 4.9800 2.8623
6.9503 4.5773 2.8623
7.0311 5.7169 2.8623
7.0334 5.9346 2.8623
7.0200 5.3961 2.8623
7.0251 6.3793 2.8623
6.9984 6.8356 2.8623
7.0327 5.8253 2.8623
7.0329 6.0447 2.8623
7.0202 6.4923 2.8623
6.9518 7.3023 2.8623
6.9887 6.9513 2.8623
7.0314 6.1555 2.8623
7.0141 6.6060 2.8623
6.9777 7.0677 2.8623
6.9369 7.4204 2.8623
7.0288 6.2670 2.8623
6.9654 7.1847 2.8623
7.0069 6.7205 2.8623
6.9206 7.5391 2.8623
6.8838 7.7781 2.8623
6.9029 7.6584 2.8623
6.8633 7.8983 2.8623
6.8413 8.0190 2.8623
6.8179 8.1402 2.8623
3.4319 -1.4150 2.8609
3.4660 -1.3867 2.8614
3.5673 -1.2990 2.8620
3.5000 -1.3579 2.8617
3.6009 -1.2690 2.8621
3.6344 -1.2386 2.8623
3.5337 -1.3287 2.8618
3.7010 -1.1765 2.8623
3.6678 -1.2078 2.8623
3.8334 -1.0475 2.8623
3.7342 -1.1449 2.8623
4.0947 -0.7695 2.8623
3.7674 -1.1128 2.8623
3.8663 -1.0142 2.8623
4.1270 -0.7328 2.8623
4.2233 -0.6201 2.8623
3.9647 -0.9119 2.8623
4.1592 -0.6956 2.8623
3.8004 -1.0803 2.8623
3.8992 -0.9805 2.8623
4.2553 -0.5816 2.8623
3.9973 -0.8769 2.8623
4.1913 -0.6581 2.8623
3.9320 -0.9464 2.8623
4.3503 -0.4634 2.8623
4.2871 -0.5427 2.8623
4.0299 -0.8415 2.8623
4.4755 -0.2994 2.8623
4.5986 -0.1277 2.8623
4.3818 -0.4231 2.8623
4.5065 -0.2572 2.8623
4.0623 -0.8057 2.8623
4.3188 -0.5033 2.8623
4.5374 -0.2145 2.8623
4.6291 -0.0836 2.8623
4.4132 -0.3824 2.8623
4.7195 0.0518 2.8623
4.8376 0.2395 2.8623
4.5681 -0.1714 2.8623
4.6594 -0.0389 2.8623
4.4444 -0.3411 2.8623
4.9529 0.4355 2.8623
4.7492 0.0980 2.8623
4.8667 0.2877 2.8623
4.6895 0.0062 2.8623
4.9812 0.4859 2.8623
5.0649 0.6401 2.8623
4.7789 0.1447 2.8623
4.8957 0.3365 2.8623
5.1733 0.8534 2.8623
5.0094 0.5367 2.8623
5.0924 0.6926 2.8623
5.0373 0.5881 2.8623
4.9244 0.3857 2.8623
5.1998 0.9081 2.8623
4.8083 0.1918 2.8623
5.1196 0.7456 2.8623
5.2777 1.0757 2.8623
5.2260 0.9634 2.8623
5.3776 1.3072 2.8623
5.4725 1.5480 2.8623
5.1466 0.7992 2.8623
5.3031 1.1327 2.8623
5.2520 1.0193 2.8623
5.3282 1.1903 2.8623
5.4954 1.6097 2.8623
5.5619 1.7983 2.8623
5.4018 1.3665 2.8623
5.3531 1.2484 2.8623
5.6454 2.0583 2.8623
5.5179 1.6720 2.8623
5.5834 1.8624 2.8623
5.4257 1.4264 2.8623
5.7222 2.3279 2.8623
5.6652 2.1248 2.8623
5.5401 1.7348 2.8623
5.7402 2.3969 2.8623
5.6045 1.9271 2.8623
5.4493 1.4869 2.8623
5.6846 2.1919 2.8623
5.7579 2.4664 2.8623
5.7916 2.6074 2.8623
5.6251 1.9924 2.8623
5.8532 2.8966 2.8623
5.7036 2.2596 2.8623
5.7750 2.5366 2.8623
5.8078 2.6788 2.8623
5.9060 3.1956 2.8623
5.8672 2.9705 2.8623
5.9494 3.5042 2.8623
5.9824 3.8223 2.8623
5.9178 3.2718 2.8623
5.8235 2.7508 2.8623
5.8807 3.0449 2.8623
5.9889 3.9032 2.8623
5.9289 3.3487 2.8623
5.8386 2.8234 2.8623
5.9947 3.9848 2.8623
5.9998 4.0668 2.8623
6.0042 4.1495 2.8623
5.9586 3.5828 2.8623
5.8937 3.1199 2.8623
6.0140 4.4856 2.8623
6.0078 4.2327 2.8623
5.9394 3.4261 2.8623
6.0108 4.8300 2.8623
6.0144 4.5709 2.8623
6.0106 4.3164 2.8623
5.9672 3.6621 2.8623
6.0141 4.6568 2.8623
6.0078 4.9173 2.8623
5.9936 5.1822 2.8623
6.0127 4.4007 2.8623
5.9751 3.7419 2.8623
6.0128 4.7431 2.8623
6.0040 5.0051 2.8623
5.9870 5.2713 2.8623
5.9134 5.9068 2.8623
5.8484 6.2773 2.8623
5.9614 5.5414 2.8623
5.9992 5.0934 2.8623
5.9794 5.3609 2.8623
5.8294 6.3706 2.8623
5.8988 5.9990 2.8623
5.9510 5.6322 2.8623
5.9709 5.4509 2.8623
5.8093 6.4642 2.8623
5.9395 5.7234 2.8623
5.8831 6.0915 2.8623
5.7880 6.5579 2.8623
5.9269 5.8149 2.8623
5.8663 6.1842 2.8623
5.7656 6.6519 2.8623
5.7420 6.7460 2.8623
5.7172 6.8402 2.8623
5.6912 6.9346 2.8623
