ply
format ascii 1.0
element vertex 1517
property float32 x
property float32 y
property float32 z
end_header
-4.3724 5.7313 -3.1133
-10.8314 2.3963 -2.7778
-10.8870 2.2972 -2.7533
-10.3064 1.8615 -2.4988
-10.6389 2.1366 -2.6532
-10.5656 1.4864 -2.4195
-10.7321 2.0466 -2.6390
-10.2596 1.7500 -2.4525
-10.6712 1.3957 -2.4087
-10.9999 1.1144 -2.3764
-10.3599 1.6635 -2.4414
-10.7788 1.3036 -2.3979
-10.4618 1.5757 -2.4305
-10.8883 1.2098 -2.3871
-12.1154 1.1090 -2.5790
-11.5030 0.2724 -2.2015
-11.8723 0.7403 -2.4162
-11.8942 0.9728 -2.4945
-11.6230 0.1633 -2.1898
-11.6280 0.8380 -2.4024
-11.7311 0.6178 -2.3514
-11.5548 0.0510 -2.1428
-11.9814 -0.1777 -2.1518
-11.7140 0.5036 -2.3124
-11.2911 -0.0588 -2.0607
-12.0368 -0.2943 -2.1269
-11.5163 -0.6139 -1.9360
-11.3855 0.3795 -2.2131
-11.7201 -0.3992 -2.0372
-10.8249 -0.9946 -1.6985
-11.1120 -0.6994 -1.8367
-11.3306 -0.4950 -1.9370
-10.7323 -1.0899 -1.6543
-11.0148 -0.7994 -1.7896
-10.6411 -1.1837 -1.6109
-10.9191 -0.8978 -1.7436
-4.3854 5.7269 -2.7161
-10.9136 2.1225 -2.1331
-10.7039 1.9739 -2.0568
-10.2647 1.7899 -1.9388
-10.8582 2.2216 -2.1584
-10.4314 1.7148 -1.9364
-10.6031 1.6375 -1.9342
-11.2587 1.2944 -1.9116
-10.7799 1.5579 -1.9320
-10.5803 1.1127 -1.7636
-11.0861 1.4926 -1.9517
-10.6861 1.0195 -1.7483
-11.1570 1.3922 -1.9291
-10.7940 0.9246 -1.7330
-10.9040 0.8280 -1.7176
-11.2256 0.4177 -1.6340
-11.0160 0.7296 -1.7020
-11.4151 0.3146 -1.6280
-11.1303 0.6293 -1.6863
-11.4652 0.2055 -1.6016
-11.2470 0.5271 -1.6704
-11.5158 0.0955 -1.5751
-11.5670 -0.0154 -1.5486
-11.1730 -0.4450 -1.3679
-11.1577 -0.1223 -1.4616
-11.1438 -0.5511 -1.3328
-11.8310 -0.2435 -1.5159
-11.0459 -0.6527 -1.2899
-10.9497 -0.7526 -1.2480
-11.4925 -0.3471 -1.4397
-10.8551 -0.8509 -1.2068
-10.7621 -0.9476 -1.1665
-46.0170 -5.3903 -4.6055
-10.6704 -1.0428 -1.1269
-46.9327 -5.9544 -4.5680
-46.5133 -4.9967 -4.7836
-46.4929 -6.3522 -4.3975
-4.3434 5.7730 -2.3483
-4.3989 5.7224 -2.3324
-10.8315 2.1456 -1.5795
-10.8866 2.0469 -1.5530
-10.9418 1.9477 -1.5265
-10.9821 1.8452 -1.4978
-10.3936 1.6430 -1.3853
-10.5635 1.5652 -1.3753
-10.7191 1.4824 -1.3627
-10.7860 1.3855 -1.3384
-10.8536 1.2877 -1.3139
-10.9220 1.1889 -1.2893
-10.9911 1.0891 -1.2645
-11.0609 0.9883 -1.2396
-11.1316 0.8864 -1.2145
-11.2031 0.7834 -1.1892
-11.2834 0.6797 -1.1646
-11.4185 0.5774 -1.1451
-11.5568 0.4728 -1.1254
-11.6055 0.3629 -1.0964
-11.0020 0.2379 -1.0076
-11.5236 0.1382 -1.0222
-11.4090 0.0270 -0.9793
-11.0941 -0.0805 -0.9206
-10.7959 -0.1822 -0.8651
-11.4488 -0.3034 -0.8849
-11.1327 -0.4022 -0.8289
-10.8545 -0.7061 -0.7163
-11.0384 -0.5051 -0.7907
-10.7647 -0.8042 -0.6802
-10.9457 -0.6064 -0.7531
-10.6763 -0.9009 -0.6446
-49.5083 -5.1374 -2.7122
-49.2586 -4.6335 -2.8363
-49.4381 -5.6107 -2.5703
-4.3475 5.7543 -1.9704
-4.4265 5.7358 -1.9661
-10.8671 1.6486 -0.8878
-10.3986 1.4749 -0.8187
-10.5255 1.3894 -0.7975
-10.6553 1.3021 -0.7759
-10.7880 1.2128 -0.7539
-10.9237 1.1214 -0.7315
-11.0432 1.0262 -0.7073
-10.7685 0.8961 -0.6584
-10.8358 0.7966 -0.6311
-11.2319 0.7170 -0.6218
-11.2736 0.6106 -0.5916
-11.4758 0.5108 -0.5693
-11.3321 0.3951 -0.5297
-11.0210 0.2780 -0.4836
-11.4560 0.1787 -0.4700
-11.4759 0.0685 -0.4381
-11.2123 -0.0410 -0.3962
-11.1166 -0.1476 -0.3612
-11.0225 -0.2525 -0.3268
-10.9300 -0.3556 -0.2931
-10.8391 -0.4571 -0.2600
-10.7496 -0.5570 -0.2274
-44.3184 -6.6074 0.3197
-45.0367 -7.1584 0.4534
-45.6046 -7.6996 0.5895
-46.5655 -8.3239 0.7353
-47.3673 -8.9389 0.8840
-48.2004 -9.5780 1.0383
-4.3548 5.7402 -1.6047
-41.8716 17.9852 -4.7525
-42.1761 17.6315 -4.6465
-42.4934 17.2802 -4.5410
-42.8129 16.9267 -4.4348
-43.1344 16.5707 -4.3278
-43.4581 16.2122 -4.2200
-43.7842 15.8511 -4.1114
-44.1125 15.4874 -4.0019
-44.4434 15.1208 -3.8914
-44.7767 14.7513 -3.7801
-45.1165 14.3799 -3.6680
-45.4728 14.0096 -3.5561
-45.8324 13.6358 -3.4430
-46.1954 13.2584 -3.3288
-46.5620 12.8773 -3.2134
-46.9322 12.4923 -3.0967
-47.3062 12.1032 -2.9788
-47.6841 11.7101 -2.8595
-48.0661 11.3126 -2.7389
-48.4523 10.9106 -2.6169
-48.4619 10.4221 -2.4740
-11.5732 1.4548 -0.2878
-11.5536 1.3394 -0.2542
-11.5341 1.2247 -0.2207
-10.5433 1.0169 -0.1716
-10.6728 0.9258 -0.1433
-10.8053 0.8326 -0.1142
-10.9409 0.7371 -0.0845
-11.0797 0.6394 -0.0541
-11.2220 0.5393 -0.0229
-11.3167 0.4347 0.0091
-11.1930 0.3221 0.0408
-11.0721 0.2120 0.0718
-11.1009 0.1057 0.1035
-11.0071 -0.0011 0.1339
-10.9148 -0.1061 0.1638
-10.8241 -0.2095 0.1932
-10.7349 -0.3111 0.2221
-37.6026 -1.4523 0.8853
-38.1071 -1.8393 1.0059
-38.6260 -2.2373 1.1299
-39.1598 -2.6468 1.2576
-39.7094 -3.0684 1.3891
-40.2756 -3.5028 1.5246
-40.8593 -3.9505 1.6644
-41.2940 -4.3946 1.8013
-42.0753 -4.8884 1.9572
-42.7172 -5.3808 2.1111
-43.3808 -5.8899 2.2702
-44.0674 -6.4166 2.4349
-46.6038 -7.2458 2.7117
-44.3543 -7.3351 2.7113
-42.3094 -7.4173 2.7113
-42.7035 -7.9122 2.8633
-4.3633 5.7283 -1.2477
-31.9928 25.9501 -5.1424
-32.1612 25.5660 -5.0364
-32.3281 25.1836 -4.9306
-32.4936 24.8031 -4.8252
-32.6576 24.4242 -4.7200
-32.8202 24.0470 -4.6150
-32.9814 23.6713 -4.5103
-42.7740 19.4889 -2.8971
-42.7026 18.9586 -2.7582
-42.1599 18.2306 -2.5917
-41.6354 17.5272 -2.4305
-41.1250 16.8455 -2.2742
-41.1123 16.3775 -2.1478
-41.4645 16.0547 -2.0401
-41.8740 15.7494 -1.9337
-42.4601 15.5031 -1.8331
-42.8814 15.1890 -1.7231
-43.2206 14.8409 -1.6082
-43.7403 14.5487 -1.4980
-44.1781 14.2223 -1.3828
-44.5317 13.8634 -1.2632
-44.8896 13.5013 -1.1422
-45.3441 13.1625 -1.0218
-45.8050 12.8189 -0.8994
-46.2728 12.4701 -0.7748
-46.6193 12.0830 -0.6463
-46.2015 11.5009 -0.5079
-45.5995 10.8857 -0.3707
-46.1719 10.5535 -0.2435
-48.7223 10.6440 -0.1181
-28.5748 5.3833 0.1739
-28.8677 5.1515 0.2574
-29.2863 4.9360 0.3438
-29.5987 4.6963 0.4309
-29.9168 4.4523 0.5199
-30.2409 4.2036 0.6106
-30.5712 3.9502 0.7033
-30.9079 3.6920 0.7980
-31.2513 3.4285 0.8948
-31.6016 3.1597 0.9937
-11.2381 1.0146 0.3850
-11.2199 0.9043 0.4160
-11.2017 0.7945 0.4469
-32.9413 2.0182 1.4069
-11.2746 0.5820 0.5134
-33.8570 1.4213 1.6373
-11.3279 0.3664 0.5799
-10.9916 0.2497 0.5938
-10.8996 0.1427 0.6198
-10.8091 0.0375 0.6454
-35.9985 -0.2216 2.2521
-36.4597 -0.5754 2.3852
-36.9332 -0.9387 2.5220
-38.1028 -1.3357 2.7114
-36.6173 -1.6369 2.7113
-35.2406 -1.9157 2.7113
-35.3718 -2.2650 2.8241
-34.6053 -2.5511 2.8637
-33.4241 -2.7883 2.8637
-32.3166 -3.0101 2.8637
-31.2759 -3.2179 2.8637
-30.2959 -3.4129 2.8637
-29.3713 -3.5962 2.8637
-28.4975 -3.7690 2.8637
-27.6700 -3.9320 2.8637
-26.8854 -4.0860 2.8637
-26.1401 -4.2318 2.8637
-25.4310 -4.3699 2.8637
-23.5762 32.1337 -5.1051
-4.3470 5.8033 -0.9163
-4.3767 5.7239 -0.8980
-24.1980 31.0051 -4.8324
-24.4001 30.6341 -4.7421
-24.5998 30.2656 -4.6521
-24.7970 29.8995 -4.5622
-24.9918 29.5357 -4.4726
-25.1843 29.1742 -4.3833
-25.3746 28.8149 -4.2941
-25.5626 28.4577 -4.2051
-25.7484 28.1026 -4.1163
-25.9322 27.7494 -4.0277
-26.1138 27.3983 -3.9392
-26.2934 27.0489 -3.8509
-26.4710 26.7014 -3.7627
-26.6466 26.3556 -3.6746
-26.8203 26.0116 -3.5866
-26.9922 25.6691 -3.4987
-27.1622 25.3282 -3.4109
-27.3304 24.9889 -3.3232
-27.4968 24.6510 -3.2356
-27.6615 24.3146 -3.1480
-27.8245 23.9795 -3.0604
-27.9859 23.6457 -2.9729
-28.1456 23.3132 -2.8854
-28.3037 22.9819 -2.7979
-28.4603 22.6518 -2.7104
-28.6464 22.3470 -2.6257
-28.9360 22.1226 -2.5501
-30.1171 22.5641 -2.5490
-30.4238 22.3347 -2.4699
-30.7327 22.1044 -2.3901
-31.0433 21.8728 -2.3093
-44.9473 21.1344 -0.8239
-44.7008 20.4946 -0.6890
-42.8410 19.1443 -0.5360
-42.2967 18.4142 -0.4071
-41.7706 17.7085 -0.2819
-41.2617 17.0259 -0.1604
-41.0951 16.4959 -0.0426
-41.3519 16.1386 0.0745
-41.4993 15.7378 0.1922
-42.1690 15.5295 0.3142
-24.3586 8.7054 0.2499
-24.5137 8.4960 0.3202
-24.7384 8.3084 0.3922
-25.0904 8.1591 0.4677
-25.3360 7.9707 0.5428
-25.5850 7.7797 0.6191
-25.8373 7.5861 0.6967
-26.0932 7.3898 0.7758
-26.3527 7.1907 0.8562
-26.6160 6.9887 0.9381
-26.8832 6.7837 1.0216
-27.1545 6.5756 1.1066
-27.4300 6.3642 1.1933
-27.7098 6.1495 1.2816
-27.9942 5.9314 1.3717
-28.2833 5.7096 1.4635
-28.5772 5.4841 1.5573
-28.7594 5.2334 1.6463
-29.0681 5.0019 1.7439
-29.4845 4.7827 1.8500
-29.7998 4.5408 1.9519
-30.1210 4.2944 2.0561
-30.4483 4.0433 2.1625
-30.7820 3.7873 2.2714
-31.1223 3.5262 2.3827
-31.4695 3.2599 2.4967
-33.0211 3.1004 2.7117
-31.9327 2.6891 2.7113
-30.9147 2.3046 2.7113
-29.9572 1.9440 2.7113
-11.2075 0.6192 1.0459
-11.2512 0.5132 1.0817
-28.9359 1.0412 2.8637
-28.1288 0.7414 2.8637
-27.3630 0.4579 2.8637
-26.6350 0.1895 2.8637
-25.9421 -0.0651 2.8637
-25.2815 -0.3069 2.8637
-24.6511 -0.5367 2.8637
-24.0487 -0.7554 2.8637
-23.4723 -0.9638 2.8637
-22.9203 -1.1625 2.8637
-22.3909 -1.3523 2.8637
-21.8829 -1.5337 2.8637
-21.3947 -1.7071 2.8637
-20.9253 -1.8732 2.8637
-20.4734 -2.0323 2.8637
-20.0380 -2.1849 2.8637
-19.6181 -2.3313 2.8637
-18.1905 -2.3403 2.7113
-17.8200 -2.4683 2.7113
-17.4620 -2.5913 2.7113
-17.1156 -2.7097 2.7113
-21.0038 28.5108 -2.8335
-4.3370 5.7678 -0.5651
-4.3894 5.7199 -0.5521
-21.6078 27.5938 -2.6225
-21.8796 27.3843 -2.5607
-22.1513 27.1748 -2.4984
-23.1079 27.7890 -2.5100
-23.3915 27.5774 -2.4450
-23.6755 27.3657 -2.3795
-23.9597 27.1538 -2.3133
-24.2442 26.9417 -2.2465
-24.5291 26.7293 -2.1791
-24.8144 26.5166 -2.1110
-25.1001 26.3036 -2.0422
-25.3864 26.0902 -1.9728
-25.6733 25.8763 -1.9026
-25.9608 25.6620 -1.8318
-26.2490 25.4471 -1.7602
-26.5380 25.2316 -1.6878
-26.8278 25.0156 -1.6147
-27.1185 24.7989 -1.5408
-27.4100 24.5815 -1.4661
-27.7027 24.3634 -1.3906
-27.9964 24.1444 -1.3142
-28.2916 23.9251 -1.2370
-28.5880 23.7048 -1.1589
-28.8857 23.4835 -1.0799
-29.1841 23.2608 -0.9999
-29.4838 23.0371 -0.9190
-29.7850 22.8123 -0.8371
-30.0878 22.5863 -0.7543
-30.3921 22.3592 -0.6704
-30.6980 22.1308 -0.5855
-31.0057 21.9011 -0.4995
-31.3152 21.6701 -0.4124
-20.3307 11.8663 0.1963
-20.3929 11.6413 0.2535
-20.5878 11.4917 0.3129
-20.8648 11.3849 0.3746
-21.0637 11.2323 0.4359
-21.2642 11.0784 0.4981
-21.4665 10.9232 0.5612
-21.6706 10.7666 0.6253
-21.8766 10.6086 0.6903
-22.0845 10.4491 0.7563
-22.2945 10.2880 0.8233
-22.5064 10.1254 0.8914
-22.7206 9.9611 0.9606
-22.9370 9.7951 1.0308
-23.1557 9.6273 1.1023
-23.3767 9.4577 1.1748
-23.6003 9.2862 1.2486
-23.8263 9.1128 1.3236
-24.0551 8.9373 1.3999
-24.2865 8.7597 1.4775
-24.4399 8.5516 1.5513
-24.6626 8.3656 1.6305
-24.9019 8.1820 1.7120
-25.2557 8.0313 1.8029
-25.5024 7.8420 1.8878
-25.7526 7.6501 1.9742
-26.0062 7.4555 2.0623
-26.2635 7.2581 2.1521
-26.5244 7.0579 2.2436
-26.7893 6.8547 2.3369
-27.0582 6.6484 2.4320
-27.3313 6.4389 2.5290
-28.4858 6.4239 2.7116
-27.7082 5.9705 2.7113
-26.9728 5.5426 2.7113
-26.2740 5.1375 2.7113
-26.1353 4.8512 2.7671
-26.3789 4.6356 2.8637
-25.7401 4.2698 2.8637
-25.1297 3.9217 2.8637
-24.5459 3.5902 2.8637
-23.9867 3.2740 2.8637
-23.4506 2.9723 2.8637
-22.9362 2.6841 2.8637
-22.4419 2.4084 2.8637
-21.9667 2.1446 2.8637
-21.5092 1.8919 2.8637
-21.0686 1.6496 2.8637
-20.6438 1.4172 2.8637
-11.1862 0.6601 1.5832
-11.2324 0.5547 1.6215
-11.2796 0.4484 1.6603
-19.0855 0.5751 2.8637
-18.7274 0.3842 2.8637
-18.3806 0.2002 2.8637
-18.0446 0.0229 2.8637
-17.7186 -0.1480 2.8637
-17.4024 -0.3130 2.8637
-17.0954 -0.4723 2.8637
-15.9032 -0.5928 2.7113
-15.6287 -0.7336 2.7113
-15.3617 -0.8697 2.7113
-15.1020 -1.0014 2.7113
-14.8491 -1.1288 2.7113
-14.6027 -1.2522 2.7113
-14.3626 -1.3716 2.7113
-14.1286 -1.4874 2.7113
-13.9002 -1.5996 2.7113
-13.6774 -1.7084 2.7113
-13.4599 -1.8140 2.7113
-13.2474 -1.9164 2.7113
-4.3421 5.7544 -0.2206
-4.4009 5.7162 -0.2084
-22.3014 28.3935 -0.9798
-22.5822 28.1848 -0.9163
-22.8630 27.9760 -0.8521
-23.1439 27.7672 -0.7871
-23.4251 27.5582 -0.7214
-23.7064 27.3490 -0.6549
-23.9878 27.1394 -0.5876
-24.2693 26.9293 -0.5195
-24.5512 26.7189 -0.4506
-24.8335 26.5081 -0.3809
-25.1163 26.2971 -0.3103
-25.3996 26.0856 -0.2389
-25.6836 25.8736 -0.1666
-25.9682 25.6612 -0.0934
-26.2535 25.4483 -0.0194
-26.5396 25.2347 0.0557
-26.8264 25.0206 0.1316
-27.1142 24.8058 0.2085
-27.4029 24.5903 0.2864
-16.5642 14.5791 0.2185
-16.8098 14.5112 0.2675
-16.9829 14.3785 0.3161
-17.1567 14.2452 0.3653
-17.3311 14.1113 0.4152
-17.5063 13.9770 0.4657
-17.6822 13.8420 0.5169
-17.8590 13.7064 0.5688
-18.0365 13.5701 0.6213
-18.2150 13.4332 0.6746
-18.3944 13.2956 0.7287
-18.5748 13.1572 0.7834
-18.7562 13.0180 0.8390
-18.9387 12.8780 0.8953
-19.1222 12.7372 0.9524
-19.3069 12.5955 1.0103
-19.4928 12.4529 1.0691
-19.6799 12.3093 1.1287
-19.8684 12.1648 1.1892
-20.0581 12.0192 1.2506
-20.2493 11.8725 1.3129
-20.3509 11.6726 1.3701
-20.5441 11.5243 1.4340
-20.7514 11.3817 1.4999
-21.0163 11.2677 1.5710
-21.2151 11.1152 1.6382
-21.4157 10.9613 1.7066
-21.6180 10.8061 1.7760
-21.8222 10.6494 1.8465
-22.0283 10.4913 1.9182
-22.2364 10.3316 1.9911
-22.4465 10.1704 2.0652
-22.6588 10.0075 2.1406
-22.8733 9.8430 2.2172
-23.0901 9.6767 2.2952
-23.3092 9.5086 2.3745
-23.5308 9.3386 2.4553
-23.7548 9.1666 2.5374
-24.8097 9.3032 2.7116
-24.2563 8.8332 2.7113
-23.7284 8.3859 2.7113
-23.2221 7.9590 2.7113
-22.7358 7.5513 2.7113
-22.8730 7.3557 2.7849
-23.0452 7.1697 2.8637
-22.5879 6.7921 2.8637
-22.1472 6.4302 2.8637
-21.7220 6.0829 2.8637
-21.3116 5.7496 2.8637
-20.9151 5.4294 2.8637
-20.5318 5.1215 2.8637
-20.1609 4.8253 2.8637
-19.8018 4.5402 2.8637
-19.4539 4.2656 2.8637
-19.1166 4.0009 2.8637
-18.7895 3.7457 2.8637
-18.4719 3.4995 2.8637
-18.1635 3.2618 2.8637
-17.8638 3.0322 2.8637
-17.5723 2.8103 2.8637
-17.2889 2.5958 2.8637
-17.0129 2.3884 2.8637
-16.7442 2.1876 2.8637
-16.4824 1.9933 2.8637
-16.2273 1.8051 2.8637
-15.9784 1.6227 2.8637
-15.7356 1.4460 2.8637
-15.4987 1.2746 2.8637
-15.2673 1.1084 2.8637
-11.1681 0.7032 2.1263
-11.2142 0.5982 2.1669
-11.2606 0.4923 2.2081
-11.3077 0.3856 2.2498
-13.4315 0.3289 2.7113
-13.2400 0.1969 2.7113
-13.0526 0.0685 2.7113
-12.8689 -0.0563 2.7113
-12.6890 -0.1777 2.7113
-12.5127 -0.2958 2.7113
-12.3398 -0.4108 2.7113
-12.1702 -0.5228 2.7113
-12.0039 -0.6318 2.7113
-11.8407 -0.7380 2.7113
-11.6805 -0.8414 2.7113
-11.5232 -0.9422 2.7113
-11.3687 -1.0405 2.7113
-11.2169 -1.1363 2.7113
-11.1941 -1.2438 2.7423
-11.3403 -1.3716 2.8154
-11.3821 -1.4890 2.8636
-18.7740 34.0638 -0.2429
-19.0451 33.7813 -0.1886
-19.3652 33.5885 -0.1340
-19.6664 33.3640 -0.0784
-19.9668 33.1401 -0.0221
-20.2664 32.9167 0.0351
-20.5655 32.6937 0.0930
-20.8641 32.4712 0.1518
-21.1772 32.2722 0.2115
-21.4750 32.0502 0.2720
-12.2410 17.8948 0.1874
-12.4075 17.7695 0.2223
-12.6201 17.7095 0.2587
-12.7857 17.5825 0.2947
-12.9512 17.4556 0.3312
-4.3476 5.7437 0.1220
-4.4220 5.7271 0.1351
-13.4470 17.0752 0.4437
-13.6122 16.9485 0.4822
-13.7774 16.8217 0.5213
-13.9427 16.6950 0.5608
-14.1080 16.5681 0.6010
-14.2734 16.4412 0.6417
-14.4390 16.3143 0.6829
-14.6047 16.1871 0.7247
-14.7706 16.0599 0.7671
-14.9367 15.9324 0.8100
-15.1031 15.8048 0.8536
-15.2697 15.6769 0.8977
-15.4367 15.5488 0.9425
-15.6041 15.4204 0.9879
-15.7718 15.2918 1.0339
-15.9399 15.1628 1.0806
-16.1085 15.0334 1.1280
-16.2181 14.8492 1.1717
-16.3838 14.7167 1.2199
-16.5533 14.5866 1.2691
-16.7972 14.5200 1.3249
-16.9687 14.3885 1.3757
-17.1408 14.2565 1.4273
-17.3136 14.1239 1.4797
-17.4871 13.9908 1.5328
-17.6614 13.8571 1.5867
-17.8365 13.7227 1.6413
-18.0125 13.5877 1.6969
-18.1893 13.4521 1.7532
-18.3671 13.3157 1.8104
-18.5458 13.1786 1.8684
-18.7255 13.0407 1.9274
-18.9063 12.9020 1.9872
-19.0882 12.7625 2.0480
-19.2712 12.6220 2.1097
-19.4554 12.4807 2.1724
-19.6408 12.3385 2.2361
-19.8275 12.1952 2.3008
-20.0156 12.0509 2.3665
-20.2050 11.9056 2.4333
-20.3051 11.7068 2.4900
-20.4966 11.5599 2.5587
-21.3430 11.7723 2.7115
-20.9758 11.3119 2.7113
-20.6216 10.8701 2.7113
-20.2784 10.4450 2.7113
-19.9455 10.0357 2.7113
-19.8013 9.7293 2.7361
-19.9740 9.5804 2.8048
-20.0721 9.3947 2.8637
-19.7592 9.0211 2.8637
-19.4547 8.6605 2.8637
-19.1586 8.3122 2.8637
-18.8702 7.9756 2.8637
-18.5893 7.6502 2.8637
-18.3155 7.3355 2.8637
-18.0486 7.0309 2.8637
-17.7882 6.7361 2.8637
-17.5341 6.4507 2.8637
-17.2861 6.1741 2.8637
-17.0438 5.9061 2.8637
-16.8071 5.6462 2.8637
-16.5758 5.3942 2.8637
-16.3495 5.1497 2.8637
-16.1282 4.9123 2.8637
-15.9117 4.6819 2.8637
-15.6997 4.4582 2.8637
-15.4922 4.2408 2.8637
-15.2889 4.0295 2.8637
-15.0897 3.8242 2.8637
-14.8945 3.6245 2.8637
-14.7030 3.4303 2.8637
-14.5153 3.2414 2.8637
-14.3311 3.0575 2.8637
-14.1504 2.8785 2.8637
-13.9730 2.7043 2.8637
-13.7988 2.5345 2.8637
-13.6277 2.3692 2.8637
-13.4597 2.2081 2.8637
-12.5870 1.9420 2.7113
-12.4333 1.7971 2.7113
-12.2823 1.6558 2.7113
-12.1337 1.5180 2.7113
-11.9875 1.3836 2.7113
-11.8438 1.2525 2.7113
-11.7023 1.1245 2.7113
-11.5630 0.9996 2.7113
-11.4259 0.8777 2.7113
-11.1489 0.7490 2.6772
-11.1580 0.6423 2.7113
-11.0270 0.5288 2.7113
-10.8980 0.4178 2.7113
-10.7708 0.3094 2.7113
-10.6454 0.2035 2.7113
-10.5218 0.0999 2.7113
-10.2797 -0.1002 2.7113
-10.3999 -0.0013 2.7113
-10.1611 -0.1970 2.7113
-10.1977 -0.4933 2.8171
-10.0441 -0.2916 2.7113
-10.2473 -0.5951 2.8636
-10.0811 -0.3901 2.7529
-10.1288 -0.6866 2.8633
-10.0119 -0.7761 2.8630
-9.8964 -0.8637 2.8626
-9.7823 -0.9494 2.8623
-9.6697 -1.0334 2.8620
-9.5584 -1.1155 2.8617
-8.6014 20.7939 0.5941
-8.7776 20.6587 0.6173
-8.9529 20.5243 0.6410
-9.1272 20.3905 0.6652
-9.3008 20.2574 0.6899
-9.4735 20.1249 0.7151
-9.6455 19.9930 0.7408
-9.8167 19.8616 0.7670
-9.9873 19.7308 0.7937
-10.1572 19.6005 0.8210
-10.3264 19.4707 0.8487
-10.4951 19.3413 0.8770
-10.6632 19.2123 0.9058
-10.8308 19.0838 0.9351
-10.9979 18.9556 0.9650
-11.1645 18.8278 0.9953
-11.3307 18.7003 1.0263
-11.4965 18.5731 1.0577
-11.6619 18.4462 1.0897
-11.8270 18.3196 1.1222
-11.9445 18.1214 1.1508
-12.1083 17.9957 1.1843
-12.2720 17.8702 1.2184
-12.4835 17.8135 1.2579
-12.6474 17.6878 1.2932
-12.8110 17.5623 1.3292
-12.9746 17.4368 1.3657
-4.3521 5.7345 0.4647
-4.4406 5.7374 0.4809
-13.4649 17.0607 1.4788
-13.6283 16.9353 1.5177
-13.7916 16.8100 1.5573
-13.9551 16.6846 1.5975
-14.1186 16.5592 1.6383
-14.2823 16.4336 1.6797
-14.4461 16.3080 1.7218
-14.6100 16.1822 1.7646
-14.7742 16.0563 1.8081
-14.9386 15.9301 1.8522
-15.1032 15.8038 1.8970
-15.2682 15.6773 1.9426
-15.4335 15.5505 1.9888
-15.5991 15.4234 2.0358
-15.7652 15.2960 2.0835
-15.9316 15.1683 2.1319
-16.0985 15.0403 2.1812
-16.2121 14.8625 2.2238
-16.3705 14.7260 2.2731
-16.5383 14.5973 2.3245
-16.7805 14.5320 2.3872
-16.9503 14.4018 2.4405
-17.1207 14.2710 2.4946
-17.2919 14.1397 2.5496
-17.4637 14.0079 2.6054
-17.9628 14.1323 2.7114
-17.7542 13.6995 2.7113
-17.5499 13.2802 2.7113
-17.3490 12.8732 2.7113
-17.1515 12.4781 2.7113
-16.9572 12.0946 2.7113
-16.9968 11.8829 2.7486
-17.1505 11.7517 2.8049
-17.3047 11.6197 2.8620
-17.1231 11.2654 2.8637
-16.9340 10.9142 2.8637
-16.7479 10.5727 2.8637
-16.5648 10.2405 2.8637
-16.3844 9.9172 2.8637
-16.2068 9.6026 2.8637
-16.0319 9.2964 2.8637
-15.8595 8.9983 2.8637
-15.6898 8.7079 2.8637
-15.5225 8.4251 2.8637
-15.3577 8.1496 2.8637
-15.1952 7.8811 2.8637
-15.0350 7.6194 2.8637
-14.8771 7.3643 2.8637
-14.7214 7.1156 2.8637
-14.5678 6.8731 2.8637
-14.4163 6.6365 2.8637
-14.2670 6.4057 2.8637
-14.1196 6.1805 2.8637
-13.9741 5.9607 2.8637
-13.8306 5.7462 2.8637
-13.6890 5.5368 2.8637
-13.5491 5.3323 2.8637
-13.4111 5.1326 2.8637
-13.2748 4.9375 2.8637
-13.1403 4.7470 2.8637
-13.0074 4.5608 2.8637
-12.8761 4.3789 2.8637
-12.7465 4.2011 2.8637
-12.6184 4.0272 2.8637
-12.4918 3.8573 2.8637
-12.3668 3.6912 2.8637
-12.2432 3.5287 2.8637
-12.1210 3.3698 2.8637
-12.0003 3.2143 2.8637
-11.2487 2.8992 2.7113
-11.1369 2.7583 2.7113
-11.0264 2.6205 2.7113
-10.9172 2.4855 2.7113
-10.8092 2.3534 2.7113
-10.7023 2.2241 2.7113
-10.5965 2.0975 2.7113
-10.4919 1.9736 2.7113
-10.3885 1.8521 2.7113
-10.2860 1.7333 2.7113
-10.1847 1.6168 2.7113
-10.0844 1.5027 2.7113
-9.9851 1.3909 2.7113
-9.8868 1.2814 2.7113
-9.7895 1.1740 2.7113
-9.4098 0.7655 2.7113
-9.6932 1.0688 2.7113
-9.3171 0.6684 2.7113
-9.5978 0.9657 2.7113
-9.2254 0.5731 2.7113
-9.5034 0.8646 2.7113
-9.1345 0.4797 2.7113
-9.0761 0.3895 2.7209
-9.1793 0.0410 2.8633
-9.1702 0.3054 2.7765
-9.0874 -0.0469 2.8630
-9.2662 0.2196 2.8335
-8.9963 -0.1331 2.8627
-9.2720 0.1306 2.8636
-8.9061 -0.2176 2.8624
-8.8167 -0.3006 2.8621
-8.4666 -0.6173 2.8610
-8.7280 -0.3820 2.8618
-8.3809 -0.6929 2.8608
-8.6401 -0.4620 2.8616
-8.2960 -0.7670 2.8605
-8.5530 -0.5404 2.8613
-8.2117 -0.8398 2.8602
-8.5036 20.8680 1.6397
-8.6780 20.7342 1.6601
-8.8515 20.6012 1.6811
-9.0242 20.4687 1.7026
-9.1960 20.3370 1.7248
-9.3670 20.2058 1.7476
-9.5372 20.0752 1.7710
-9.7068 19.9451 1.7950
-9.8756 19.8156 1.8196
-10.0438 19.6866 1.8448
-10.2113 19.5581 1.8706
-10.3783 19.4300 1.8971
-10.5447 19.3024 1.9241
-10.7106 19.1751 1.9518
-10.8760 19.0483 1.9801
-11.0409 18.9218 2.0090
-11.2054 18.7956 2.0386
-11.3694 18.6697 2.0687
-11.5332 18.5442 2.0996
-11.6965 18.4189 2.1310
-11.8596 18.2938 2.1631
-11.9749 18.0972 2.1872
-12.1368 17.9731 2.2204
-12.2996 17.8507 2.2545
-12.5081 17.7938 2.2977
-12.6700 17.6696 2.3331
-12.8318 17.5455 2.3691
-12.9935 17.4215 2.4059
-4.3556 5.7271 0.8089
-13.3166 17.1736 2.4813
-13.4782 17.0496 2.5201
-13.6397 16.9257 2.5596
-13.8013 16.8018 2.5999
-14.3368 17.1244 2.7115
-14.2766 16.7319 2.7113
-14.2154 16.3479 2.7113
-14.1525 15.9712 2.7113
-14.0878 15.6018 2.7113
-14.0216 15.2394 2.7113
-13.9538 14.8841 2.7113
-13.8847 14.5356 2.7113
-13.8931 14.2748 2.7268
-14.0362 14.1548 2.7693
-14.1795 14.0345 2.8124
-14.3229 13.9140 2.8563
-14.2815 13.6168 2.8637
-14.2016 13.2897 2.8637
-14.1209 12.9690 2.8637
-14.0394 12.6545 2.8637
-13.9572 12.3462 2.8637
-13.8744 12.0440 2.8637
-13.7909 11.7476 2.8637
-13.7069 11.4570 2.8637
-13.6224 11.1722 2.8637
-13.5376 10.8928 2.8637
-13.4523 10.6190 2.8637
-13.3667 10.3505 2.8637
-13.2808 10.0872 2.8637
-13.1947 9.8290 2.8637
-13.1084 9.5759 2.8637
-13.0219 9.3276 2.8637
-12.9353 9.0842 2.8637
-12.8485 8.8455 2.8637
-12.7618 8.6114 2.8637
-12.6749 8.3818 2.8637
-12.5881 8.1566 2.8637
-12.5013 7.9357 2.8637
-12.4145 7.7191 2.8637
-12.3279 7.5066 2.8637
-12.2413 7.2982 2.8637
-12.1548 7.0937 2.8637
-12.0685 6.8931 2.8637
-11.9823 6.6964 2.8637
-11.8962 6.5033 2.8637
-11.8104 6.3139 2.8637
-11.7248 6.1280 2.8637
-11.6394 5.9456 2.8637
-11.5542 5.7666 2.8637
-11.4693 5.5910 2.8637
-11.3846 5.4186 2.8637
-11.3002 5.2494 2.8637
-11.2160 5.0834 2.8637
-11.1322 4.9204 2.8637
-11.0486 4.7604 2.8637
-10.9654 4.6034 2.8637
-10.8824 4.4492 2.8637
-10.7998 4.2978 2.8637
-10.7175 4.1492 2.8637
-10.0695 3.7902 2.7113
-9.9922 3.6546 2.7113
-9.9153 3.5213 2.7113
-9.8386 3.3905 2.7113
-9.7623 3.2620 2.7113
-9.6863 3.1359 2.7113
-9.6106 3.0119 2.7113
-9.5353 2.8902 2.7113
-9.4603 2.7706 2.7113
-9.3857 2.6532 2.7113
-9.3114 2.5378 2.7113
-9.2375 2.4244 2.7113
-9.1639 2.3130 2.7113
-9.0906 2.2036 2.7113
-9.0177 2.0960 2.7113
-8.9452 1.9904 2.7113
-8.8730 1.8865 2.7113
-8.8011 1.7845 2.7113
-8.7296 1.6842 2.7113
-8.6585 1.5856 2.7113
-8.5876 1.4887 2.7113
-8.5172 1.3935 2.7113
-8.4470 1.2999 2.7113
-8.3773 1.2079 2.7113
-8.3079 1.1174 2.7113
-8.2459 1.0294 2.7137
-8.3243 0.9589 2.7625
-8.4040 0.8871 2.8125
-8.4851 0.8139 2.8637
-8.4127 0.7261 2.8635
-8.3408 0.6397 2.8632
-8.2692 0.5548 2.8629
-8.1980 0.4713 2.8627
-8.1272 0.3893 2.8624
-8.0567 0.3085 2.8622
-7.9866 0.2292 2.8619
-7.9168 0.1511 2.8617
-7.8475 0.0744 2.8614
-7.7784 -0.0011 2.8612
-7.7097 -0.0753 2.8610
-7.6414 -0.1484 2.8607
-7.5734 -0.2202 2.8605
-7.5058 -0.2908 2.8603
-7.4385 -0.3603 2.8600
-7.3715 -0.4286 2.8598
-7.3049 -0.4958 2.8596
-7.2386 -0.5620 2.8594
-7.1726 -0.6270 2.8591
-8.4544 21.0663 2.7113
-8.5722 20.7977 2.7113
-8.6853 20.5279 2.7113
-8.7939 20.2570 2.7113
-8.8978 19.9854 2.7113
-8.9973 19.7132 2.7113
-9.0923 19.4406 2.7113
-9.1829 19.1678 2.7113
-9.2692 18.8951 2.7113
-9.3512 18.6225 2.7113
-9.4290 18.3502 2.7113
-9.5027 18.0785 2.7113
-9.5724 17.8074 2.7113
-9.6480 17.5550 2.7141
-9.7899 17.4279 2.7365
-9.9361 17.3097 2.7608
-10.0818 17.1919 2.7858
-10.2269 17.0743 2.8114
-10.3716 16.9569 2.8376
-10.5131 16.8353 2.8637
-10.5556 16.5594 2.8637
-10.5946 16.2854 2.8637
-10.6302 16.0132 2.8637
-10.6624 15.7431 2.8637
-10.6914 15.4750 2.8637
-10.7173 15.2091 2.8637
-10.7401 14.9454 2.8637
-10.7599 14.6839 2.8637
-10.7768 14.4248 2.8637
-4.3595 5.7239 1.1569
-10.8023 13.9138 2.8637
-10.8110 13.6620 2.8637
-10.8171 13.4127 2.8637
-10.8208 13.1659 2.8637
-10.8220 12.9218 2.8637
-10.8209 12.6802 2.8637
-10.8175 12.4413 2.8637
-10.8120 12.2050 2.8637
-10.8043 11.9713 2.8637
-10.7946 11.7404 2.8637
-10.7829 11.5121 2.8637
-10.7693 11.2866 2.8637
-10.7538 11.0637 2.8637
-10.7366 10.8435 2.8637
-10.7176 10.6261 2.8637
-10.6970 10.4113 2.8637
-10.6748 10.1992 2.8637
-10.6510 9.9898 2.8637
-10.6257 9.7831 2.8637
-10.5991 9.5790 2.8637
-10.5710 9.3776 2.8637
-10.5416 9.1789 2.8637
-10.5110 8.9828 2.8637
-10.4791 8.7892 2.8637
-10.4460 8.5983 2.8637
-10.4119 8.4100 2.8637
-10.3766 8.2242 2.8637
-10.3403 8.0409 2.8637
-10.3030 7.8602 2.8637
-10.2648 7.6819 2.8637
-10.2256 7.5062 2.8637
-10.1856 7.3328 2.8637
-10.1447 7.1619 2.8637
-10.1030 6.9934 2.8637
-10.0605 6.8273 2.8637
-10.0173 6.6635 2.8637
-9.9734 6.5020 2.8637
-9.9289 6.3428 2.8637
-9.8837 6.1859 2.8637
-9.8379 6.0313 2.8637
-9.7915 5.8788 2.8637
-9.7446 5.7286 2.8637
-9.6971 5.5805 2.8637
-9.6492 5.4346 2.8637
-9.6008 5.2907 2.8637
-9.5519 5.1490 2.8637
-8.9968 4.7428 2.7113
-8.9499 4.6124 2.7113
-8.9025 4.4839 2.7113
-8.8547 4.3573 2.7113
-8.8066 4.2326 2.7113
-8.7583 4.1097 2.7113
-8.7096 3.9886 2.7113
-8.6607 3.8693 2.7113
-8.6115 3.7517 2.7113
-8.5621 3.6358 2.7113
-8.5125 3.5216 2.7113
-8.4627 3.4091 2.7113
-8.4127 3.2982 2.7113
-8.2109 2.8708 2.7113
-8.3625 3.1890 2.7113
-8.1602 2.7679 2.7113
-8.3121 3.0814 2.7113
-8.1093 2.6664 2.7113
-8.2616 2.9753 2.7113
-8.0583 2.5665 2.7113
-8.0072 2.4680 2.7113
-7.8022 2.0882 2.7113
-7.9561 2.3709 2.7113
-7.7508 1.9967 2.7113
-7.9048 2.2753 2.7113
-7.5963 1.7302 2.7113
-7.6993 1.9066 2.7113
-7.8535 2.1811 2.7113
-7.5449 1.6440 2.7113
-7.6478 1.8178 2.7113
-7.6755 1.4465 2.8160
-7.5404 1.5688 2.7284
-7.5863 1.1347 2.8630
-7.7445 1.3839 2.8612
-7.6075 1.5081 2.7717
-7.5314 1.0536 2.8628
-7.6963 1.3004 2.8635
-7.3670 0.8176 2.8621
-7.4766 0.9738 2.8626
-7.6413 1.2169 2.8633
-7.3124 0.7412 2.8619
-7.4218 0.8951 2.8624
-7.1488 0.5187 2.8613
-7.2578 0.6659 2.8617
-6.9318 0.2370 2.8604
-7.0944 0.4467 2.8610
-7.2032 0.5918 2.8615
-6.8778 0.1692 2.8602
-7.0401 0.3758 2.8608
-6.7164 -0.0285 2.8596
-6.8239 0.1023 2.8600
-6.9859 0.3059 2.8606
-6.6627 -0.0925 2.8594
-6.7701 0.0364 2.8598
-6.6092 -0.1555 2.8592
-6.5025 -0.2789 2.8588
-6.5558 -0.2176 2.8590
-6.4493 -0.3392 2.8586
-6.3962 -0.3986 2.8585
-6.3432 -0.4572 2.8583
-6.3150 15.9832 2.8637
-6.4197 15.8214 2.8637
-6.5215 15.6581 2.8637
-6.6205 15.4933 2.8637
-6.7166 15.3272 2.8637
-6.8098 15.1598 2.8637
-6.9001 14.9914 2.8637
-6.9876 14.8218 2.8637
-7.0723 14.6514 2.8637
-7.1541 14.4802 2.8637
-7.2332 14.3082 2.8637
-7.3095 14.1356 2.8637
-7.3830 13.9625 2.8637
-7.4539 13.7891 2.8637
-7.5220 13.6152 2.8637
-7.5874 13.4411 2.8637
-7.6502 13.2669 2.8637
-7.7104 13.0925 2.8637
-7.7681 12.9182 2.8637
-7.8231 12.7439 2.8637
-7.8757 12.5698 2.8637
-7.9258 12.3960 2.8637
-7.9734 12.2224 2.8637
-8.0187 12.0491 2.8637
-8.0615 11.8764 2.8637
-8.1021 11.7041 2.8637
-8.1403 11.5323 2.8637
-8.1763 11.3611 2.8637
-8.2101 11.1906 2.8637
-4.3400 5.8034 1.5080
-4.3618 5.7226 1.5102
-8.2987 10.6836 2.8637
-8.3240 10.5162 2.8637
-8.3474 10.3497 2.8637
-8.3688 10.1841 2.8637
-8.3882 10.0195 2.8637
-8.4058 9.8559 2.8637
-8.4215 9.6934 2.8637
-8.4354 9.5319 2.8637
-8.4476 9.3715 2.8637
-8.4580 9.2122 2.8637
-8.4667 9.0541 2.8637
-8.4738 8.8972 2.8637
-8.4793 8.7414 2.8637
-8.4831 8.5869 2.8637
-8.4855 8.4336 2.8637
-8.4864 8.2816 2.8637
-8.4858 8.1308 2.8637
-8.4838 7.9814 2.8637
-8.4804 7.8332 2.8637
-8.4756 7.6864 2.8637
-8.4696 7.5408 2.8637
-8.4622 7.3966 2.8637
-8.4536 7.2538 2.8637
-8.4438 7.1123 2.8637
-8.4328 6.9721 2.8637
-8.4207 6.8333 2.8637
-8.4074 6.6958 2.8637
-8.3931 6.5598 2.8637
-8.3777 6.4251 2.8637
-8.3613 6.2917 2.8637
-8.3438 6.1597 2.8637
-8.3254 6.0291 2.8637
-7.8640 5.5860 2.7113
-7.8449 5.4649 2.7113
-7.8249 5.3451 2.7113
-7.8041 5.2266 2.7113
-7.7825 5.1094 2.7113
-7.7601 4.9935 2.7113
-7.7371 4.8788 2.7113
-7.7132 4.7655 2.7113
-7.6887 4.6533 2.7113
-7.6635 4.5425 2.7113
-7.6377 4.4329 2.7113
-7.6112 4.3245 2.7113
-7.5842 4.2174 2.7113
-7.5565 4.1115 2.7113
-7.5282 4.0068 2.7113
-7.4995 3.9034 2.7113
-7.4701 3.8011 2.7113
-7.4403 3.7001 2.7113
-7.4100 3.6002 2.7113
-7.3791 3.5015 2.7113
-7.3479 3.4040 2.7113
-7.3161 3.3077 2.7113
-7.2839 3.2125 2.7113
-7.2514 3.1184 2.7113
-7.2184 3.0255 2.7113
-7.1851 2.9337 2.7113
-7.1513 2.8430 2.7113
-7.1172 2.7535 2.7113
-7.0828 2.6650 2.7113
-7.0480 2.5776 2.7113
-7.0129 2.4912 2.7113
-6.9775 2.4060 2.7113
-6.9418 2.3218 2.7113
-6.9058 2.2386 2.7113
-6.8696 2.1564 2.7113
-6.8686 2.0861 2.7254
-6.9266 2.0335 2.7633
-6.9854 1.9801 2.8020
-7.0448 1.9262 2.8415
-7.0601 1.8597 2.8636
-7.0197 1.7791 2.8634
-6.9792 1.6995 2.8632
-6.9385 1.6210 2.8630
-6.8977 1.5434 2.8628
-6.8566 1.4668 2.8626
-6.8153 1.3913 2.8624
-6.7740 1.3166 2.8622
-6.7324 1.2430 2.8620
-6.6907 1.1702 2.8618
-6.6489 1.0985 2.8616
-6.6070 1.0276 2.8614
-6.5649 0.9577 2.8612
-6.5227 0.8886 2.8610
-6.4804 0.8205 2.8609
-6.4380 0.7532 2.8607
-6.3955 0.6868 2.8605
-6.3529 0.6213 2.8603
-6.3102 0.5566 2.8601
-6.2675 0.4928 2.8599
-6.2246 0.4298 2.8598
-6.1817 0.3676 2.8596
-6.1388 0.3062 2.8594
-6.0957 0.2456 2.8592
-6.0527 0.1859 2.8591
-6.0095 0.1269 2.8589
-5.9664 0.0687 2.8587
-5.9232 0.0112 2.8585
-5.8799 -0.0455 2.8584
-5.8367 -0.1014 2.8582
-5.7933 -0.1567 2.8580
-5.7500 -0.2111 2.8579
-5.7067 -0.2649 2.8577
-5.6633 -0.3180 2.8576
-4.8369 12.4399 2.8637
-4.9244 12.3329 2.8637
-5.0099 12.2246 2.8637
-5.0936 12.1150 2.8637
-5.1754 12.0042 2.8637
-5.2553 11.8922 2.8637
-5.3332 11.7791 2.8637
-5.4093 11.6649 2.8637
-5.4834 11.5498 2.8637
-5.5557 11.4337 2.8637
-5.6260 11.3168 2.8637
-5.6945 11.1991 2.8637
-5.7610 11.0807 2.8637
-5.8257 10.9616 2.8637
-5.8884 10.8419 2.8637
-5.9493 10.7216 2.8637
-6.0083 10.6009 2.8637
-6.0655 10.4796 2.8637
-6.1208 10.3580 2.8637
-6.1743 10.2361 2.8637
-6.2259 10.1138 2.8637
-6.2758 9.9913 2.8637
-6.3239 9.8686 2.8637
-6.3701 9.7458 2.8637
-6.4147 9.6229 2.8637
-6.4575 9.4999 2.8637
-6.4986 9.3769 2.8637
-6.5379 9.2539 2.8637
-6.5756 9.1310 2.8637
-6.6116 9.0082 2.8637
-4.3380 5.7999 1.8692
-4.3611 5.7221 1.8699
-6.7099 8.6409 2.8637
-6.7395 8.5190 2.8637
-6.7676 8.3973 2.8637
-6.7940 8.2760 2.8637
-6.8190 8.1550 2.8637
-6.8425 8.0344 2.8637
-6.8645 7.9142 2.8637
-6.8851 7.7945 2.8637
-6.9043 7.6752 2.8637
-6.9220 7.5565 2.8637
-6.9384 7.4382 2.8637
-6.9534 7.3205 2.8637
-6.9671 7.2034 2.8637
-6.9795 7.0869 2.8637
-6.6185 6.6000 2.7113
-6.6279 6.4908 2.7113
-6.6361 6.3822 2.7113
-6.6431 6.2743 2.7113
-6.6490 6.1670 2.7113
-6.6538 6.0604 2.7113
-6.6575 5.9545 2.7113
-6.6601 5.8492 2.7113
-6.6617 5.7446 2.7113
-6.6623 5.6408 2.7113
-6.6619 5.5376 2.7113
-6.6605 5.4352 2.7113
-6.6582 5.3336 2.7113
-6.6549 5.2327 2.7113
-6.6507 5.1325 2.7113
-6.6456 5.0331 2.7113
-6.6397 4.9345 2.7113
-6.6328 4.8367 2.7113
-6.6252 4.7396 2.7113
-6.6167 4.6433 2.7113
-6.6074 4.5479 2.7113
-6.5973 4.4532 2.7113
-6.5865 4.3593 2.7113
-6.5750 4.2662 2.7113
-6.5627 4.1740 2.7113
-6.5497 4.0825 2.7113
-6.5360 3.9919 2.7113
-6.5216 3.9020 2.7113
-6.5066 3.8130 2.7113
-6.4908 3.7248 2.7113
-6.4746 3.6374 2.7113
-6.4577 3.5508 2.7113
-6.4401 3.4651 2.7113
-6.4220 3.3801 2.7113
-6.4034 3.2959 2.7113
-6.3842 3.2126 2.7113
-6.3644 3.1301 2.7113
-6.3442 3.0483 2.7113
-6.3234 2.9674 2.7113
-6.3021 2.8873 2.7113
-6.2803 2.8080 2.7113
-6.2581 2.7295 2.7113
-6.2354 2.6517 2.7113
-6.2271 2.5810 2.7178
-6.2782 2.5348 2.7505
-6.3297 2.4881 2.7839
-6.3817 2.4410 2.8179
-6.4342 2.3934 2.8526
-6.4324 2.3255 2.8636
-6.4050 2.2490 2.8634
-6.3772 2.1733 2.8632
-6.3490 2.0985 2.8631
-6.3205 2.0244 2.8629
-6.2917 1.9511 2.8627
-6.2625 1.8787 2.8625
-6.2330 1.8070 2.8624
-6.2031 1.7361 2.8622
-6.1730 1.6660 2.8620
-6.1425 1.5967 2.8618
-6.1118 1.5281 2.8617
-6.0808 1.4603 2.8615
-6.0495 1.3932 2.8613
-6.0180 1.3269 2.8611
-5.9862 1.2614 2.8610
-5.9542 1.1966 2.8608
-5.9219 1.1325 2.8606
-5.8894 1.0691 2.8605
-5.8566 1.0065 2.8603
-5.8237 0.9446 2.8601
-5.7906 0.8833 2.8600
-5.7572 0.8228 2.8598
-5.7236 0.7630 2.8597
-5.6899 0.7039 2.8595
-5.6560 0.6455 2.8593
-5.6219 0.5877 2.8592
-5.5876 0.5306 2.8590
-5.5532 0.4742 2.8589
-5.5187 0.4184 2.8587
-5.4839 0.3633 2.8586
-5.4491 0.3089 2.8584
-5.4140 0.2551 2.8583
-5.3789 0.2019 2.8581
-5.3436 0.1493 2.8580
-5.3082 0.0974 2.8578
-5.2727 0.0461 2.8577
-5.2370 -0.0046 2.8575
-5.2013 -0.0546 2.8574
-5.1654 -0.1041 2.8572
-5.1295 -0.1530 2.8571
-5.0934 -0.2013 2.8570
-3.8831 10.1536 2.8637
-3.9571 10.0766 2.8637
-4.0298 9.9984 2.8637
-4.1011 9.9191 2.8637
-4.1711 9.8387 2.8637
-4.2397 9.7574 2.8637
-4.3070 9.6751 2.8637
-4.3729 9.5918 2.8637
-4.4374 9.5077 2.8637
-4.5005 9.4227 2.8637
-4.5623 9.3369 2.8637
-4.6227 9.2504 2.8637
-4.9039 8.8076 2.8637
-4.6817 9.1631 2.8637
-4.9560 8.7173 2.8637
-5.0067 8.6265 2.8637
-5.0560 8.5353 2.8637
-4.7393 9.0752 2.8637
-4.8324 7.9943 2.7113
-4.8765 7.9071 2.7113
-4.9194 7.8196 2.7113
-4.9609 7.7318 2.7113
-4.7956 8.9866 2.8637
-5.0012 7.6437 2.7113
-5.0402 7.5555 2.7113
-5.0780 7.4669 2.7113
-5.1145 7.3783 2.7113
-4.8504 8.8974 2.8637
-5.1498 7.2894 2.7113
-5.1839 7.2005 2.7113
-5.2167 7.1114 2.7113
-4.3381 5.8044 2.2411
-4.3569 5.7224 2.2378
-5.3887 6.5768 2.7113
-5.4133 6.4878 2.7113
-5.4368 6.3990 2.7113
-5.4591 6.3103 2.7113
-5.3080 6.8440 2.7113
-5.4804 6.2217 2.7113
-5.5006 6.1333 2.7113
-5.5197 6.0452 2.7113
-5.5377 5.9572 2.7113
-5.5547 5.8694 2.7113
-5.3361 6.7549 2.7113
-5.5706 5.7820 2.7113
-5.5856 5.6947 2.7113
-5.5995 5.6078 2.7113
-5.6124 5.5212 2.7113
-5.3630 6.6658 2.7113
-5.6243 5.4348 2.7113
-5.6353 5.3488 2.7113
-5.6454 5.2632 2.7113
-5.6818 4.8407 2.7113
-5.6545 5.1779 2.7113
-5.6864 4.7574 2.7113
-5.6902 4.6745 2.7113
-5.6932 4.5921 2.7113
-5.6959 4.1870 2.7113
-5.6626 5.0930 2.7113
-5.6941 4.1075 2.7113
-5.6953 4.5101 2.7113
-5.6916 4.0284 2.7113
-5.6884 3.9499 2.7113
-5.6844 3.8719 2.7113
-5.6699 5.0085 2.7113
-5.6798 3.7943 2.7113
-5.6966 4.4287 2.7113
-5.6745 3.7174 2.7113
-5.6685 3.6409 2.7113
-5.6289 3.2668 2.7113
-5.6763 4.9244 2.7113
-5.6191 3.1937 2.7113
-5.6971 4.3476 2.7113
-5.6088 3.1211 2.7113
-5.6618 3.5650 2.7113
-5.6100 3.0556 2.7172
-5.8420 2.8468 2.8616
-5.6558 3.0145 2.7450
-5.8311 2.7763 2.8636
-5.6969 4.2671 2.7113
-5.8154 2.7043 2.8634
-5.6545 3.4896 2.7113
-5.7992 2.6329 2.8633
-5.7109 2.2850 2.8625
-5.7019 2.9731 2.7734
-5.6918 2.2173 2.8623
-5.7825 2.5621 2.8631
-5.6724 2.1501 2.8622
-5.6466 3.4148 2.7113
-5.6525 2.0836 2.8620
-5.6322 2.0177 2.8619
-5.5471 1.7602 2.8613
-5.7483 2.9314 2.8022
-5.5249 1.6973 2.8611
-5.7653 2.4919 2.8630
-5.5023 1.6351 2.8610
-5.4794 1.5734 2.8608
-5.6380 3.3406 2.7113
-5.4562 1.5123 2.8607
-5.6115 1.9524 2.8617
-5.4326 1.4518 2.8605
-5.4087 1.3919 2.8604
-5.7950 2.8893 2.8317
-5.3845 1.3326 2.8602
-5.7476 2.4223 2.8628
-5.1537 0.8248 2.8590
-5.1267 0.7712 2.8588
-5.3600 1.2739 2.8601
-5.0996 0.7182 2.8587
-5.5904 1.8878 2.8616
-5.0721 0.6657 2.8585
-5.0445 0.6138 2.8584
-5.2590 1.0448 2.8595
-5.0167 0.5624 2.8583
-5.7295 2.3533 2.8626
-4.9886 0.5116 2.8581
-5.3351 1.2157 2.8600
-4.9603 0.4613 2.8580
-4.8161 0.2177 2.8573
-5.5689 1.8237 2.8614
-4.7867 0.1705 2.8572
-5.2330 0.9889 2.8594
-4.7572 0.1239 2.8571
-4.7274 0.0778 2.8570
-4.9319 0.4115 2.8579
-4.6976 0.0322 2.8568
-5.3100 1.1582 2.8598
-5.2068 0.9337 2.8592
-4.9032 0.3622 2.8577
-4.6675 -0.0129 2.8567
-4.6373 -0.0576 2.8566
-5.2846 1.1012 2.8597
-5.1804 0.8790 2.8591
-4.8743 0.3135 2.8576
-4.6070 -0.1017 2.8564
-4.8453 0.2654 2.8575
