ply
format ascii 1.0
element vertex 1832
property float32 x
property float32 y
property float32 z
end_header
-10.3853 3.6801 -3.1615
-10.5077 3.4905 -3.1126
-10.4464 3.5855 -3.1370
-10.2953 3.3071 -3.0082
-10.3917 3.2250 -2.9951
-10.0090 2.8907 -2.8067
-9.8818 2.9600 -2.8094
-10.1386 2.8201 -2.8042
-10.2708 2.7482 -2.8018
-11.1347 2.7457 -2.9546
-10.4057 2.6748 -2.7997
-11.3105 2.6714 -2.9598
-11.8416 2.4314 -2.9715
-11.6472 2.6305 -3.0057
-11.8847 2.3192 -2.9406
-11.7754 2.5383 -2.9966
-11.4271 2.1141 -2.7877
-11.1722 1.8419 -2.6491
-11.3751 1.9897 -2.7359
-11.2741 1.7459 -2.6352
-11.0098 1.3768 -2.4642
-11.2248 1.6263 -2.5862
-11.5625 1.3318 -2.5503
-10.9708 1.4805 -2.4914
-11.6883 1.2312 -2.5405
-11.2781 0.9669 -2.3796
-11.5719 1.1054 -2.4782
-11.7469 0.8924 -2.4417
-11.2485 0.5263 -2.2339
-11.4774 0.7601 -2.3499
-10.8601 0.4028 -2.1237
-11.2206 0.6339 -2.2627
-10.7672 0.2951 -2.0731
-10.5863 0.0855 -1.9750
-10.4982 -0.0166 -1.9276
-10.6759 0.1894 -2.0235
-10.4117 -0.1170 -1.8812
-24.7175 -6.0956 -2.8387
-25.1082 -6.7047 -2.7527
-24.5680 -6.3090 -2.7574
-24.4049 -6.7679 -2.6121
-25.4916 -7.3328 -2.6624
-25.3457 -7.8194 -2.5160
-25.4184 -7.5761 -2.5889
-24.7799 -7.9055 -2.3959
-24.1673 -7.9658 -2.2744
-25.3646 -8.9025 -2.2566
-25.0857 -9.0753 -2.1673
-25.3057 -8.6105 -2.3164
-24.9102 -9.2825 -2.0881
-40.3643 -15.9283 -3.1763
-24.7360 -9.4884 -2.0100
-38.6125 -15.6661 -2.9393
-38.9482 -17.1219 -2.6646
-40.2688 -16.7892 -2.9620
-38.7987 -17.5018 -2.5545
-39.8323 -17.0570 -2.8275
-39.7271 -18.3809 -2.5133
-39.0041 -18.9626 -2.2661
-39.2811 -18.6338 -2.3837
-34.8774 -30.7235 0.6518
-32.2109 -28.9333 0.6994
-29.8673 -27.3556 0.7398
-27.7924 -25.9550 0.7742
-25.9678 -24.7268 0.8044
-24.3535 -23.6443 0.8312
-10.4268 3.5003 -2.5353
-10.4876 3.4060 -2.5103
-10.2785 3.2265 -2.4218
-9.8692 2.9916 -2.2888
-10.0275 2.9323 -2.2888
-10.1899 2.8714 -2.2890
-10.3566 2.8089 -2.2893
-10.0631 2.6236 -2.1887
-10.1659 2.5442 -2.1753
-10.2704 2.4637 -2.1619
-10.3764 2.3820 -2.1485
-10.4842 2.2991 -2.1350
-10.5938 2.2148 -2.1215
-10.7053 2.1292 -2.1079
-11.2132 2.1167 -2.1707
-11.4569 2.0472 -2.1801
-11.3196 1.9090 -2.1170
-11.1340 1.7664 -2.0462
-11.1250 1.6541 -2.0088
-11.1163 1.5425 -1.9717
-11.1079 1.4314 -1.9351
-10.9020 1.2973 -1.8650
-10.6414 1.1616 -1.7872
-11.5326 1.1458 -1.9012
-11.5910 1.0382 -1.8752
-11.0720 0.8836 -1.7574
-11.5803 0.8114 -1.8029
-11.3567 0.6853 -1.7339
-10.8828 0.5510 -1.6289
-10.7895 0.4417 -1.5828
-10.6979 0.3344 -1.5377
-10.6080 0.2289 -1.4936
-10.5196 0.1254 -1.4503
-10.4327 0.0236 -1.4080
-49.1039 -0.3632 -6.4847
-47.1272 -0.8034 -6.0878
-46.2959 -1.2361 -5.8476
-46.7880 -1.7008 -5.7761
-46.3761 -2.1337 -5.5934
-47.2683 -2.6315 -5.5672
-47.6636 -3.1145 -5.4793
-17.9263 -2.9202 -1.5642
-24.6508 -6.2418 -1.5482
-24.9920 -7.3615 -1.2989
-24.8200 -6.5392 -1.4916
-25.6425 -7.8218 -1.2632
-24.9680 -6.8355 -1.4329
-24.8323 -7.8364 -1.1560
-24.9560 -8.1402 -1.0940
-24.6938 -7.0163 -1.3503
-25.0940 -8.4531 -1.0318
-33.0276 -12.9257 -0.9066
-25.1318 -8.7359 -0.9649
-24.9504 -8.9429 -0.8899
-39.8322 -16.0328 -0.9838
-24.7758 -9.1503 -0.8160
-39.8741 -16.4977 -0.8748
-39.0644 -16.6052 -0.7490
-38.9572 -18.3639 -0.3119
-39.4261 -17.2094 -0.6464
-39.1850 -17.5558 -0.5333
-39.2247 -18.0296 -0.4241
-34.4867 -29.7690 2.7125
-37.8348 -31.3914 2.7125
-36.0933 -30.5460 2.7125
-32.9993 -29.0524 2.7125
-31.6182 -28.3898 2.7125
-29.8887 -27.3696 2.6729
-27.8033 -25.9646 2.5889
-25.9608 -24.7242 2.5145
-10.4095 3.4154 -1.9520
-10.4697 3.3218 -1.9264
-10.5303 3.2277 -1.9008
-9.8490 2.9136 -1.7437
-10.0057 2.8538 -1.7371
-10.1665 2.7924 -1.7305
-10.3316 2.7294 -1.7238
-10.5041 2.6655 -1.7175
-10.6460 2.5912 -1.7054
-10.7195 2.4985 -1.6820
-10.7937 2.4051 -1.6584
-10.8686 2.3109 -1.6348
-10.3211 2.0896 -1.5193
-10.4273 2.0056 -1.5017
-10.5352 1.9203 -1.4839
-10.6451 1.8336 -1.4659
-10.9805 1.7817 -1.4778
-11.0239 1.6790 -1.4494
-11.6389 1.6572 -1.4944
-11.0341 1.4620 -1.3830
-11.0881 1.3599 -1.3560
-10.8649 1.2257 -1.2958
-11.4948 1.1840 -1.3362
-11.2829 1.0519 -1.2778
-10.9327 0.9125 -1.2056
-11.4901 0.8472 -1.2330
-10.9054 0.6980 -1.1380
-10.8116 0.5871 -1.0965
-10.7197 0.4782 -1.0558
-10.6294 0.3713 -1.0159
-10.5407 0.2662 -0.9768
-10.4535 0.1630 -0.9385
-49.5116 0.2938 -4.3026
-46.6745 -0.6243 -3.7884
-46.4139 -1.0689 -3.6348
-47.6320 -1.5569 -3.5947
-48.0559 -2.0350 -3.4903
-47.9143 -2.4922 -3.3443
-48.1182 -2.9683 -3.2226
-17.9097 -2.8536 -0.6973
-25.3626 -6.8575 -0.2048
-25.3364 -7.1134 -0.1329
-25.3102 -7.3704 -0.0609
-25.2546 -7.6194 0.0112
-25.1464 -7.8524 0.0829
-25.0665 -8.0941 0.1545
-24.8971 -8.3058 0.2250
-24.7290 -8.5162 0.2948
-33.0658 -12.8381 0.7797
-43.0984 -23.8935 2.8649
-41.1004 -23.3119 2.8649
-39.2646 -22.7790 2.8649
-37.5713 -22.2890 2.8649
-36.0046 -21.8370 2.8649
-34.5501 -21.4188 2.8649
-33.1962 -21.0309 2.8649
-31.9323 -20.6700 2.8649
-30.7494 -20.3336 2.8649
-29.6398 -20.0192 2.8649
-28.5967 -19.7248 2.8649
-27.6138 -19.4487 2.8649
-26.6862 -19.1892 2.8649
-25.8087 -18.9448 2.8649
-24.9776 -18.7144 2.8649
-24.1887 -18.4969 2.8649
-23.4391 -18.2911 2.8649
-22.7254 -18.0963 2.8649
-22.0450 -17.9116 2.8649
-21.3956 -17.7362 2.8649
-20.7748 -17.5696 2.8649
-20.1807 -17.4111 2.8649
-19.6115 -17.2601 2.8649
-19.0654 -17.1162 2.8649
-18.5411 -16.9789 2.8649
-18.0370 -16.8479 2.8649
-10.4746 3.1331 -1.3255
-10.5203 3.0353 -1.2971
-9.9872 2.7763 -1.1991
-10.1465 2.7144 -1.1858
-10.3101 2.6509 -1.1721
-10.4781 2.5857 -1.1581
-10.3791 2.4544 -1.1146
-10.4494 2.3640 -1.0896
-10.5203 2.2728 -1.0644
-10.5919 2.1809 -1.0390
-10.6642 2.0880 -1.0134
-10.7372 1.9943 -0.9876
-10.8109 1.8997 -0.9617
-10.8854 1.8042 -0.9355
-11.1739 1.7409 -0.9267
-11.1409 1.6254 -0.8907
-11.1082 1.5109 -0.8550
-11.0759 1.3974 -0.8198
-10.8295 1.2599 -0.7696
-10.5069 1.1195 -0.7158
-11.3567 1.0990 -0.7404
-10.9217 0.9504 -0.6802
-10.8313 0.8371 -0.6431
-10.7427 0.7258 -0.6067
-10.6556 0.6166 -0.5709
-10.5701 0.5092 -0.5359
-10.4861 0.4037 -0.5014
-25.1248 -7.7649 1.3337
-43.8873 -15.4537 2.8649
-46.0567 -15.7165 2.8649
-41.9019 -15.2137 2.8649
-37.9454 -14.1961 2.7125
-34.8782 -13.8278 2.7125
-36.3524 -14.0046 2.7125
-33.5098 -13.6642 2.7125
-31.6162 -13.9832 2.8649
-32.2359 -13.5124 2.7125
-30.5140 -13.8530 2.8649
-31.0470 -13.3711 2.7125
-29.4780 -13.7312 2.8649
-27.5810 -13.5093 2.8649
-28.5020 -13.6168 2.8649
-26.7101 -13.4080 2.8649
-24.3588 -13.1367 2.8649
-25.8851 -13.3124 2.8649
-23.6512 -13.0558 2.8649
-25.1025 -13.2221 2.8649
-22.9768 -12.9790 2.8649
-21.7183 -12.8368 2.8649
-22.3332 -12.9061 2.8649
-21.1300 -12.7708 2.8649
-19.5077 -12.5907 2.8649
-20.5665 -12.7079 2.8649
-19.0093 -12.5359 2.8649
-20.0263 -12.6479 2.8649
-18.5300 -12.4836 2.8649
-17.6238 -12.3856 2.8649
-18.0685 -12.4335 2.8649
-17.1948 -12.3396 2.8649
-15.9937 -12.2124 2.8649
-16.7807 -12.2954 2.8649
-15.6193 -12.1733 2.8649
-16.3806 -12.2531 2.8649
-15.2568 -12.1357 2.8649
-14.9054 -12.0996 2.8649
-14.5646 -12.0648 2.8649
-14.2339 -12.0312 2.8649
-13.9128 -11.9989 2.8649
-13.5978 -11.9653 2.8643
-13.2916 -11.9327 2.8637
-12.9950 -11.9024 2.8633
-44.1383 18.6998 -4.9346
-44.5090 18.3462 -4.8279
-44.8826 17.9897 -4.7203
-45.2592 17.6302 -4.6116
-45.6391 17.2675 -4.5020
-46.0222 16.9016 -4.3914
-46.4181 16.5357 -4.2805
-46.8268 16.1693 -4.1693
-47.2396 15.7991 -4.0568
-11.4030 2.9695 -0.7332
-10.0388 2.5106 -0.6152
-10.1615 2.4368 -0.5923
-10.2865 2.3616 -0.5688
-10.4141 2.2849 -0.5449
-10.5442 2.2067 -0.5205
-10.5520 2.1019 -0.4897
-10.6912 2.0222 -0.4647
-10.8335 1.9408 -0.4392
-10.8835 1.8412 -0.4094
-11.0665 1.7623 -0.3841
-11.0043 1.6435 -0.3500
-11.0447 1.5405 -0.3193
-11.0853 1.4371 -0.2885
-11.0450 1.3234 -0.2556
-10.8897 1.1982 -0.2207
-10.7998 1.0828 -0.1879
-10.7116 0.9696 -0.1557
-10.6250 0.8584 -0.1240
-10.5399 0.7491 -0.0929
-10.4563 0.6418 -0.0623
-38.7083 0.5043 0.3208
-39.2615 0.1324 0.4373
-39.8307 -0.2502 0.5571
-40.4168 -0.6442 0.6806
-41.0207 -1.0501 0.8078
-41.4846 -1.4630 0.9355
-42.2778 -1.8999 1.0743
-42.9406 -2.3455 1.2142
-43.6254 -2.8058 1.3587
-44.3333 -3.2817 1.5082
-45.0659 -3.7741 1.6629
-45.6499 -4.2677 1.8162
-46.6226 -4.8137 1.9899
-47.4381 -5.3619 2.1623
-48.2848 -5.9310 2.3414
-49.1645 -6.5224 2.5275
-47.3584 -7.2180 2.7125
-17.9096 -2.9073 1.0786
-45.3414 -7.8117 2.8649
-43.3044 -7.8934 2.8649
-41.4347 -7.9682 2.8649
-39.7125 -8.0370 2.8649
-38.1206 -8.1003 2.8649
-36.6444 -8.1589 2.8649
-35.2715 -8.2133 2.8649
-33.9912 -8.2638 2.8649
-32.7942 -8.3110 2.8649
-31.6724 -8.3550 2.8649
-30.6187 -8.3962 2.8649
-28.0509 -7.9862 2.7125
-27.1653 -8.0206 2.7125
-25.0776 -7.6704 2.5836
-25.5365 -8.0835 2.7125
-24.7857 -8.1124 2.7125
-24.0726 -8.1397 2.7125
-23.3945 -8.1656 2.7125
-23.4579 -8.4455 2.7970
-23.3764 -8.6749 2.8649
-22.7552 -8.6983 2.8649
-22.1613 -8.7206 2.8649
-21.5928 -8.7418 2.8649
-21.0481 -8.7620 2.8649
-20.5255 -8.7813 2.8649
-20.0236 -8.7998 2.8649
-19.5412 -8.8175 2.8649
-19.0770 -8.8344 2.8649
-18.6299 -8.8506 2.8649
-18.1990 -8.8661 2.8649
-17.7832 -8.8810 2.8649
-17.3817 -8.8953 2.8649
-16.9938 -8.9091 2.8649
-16.6186 -8.9223 2.8649
-16.2544 -8.9344 2.8647
-15.9019 -8.9461 2.8645
-15.5603 -8.9574 2.8644
-15.2290 -8.9683 2.8642
-14.9076 -8.9788 2.8641
-14.5955 -8.9890 2.8639
-14.2922 -8.9987 2.8638
-13.9974 -9.0082 2.8637
-13.7106 -9.0173 2.8635
-13.4315 -9.0261 2.8634
-13.1597 -9.0346 2.8633
-12.8948 -9.0428 2.8632
-12.6366 -9.0507 2.8631
-12.3847 -9.0584 2.8629
-12.1362 -9.0637 2.8622
-11.8881 -9.0647 2.8601
-11.6430 -9.0632 2.8573
-11.4007 -9.0591 2.8538
-11.1601 -9.0515 2.8493
-10.9344 -9.0515 2.8472
-10.7204 -9.0570 2.8469
-10.5110 -9.0623 2.8466
-10.3059 -9.0675 2.8463
-10.1049 -9.0725 2.8461
-41.0854 21.9570 -3.6478
-40.5897 21.1855 -3.4692
-39.6952 20.2286 -3.2623
-39.9366 19.8636 -3.1519
-40.2660 19.5405 -3.0477
-40.5973 19.2151 -2.9425
-40.9369 18.8904 -2.8368
-41.2870 18.5670 -2.7306
-41.6397 18.2410 -2.6232
-41.6154 17.7502 -2.4920
-42.4093 17.6038 -2.4082
-42.9761 17.3520 -2.3082
-43.3512 17.0160 -2.1958
-43.8190 16.7108 -2.0862
-44.2932 16.4014 -1.9749
-44.7741 16.0877 -1.8617
-45.2619 15.7694 -1.7466
-45.7569 15.4464 -1.6296
-46.2593 15.1186 -1.5104
-46.7055 14.7656 -1.3872
-46.9054 14.3309 -1.2554
-47.0816 13.8882 -1.1224
-47.2573 13.4446 -0.9889
-47.4854 13.0145 -0.8558
-47.7216 12.5845 -0.7220
-47.5751 12.0554 -0.5826
-11.0968 2.4721 -0.0404
-11.0853 2.3574 -0.0087
-11.0738 2.2434 0.0228
-10.3360 1.9903 0.0507
-10.4632 1.9102 0.0810
-10.5929 1.8285 0.1120
-11.0003 1.7896 0.1475
-11.0322 1.6858 0.1791
-10.9489 1.5651 0.2087
-10.8578 1.4453 0.2376
-10.7683 1.3278 0.2661
-10.6805 1.2125 0.2940
-10.5943 1.0993 0.3215
-10.5097 0.9882 0.3486
-35.0616 2.9558 1.2621
-35.5173 2.6495 1.3788
-35.9844 2.3355 1.4987
-36.4633 2.0135 1.6218
-36.8120 1.6767 1.7417
-37.4570 1.3440 1.8784
-37.9751 0.9958 2.0123
-38.5074 0.6379 2.1502
-39.0548 0.2699 2.2921
-39.6180 -0.1087 2.4384
-40.1978 -0.4985 2.5893
-40.3114 -0.8893 2.7125
-38.6563 -1.2265 2.7125
-38.2253 -1.5827 2.7927
-37.7168 -1.9269 2.8649
-36.3259 -2.2082 2.8649
-35.0294 -2.4695 2.8649
-33.8178 -2.7131 2.8649
-32.6829 -2.9406 2.8649
-31.6175 -3.1535 2.8649
-30.6150 -3.3532 2.8649
-29.6701 -3.5408 2.8649
-28.7775 -3.7174 2.8649
-27.9330 -3.8840 2.8649
-27.1327 -4.0412 2.8649
-17.9038 -2.8445 1.9449
-25.6508 -4.3309 2.8649
-24.9632 -4.4645 2.8649
-23.0146 -4.3471 2.7125
-22.4223 -4.4613 2.7125
-21.8561 -4.5700 2.7125
-21.3143 -4.6736 2.7125
-20.7953 -4.7724 2.7125
-20.2976 -4.8667 2.7125
-19.8198 -4.9569 2.7125
-19.3606 -5.0431 2.7125
-18.9190 -5.1257 2.7125
-18.7824 -5.2860 2.7548
-19.1001 -5.5773 2.8649
-18.6828 -5.6541 2.8649
-18.2800 -5.7280 2.8649
-17.8908 -5.7989 2.8649
-17.5147 -5.8671 2.8649
-17.1507 -5.9327 2.8649
-16.7984 -5.9959 2.8649
-16.4570 -6.0567 2.8649
-16.1261 -6.1154 2.8649
-15.8050 -6.1719 2.8648
-15.4926 -6.2262 2.8647
-15.1892 -6.2786 2.8646
-14.8944 -6.3292 2.8644
-14.6077 -6.3781 2.8643
-14.3288 -6.4253 2.8642
-14.0574 -6.4710 2.8640
-13.7930 -6.5152 2.8639
-13.5354 -6.5580 2.8638
-13.2842 -6.5994 2.8637
-13.0346 -6.6371 2.8625
-12.7846 -6.6705 2.8600
-12.5361 -6.6996 2.8563
-12.2971 -6.7297 2.8535
-12.0739 -6.7644 2.8532
-11.8559 -6.7980 2.8528
-11.6426 -6.8306 2.8525
-11.4340 -6.8623 2.8521
-11.2299 -6.8931 2.8518
-11.0300 -6.9229 2.8515
-10.8343 -6.9519 2.8512
-10.6425 -6.9800 2.8509
-10.4545 -7.0074 2.8506
-10.2702 -7.0340 2.8503
-10.0894 -7.0598 2.8500
-9.9119 -7.0850 2.8497
-9.7378 -7.1094 2.8494
-9.5668 -7.1332 2.8491
-9.3989 -7.1563 2.8489
-9.2339 -7.1788 2.8486
-9.0718 -7.2007 2.8484
-8.9123 -7.2220 2.8481
-8.7555 -7.2427 2.8479
-8.6013 -7.2629 2.8476
-8.4495 -7.2825 2.8474
-8.3001 -7.3017 2.8471
-41.2004 22.1215 -1.4302
-40.6927 21.3433 -1.2895
-40.1500 20.5651 -1.1518
-39.7288 19.8659 -1.0211
-39.7601 19.4027 -0.9039
-40.1416 19.1100 -0.7942
-40.0215 18.5800 -0.6744
-39.6572 17.9468 -0.5525
-40.1050 17.6843 -0.4423
-40.6229 17.4457 -0.3306
-42.4872 17.7621 -0.2235
-41.2980 16.7982 -0.0990
-41.7968 16.5326 0.0191
-42.3728 16.2892 0.1398
-43.1821 16.1238 0.2648
-44.6360 16.1777 0.3997
-25.9206 9.1127 0.3051
-26.1969 8.9269 0.3818
-26.4772 8.7384 0.4600
-26.7617 8.5472 0.5397
-27.0505 8.3530 0.6208
-27.3439 8.1558 0.7036
-27.6418 7.9555 0.7880
-27.9446 7.7520 0.8740
-28.1395 7.5149 0.9580
-28.5599 7.3333 1.0512
-28.8781 7.1193 1.1427
-29.2020 6.9016 1.2361
-29.5316 6.6800 1.3314
-29.8673 6.4544 1.4289
-30.2092 6.2245 1.5285
-30.5577 5.9902 1.6304
-30.9129 5.7514 1.7346
-31.2751 5.5079 1.8412
-10.9343 1.8173 0.6739
-10.9834 1.7170 0.7073
-32.2760 4.7277 2.1677
-32.6757 4.4653 2.2850
-10.5632 1.3400 0.7680
-33.6038 3.9346 2.5364
-34.6594 3.7202 2.7126
-33.4655 3.2663 2.7125
-32.3498 2.8431 2.7125
-32.1495 2.5136 2.7858
-32.0241 2.1935 2.8649
-31.0464 1.8261 2.8649
-30.1239 1.4806 2.8649
-29.2519 1.1551 2.8649
-28.4263 0.8480 2.8649
-27.6433 0.5578 2.8649
-26.8995 0.2831 2.8649
-26.1920 0.0228 2.8649
-25.5180 -0.2242 2.8649
-24.8751 -0.4589 2.8649
-24.2611 -0.6821 2.8649
-23.6740 -0.8947 2.8649
-23.1120 -1.0973 2.8649
-22.5733 -1.2907 2.8649
-22.0566 -1.4754 2.8649
-21.5603 -1.6521 2.8649
-21.0832 -1.8211 2.8649
-19.5270 -1.8775 2.7125
-19.1084 -2.0244 2.7125
-18.7050 -2.1653 2.7125
-18.3157 -2.3006 2.7125
-17.9399 -2.4305 2.7125
-17.5769 -2.5555 2.7125
-17.2258 -2.6756 2.7125
-16.8861 -2.7913 2.7125
-16.5571 -2.9028 2.7125
-16.2384 -3.0101 2.7125
-15.9293 -3.1137 2.7125
-15.7506 -3.2385 2.7335
-16.0546 -3.4645 2.8391
-15.9015 -3.5943 2.8649
-15.6113 -3.6894 2.8649
-15.3290 -3.7812 2.8649
-15.0541 -3.8700 2.8648
-14.7861 -3.9559 2.8647
-14.5250 -4.0389 2.8646
-14.2706 -4.1193 2.8644
-14.0178 -4.1964 2.8634
-13.7619 -4.2668 2.8603
-13.5246 -4.3393 2.8598
-13.2929 -4.4097 2.8594
-13.0668 -4.4779 2.8590
-12.8458 -4.5440 2.8585
-12.6299 -4.6082 2.8581
-12.4188 -4.6706 2.8577
-12.2124 -4.7311 2.8573
-12.0103 -4.7899 2.8569
-11.8126 -4.8470 2.8566
-11.6190 -4.9025 2.8562
-11.4293 -4.9565 2.8559
-11.2434 -5.0090 2.8555
-11.0613 -5.0600 2.8552
-10.8826 -5.1097 2.8548
-10.7073 -5.1580 2.8545
-10.5354 -5.2050 2.8542
-10.3666 -5.2508 2.8539
-10.2008 -5.2954 2.8536
-10.0380 -5.3388 2.8533
-9.8781 -5.3810 2.8530
-9.7209 -5.4222 2.8527
-9.5664 -5.4624 2.8524
-9.4144 -5.5015 2.8521
-9.2649 -5.5396 2.8519
-9.1178 -5.5768 2.8516
-8.9731 -5.6130 2.8513
-8.8306 -5.6484 2.8511
-8.6903 -5.6829 2.8508
-8.5521 -5.7165 2.8506
-8.4159 -5.7493 2.8503
-8.2818 -5.7813 2.8501
-8.1495 -5.8125 2.8499
-8.0191 -5.8430 2.8496
-7.8905 -5.8727 2.8494
-7.7637 -5.9017 2.8492
-7.6385 -5.9300 2.8490
-7.5150 -5.9577 2.8487
-7.3931 -5.9847 2.8485
-7.2727 -6.0110 2.8483
-7.1539 -6.0368 2.8481
-7.0365 -6.0619 2.8479
-21.4419 12.1081 0.2954
-21.6633 11.9593 0.3584
-21.8868 11.8090 0.4224
-22.1125 11.6573 0.4875
-22.3405 11.5040 0.5535
-22.5709 11.3491 0.6207
-22.8037 11.1926 0.6890
-23.0391 11.0344 0.7584
-23.2770 10.8744 0.8290
-23.5177 10.7126 0.9008
-23.6837 10.5145 0.9707
-23.9162 10.3437 1.0442
-24.2702 10.2211 1.1245
-24.5229 10.0513 1.2016
-24.7788 9.8793 1.2800
-25.0380 9.7050 1.3599
-25.3007 9.5284 1.4413
-25.5669 9.3494 1.5243
-25.8369 9.1679 1.6088
-26.1107 8.9838 1.6949
-26.3885 8.7971 1.7828
-26.6704 8.6076 1.8724
-26.9565 8.4152 1.9637
-27.2471 8.2198 2.0570
-27.5423 8.0213 2.1522
-27.8423 7.8197 2.2493
-28.0347 7.5843 2.3392
-28.3489 7.3781 2.4406
-28.7670 7.1929 2.5530
-29.6756 7.1183 2.7126
-28.8339 6.6244 2.7125
-28.0385 6.1591 2.7125
-27.3883 5.7412 2.7228
-27.6702 5.5236 2.8250
-27.3417 5.1856 2.8649
-26.6568 4.7911 2.8649
-10.8782 1.8475 1.1985
-10.9298 1.7484 1.2338
-24.7835 3.7209 2.8649
-24.2128 3.3976 2.8649
-23.6659 3.0893 2.8649
-23.1414 2.7949 2.8649
-22.6378 2.5135 2.8649
-22.1537 2.2443 2.8649
-21.6880 1.9866 2.8649
-21.2396 1.7396 2.8649
-20.8075 1.5027 2.8649
-20.3907 1.2754 2.8649
-19.9884 1.0571 2.8649
-19.5997 0.8472 2.8649
-19.2240 0.6454 2.8649
-18.8605 0.4512 2.8649
-18.5085 0.2642 2.8649
-18.1675 0.0840 2.8649
-16.8881 -0.0850 2.7125
-16.5846 -0.2437 2.7125
-16.2899 -0.3969 2.7125
-16.0037 -0.5448 2.7125
-15.7257 -0.6876 2.7125
-15.4553 -0.8258 2.7125
-15.1922 -0.9594 2.7125
-14.9362 -1.0886 2.7125
-14.6869 -1.2137 2.7125
-14.4440 -1.3348 2.7125
-14.2073 -1.4521 2.7125
-13.9763 -1.5658 2.7125
-13.7510 -1.6761 2.7125
-13.6076 -1.7931 2.7278
-13.8275 -1.9591 2.8166
-13.8418 -2.0989 2.8646
-13.6229 -2.2017 2.8641
-13.4090 -2.3015 2.8637
-13.1999 -2.3985 2.8632
-12.9952 -2.4927 2.8627
-12.7951 -2.5842 2.8623
-12.5991 -2.6731 2.8619
-12.4072 -2.7596 2.8614
-12.2192 -2.8438 2.8610
-12.0350 -2.9256 2.8606
-11.8545 -3.0052 2.8602
-11.6774 -3.0827 2.8598
-11.5037 -3.1582 2.8595
-11.3333 -3.2316 2.8591
-11.1661 -3.3032 2.8587
-11.0019 -3.3729 2.8584
-10.8406 -3.4409 2.8580
-10.6822 -3.5071 2.8577
-10.5265 -3.5716 2.8574
-10.3734 -3.6345 2.8570
-10.2230 -3.6959 2.8567
-10.0750 -3.7558 2.8564
-9.9294 -3.8141 2.8561
-9.7862 -3.8711 2.8558
-9.6452 -3.9267 2.8555
-9.5064 -3.9810 2.8552
-9.3698 -4.0340 2.8549
-9.2351 -4.0857 2.8547
-9.1025 -4.1362 2.8544
-8.9718 -4.1855 2.8541
-8.8430 -4.2337 2.8539
-8.7160 -4.2807 2.8536
-8.5908 -4.3267 2.8533
-8.4672 -4.3716 2.8531
-8.3454 -4.4155 2.8528
-8.2251 -4.4584 2.8526
-8.1064 -4.5003 2.8524
-7.9893 -4.5413 2.8521
-7.8736 -4.5814 2.8519
-7.7594 -4.6205 2.8517
-7.6466 -4.6588 2.8514
-7.5351 -4.6963 2.8512
-7.4250 -4.7329 2.8510
-7.3162 -4.7687 2.8508
-7.2085 -4.8037 2.8506
-7.1022 -4.8379 2.8504
-6.9970 -4.8714 2.8502
-6.8930 -4.9042 2.8500
-6.7901 -4.9363 2.8498
-6.6883 -4.9676 2.8496
-6.5875 -4.9983 2.8494
-6.4878 -5.0283 2.8492
-6.3891 -5.0576 2.8490
-6.2914 -5.0864 2.8488
-6.1947 -5.1145 2.8486
-6.0988 -5.1420 2.8485
-19.2283 13.4944 0.8334
-19.4294 13.3592 0.8918
-19.6437 13.2308 0.9516
-19.9120 13.1357 1.0151
-20.1185 12.9969 1.0765
-20.3267 12.8570 1.1389
-20.5365 12.7159 1.2023
-20.7482 12.5736 1.2666
-20.9617 12.4301 1.3321
-21.1771 12.2853 1.3986
-21.3944 12.1391 1.4662
-21.6138 11.9916 1.5350
-21.8353 11.8427 1.6049
-22.0590 11.6923 1.6760
-22.2849 11.5405 1.7484
-22.5132 11.3870 1.8220
-22.7439 11.2319 1.8969
-22.9771 11.0751 1.9731
-23.2129 10.9166 2.0507
-23.4514 10.7562 2.1297
-23.6154 10.5595 2.2030
-23.8456 10.3902 2.2834
-24.0918 10.2247 2.3666
-24.4474 10.1011 2.4620
-24.7009 9.9306 2.5488
-25.6721 10.0373 2.7127
-25.0803 9.5307 2.7125
-24.5163 9.0493 2.7125
-23.9761 8.5906 2.7125
-23.6819 8.2308 2.7383
-23.9128 8.0559 2.8248
-23.7473 7.7483 2.8649
-23.2625 7.3450 2.8649
-22.7959 6.9588 2.8649
-22.3464 6.5889 2.8649
-21.9130 6.2341 2.8649
-21.4949 5.8937 2.8649
-21.0911 5.5668 2.8649
-20.7009 5.2526 2.8649
-20.3235 4.9505 2.8649
-19.9582 4.6598 2.8649
-19.6045 4.3799 2.8649
-19.2617 4.1102 2.8649
-18.9293 3.8503 2.8649
-18.6067 3.5996 2.8649
-18.2936 3.3576 2.8649
-10.8593 1.8858 1.7294
-10.9101 1.7871 1.7665
-10.9615 1.6879 1.8042
-17.1262 2.4693 2.8649
-16.8538 2.2652 2.8649
-16.5884 2.0678 2.8649
-16.3299 1.8766 2.8649
-16.0777 1.6914 2.8649
-14.9896 1.4316 2.7125
-14.7625 1.2668 2.7125
-14.5407 1.1071 2.7125
-14.3241 0.9521 2.7125
-14.1124 0.8018 2.7125
-13.9056 0.6558 2.7125
-13.7033 0.5141 2.7125
-13.5054 0.3764 2.7125
-13.3118 0.2425 2.7125
-13.1223 0.1125 2.7125
-12.9366 -0.0140 2.7125
-12.7548 -0.1370 2.7125
-12.5767 -0.2567 2.7125
-12.4020 -0.3731 2.7125
-12.2308 -0.4865 2.7125
-12.0628 -0.5968 2.7125
-11.9986 -0.7103 2.7354
-12.1663 -0.8387 2.8119
-12.2274 -0.9621 2.8647
-12.0609 -1.0670 2.8643
-11.8975 -1.1692 2.8639
-11.7369 -1.2687 2.8635
-11.5791 -1.3658 2.8631
-11.4241 -1.4605 2.8627
-11.2717 -1.5528 2.8623
-11.1218 -1.6429 2.8619
-10.9744 -1.7308 2.8616
-10.8294 -1.8166 2.8612
-10.6867 -1.9003 2.8609
-10.5463 -1.9821 2.8605
-10.4080 -2.0618 2.8602
-10.2718 -2.1398 2.8598
-10.1377 -2.2159 2.8595
-10.0056 -2.2903 2.8592
-9.8754 -2.3630 2.8589
-9.7471 -2.4340 2.8586
-9.6206 -2.5034 2.8583
-9.4959 -2.5712 2.8580
-9.3729 -2.6375 2.8577
-9.2515 -2.7024 2.8574
-9.1318 -2.7658 2.8571
-9.0137 -2.8278 2.8568
-8.8971 -2.8884 2.8566
-8.7820 -2.9478 2.8563
-8.6684 -3.0058 2.8560
-8.5561 -3.0626 2.8558
-8.4453 -3.1182 2.8555
-8.3358 -3.1726 2.8553
-8.2276 -3.2258 2.8550
-8.1207 -3.2780 2.8548
-8.0150 -3.3290 2.8545
-7.9105 -3.3789 2.8543
-7.8072 -3.4278 2.8541
-7.7051 -3.4757 2.8538
-7.6040 -3.5226 2.8536
-7.5041 -3.5685 2.8534
-7.4052 -3.6134 2.8532
-7.3074 -3.6575 2.8530
-7.2106 -3.7006 2.8527
-7.1147 -3.7429 2.8525
-7.0199 -3.7843 2.8523
-6.9259 -3.8248 2.8521
-6.8329 -3.8645 2.8519
-6.7408 -3.9034 2.8517
-6.6495 -3.9416 2.8515
-6.5591 -3.9789 2.8513
-6.4696 -4.0155 2.8512
-6.3808 -4.0514 2.8510
-6.2929 -4.0865 2.8508
-6.2057 -4.1210 2.8506
-6.1192 -4.1547 2.8504
-6.0336 -4.1878 2.8502
-5.9486 -4.2202 2.8501
-5.8643 -4.2520 2.8499
-5.7808 -4.2831 2.8497
-5.6979 -4.3135 2.8496
-5.6156 -4.3434 2.8494
-5.5340 -4.3727 2.8492
-5.4530 -4.4014 2.8490
-5.3726 -4.4295 2.8489
-19.0821 13.7085 1.8998
-19.2580 13.5588 1.9595
-19.3954 13.3812 2.0159
-19.5961 13.2463 2.0796
-19.8740 13.1604 2.1526
-20.0786 13.0229 2.2188
-20.2848 12.8842 2.2861
-20.4927 12.7444 2.3545
-20.7024 12.6035 2.4241
-20.9139 12.4613 2.4950
-21.1272 12.3179 2.5670
-21.9272 12.5066 2.7127
-21.5400 12.0159 2.7125
-21.1670 11.5455 2.7125
-20.8059 11.0933 2.7125
-20.4560 10.6584 2.7125
-20.4460 10.4074 2.7568
-20.6399 10.2605 2.8293
-20.5622 9.9795 2.8649
-20.2347 9.5841 2.8649
-19.9164 9.2027 2.8649
-19.6068 8.8346 2.8649
-19.3057 8.4793 2.8649
-19.0126 8.1360 2.8649
-18.7273 7.8042 2.8649
-18.4492 7.4835 2.8649
-18.1782 7.1732 2.8649
-17.9139 6.8729 2.8649
-17.6561 6.5822 2.8649
-17.4044 6.3006 2.8649
-17.1587 6.0278 2.8649
-16.9187 5.7634 2.8649
-16.6841 5.5070 2.8649
-16.4549 5.2584 2.8649
-16.2307 5.0171 2.8649
-16.0113 4.7829 2.8649
-15.7966 4.5554 2.8649
-15.5865 4.3346 2.8649
-15.3807 4.1200 2.8649
-15.1790 3.9114 2.8649
-14.9815 3.7087 2.8649
-14.7878 3.5115 2.8649
-14.5978 3.3198 2.8649
-14.4116 3.1332 2.8649
-14.2288 2.9516 2.8649
-14.0494 2.7748 2.8649
-13.1353 2.4642 2.7125
-12.9716 2.3055 2.7125
-10.8898 1.8283 2.3057
-10.9406 1.7295 2.3454
-10.9919 1.6300 2.3857
-12.3450 1.7101 2.7125
-12.1949 1.5706 2.7125
-12.0473 1.4344 2.7125
-11.9022 1.3016 2.7125
-11.7593 1.1720 2.7125
-11.6188 1.0455 2.7125
-11.4804 0.9221 2.7125
-11.3442 0.8016 2.7125
-11.2100 0.6839 2.7125
-11.0778 0.5690 2.7125
-10.9477 0.4567 2.7125
-10.8193 0.3470 2.7125
-10.6929 0.2399 2.7125
-10.7351 0.1373 2.7553
-10.8682 0.0341 2.8223
-10.9037 -0.0711 2.8647
-10.7761 -0.1744 2.8644
-10.6502 -0.2754 2.8640
-10.5260 -0.3742 2.8636
-10.4035 -0.4708 2.8633
-10.2826 -0.5652 2.8629
-10.1633 -0.6576 2.8626
-10.0456 -0.7480 2.8623
-9.9293 -0.8365 2.8619
-9.8145 -0.9230 2.8616
-9.7011 -1.0078 2.8613
-9.5891 -1.0907 2.8610
-9.4785 -1.1719 2.8607
-9.3692 -1.2514 2.8604
-9.2612 -1.3292 2.8601
-9.1544 -1.4054 2.8598
-9.0489 -1.4801 2.8595
-8.9445 -1.5532 2.8592
-8.8414 -1.6248 2.8590
-8.7394 -1.6950 2.8587
-8.6384 -1.7637 2.8584
-8.5386 -1.8311 2.8582
-8.4398 -1.8971 2.8579
-8.3421 -1.9618 2.8576
-8.2454 -2.0252 2.8574
-8.1497 -2.0874 2.8571
-8.0549 -2.1483 2.8569
-7.9611 -2.2080 2.8567
-7.8682 -2.2666 2.8564
-7.7762 -2.3240 2.8562
-7.6851 -2.3803 2.8560
-7.5949 -2.4355 2.8557
-7.5055 -2.4897 2.8555
-7.4169 -2.5428 2.8553
-7.3292 -2.5949 2.8551
-7.2422 -2.6460 2.8549
-7.1560 -2.6961 2.8546
-7.0706 -2.7452 2.8544
-6.9859 -2.7934 2.8542
-6.9019 -2.8408 2.8540
-6.8186 -2.8872 2.8538
-6.7361 -2.9327 2.8536
-6.6542 -2.9774 2.8534
-6.5730 -3.0212 2.8532
-6.4924 -3.0642 2.8530
-6.4125 -3.1065 2.8529
-6.3332 -3.1479 2.8527
-6.2545 -3.1885 2.8525
-6.1764 -3.2284 2.8523
-6.0989 -3.2676 2.8521
-6.0219 -3.3059 2.8520
-5.9456 -3.3436 2.8518
-5.8697 -3.3806 2.8516
-5.7945 -3.4169 2.8514
-5.7197 -3.4525 2.8513
-5.6455 -3.4875 2.8511
-5.5717 -3.5218 2.8509
-5.4985 -3.5555 2.8508
-5.4258 -3.5885 2.8506
-5.3535 -3.6209 2.8505
-5.2817 -3.6527 2.8503
-5.2103 -3.6839 2.8501
-5.1394 -3.7145 2.8500
-5.0690 -3.7446 2.8498
-4.9990 -3.7740 2.8497
-4.9293 -3.8030 2.8495
-4.8602 -3.8313 2.8494
-4.7914 -3.8592 2.8492
-17.2657 12.6969 2.7125
-17.3400 12.5010 2.7555
-17.5095 12.3736 2.8143
-17.6230 12.2061 2.8649
-17.4253 11.8274 2.8649
-17.2309 11.4595 2.8649
-17.0396 11.1018 2.8649
-16.8513 10.7540 2.8649
-16.6660 10.4157 2.8649
-16.4836 10.0867 2.8649
-16.3039 9.7666 2.8649
-16.1270 9.4550 2.8649
-15.9527 9.1517 2.8649
-15.7811 8.8564 2.8649
-15.6120 8.5689 2.8649
-15.4453 8.2887 2.8649
-15.2811 8.0159 2.8649
-15.1192 7.7499 2.8649
-14.9596 7.4907 2.8649
-14.8023 7.2381 2.8649
-14.6472 6.9917 2.8649
-14.4942 6.7514 2.8649
-14.3433 6.5171 2.8649
-14.1944 6.2884 2.8649
-14.0475 6.0653 2.8649
-13.9026 5.8476 2.8649
-13.7596 5.6351 2.8649
-13.6184 5.4276 2.8649
-13.4791 5.2250 2.8649
-13.3415 5.0272 2.8649
-13.2057 4.8339 2.8649
-13.0716 4.6452 2.8649
-12.9392 4.4607 2.8649
-12.8083 4.2804 2.8649
-12.6791 4.1043 2.8649
-12.5514 3.9320 2.8649
-11.7643 3.5634 2.7125
-11.6463 3.4076 2.7125
-11.5297 3.2552 2.7125
-11.4144 3.1061 2.7125
-11.3004 2.9602 2.7125
-11.1878 2.8175 2.7125
-11.0764 2.6779 2.7125
-10.9662 2.5413 2.7125
-10.8573 2.4076 2.7125
-10.7496 2.2767 2.7125
-10.6430 2.1486 2.7125
-10.5376 2.0231 2.7125
-10.4333 1.9003 2.7125
-10.3301 1.7800 2.7125
-10.2280 1.6622 2.7125
-10.1269 1.5467 2.7125
-10.0269 1.4337 2.7125
-9.9279 1.3229 2.7125
-9.8299 1.2143 2.7125
-9.7328 1.1080 2.7125
-9.6368 1.0037 2.7125
-9.6005 0.9071 2.7292
-9.7074 0.8234 2.7871
-9.8166 0.7380 2.8466
-9.7813 0.6410 2.8646
-9.6835 0.5412 2.8643
-9.5866 0.4434 2.8640
-9.4907 0.3475 2.8637
-9.3957 0.2535 2.8634
-9.3015 0.1613 2.8631
-9.2083 0.0709 2.8628
-9.1159 -0.0178 2.8625
-9.0243 -0.1048 2.8622
-8.9335 -0.1902 2.8619
-8.8436 -0.2739 2.8616
-8.7544 -0.3561 2.8613
-8.6660 -0.4367 2.8611
-8.5784 -0.5158 2.8608
-8.4916 -0.5935 2.8605
-8.4054 -0.6697 2.8603
-8.3200 -0.7445 2.8600
-8.2353 -0.8179 2.8597
-8.1513 -0.8899 2.8595
-8.0680 -0.9607 2.8592
-7.9853 -1.0301 2.8590
-7.9033 -1.0983 2.8588
-7.8220 -1.1652 2.8585
-7.7412 -1.2310 2.8583
-7.6611 -1.2955 2.8580
-7.5816 -1.3589 2.8578
-7.5028 -1.4212 2.8576
-7.4245 -1.4823 2.8574
-7.3467 -1.5424 2.8572
-7.2696 -1.6013 2.8569
-7.1930 -1.6593 2.8567
-7.1170 -1.7162 2.8565
-7.0415 -1.7721 2.8563
-6.9665 -1.8270 2.8561
-6.8921 -1.8810 2.8559
-6.8182 -1.9340 2.8557
-6.7447 -1.9860 2.8555
-6.6718 -2.0372 2.8553
-6.5994 -2.0875 2.8551
-6.5274 -2.1368 2.8549
-6.4559 -2.1854 2.8547
-6.3849 -2.2331 2.8545
-6.3143 -2.2799 2.8543
-6.2441 -2.3260 2.8542
-6.1744 -2.3712 2.8540
-6.1052 -2.4157 2.8538
-6.0363 -2.4593 2.8536
-5.9679 -2.5023 2.8535
-5.8999 -2.5445 2.8533
-5.8323 -2.5859 2.8531
-5.7650 -2.6266 2.8529
-5.6982 -2.6667 2.8528
-5.6318 -2.7060 2.8526
-5.5657 -2.7447 2.8525
-5.5000 -2.7827 2.8523
-5.4346 -2.8200 2.8521
-5.3696 -2.8567 2.8520
-5.3050 -2.8927 2.8518
-5.2407 -2.9281 2.8517
-5.1767 -2.9629 2.8515
-5.1131 -2.9971 2.8514
-5.0498 -3.0307 2.8512
-4.9868 -3.0637 2.8511
-4.9242 -3.0962 2.8509
-4.8618 -3.1280 2.8508
-4.7998 -3.1593 2.8506
-4.7380 -3.1900 2.8505
-4.6765 -3.2202 2.8503
-4.6154 -3.2499 2.8502
-4.5545 -3.2791 2.8500
-4.4939 -3.3077 2.8499
-4.4336 -3.3358 2.8498
-4.3735 -3.3634 2.8496
-4.3137 -3.3905 2.8495
-13.2468 9.9727 2.8649
-13.1603 9.7160 2.8649
-13.0736 9.4642 2.8649
-12.9867 9.2174 2.8649
-12.8997 8.9753 2.8649
-12.8127 8.7379 2.8649
-12.7256 8.5051 2.8649
-12.6384 8.2768 2.8649
-12.5513 8.0529 2.8649
-12.4642 7.8334 2.8649
-12.3772 7.6180 2.8649
-12.2902 7.4068 2.8649
-12.2034 7.1995 2.8649
-12.1166 6.9963 2.8649
-12.0301 6.7969 2.8649
-11.9437 6.6013 2.8649
-11.8574 6.4094 2.8649
-11.7714 6.2211 2.8649
-11.6856 6.0364 2.8649
-11.6000 5.8551 2.8649
-11.5146 5.6772 2.8649
-11.4295 5.5027 2.8649
-11.3447 5.3314 2.8649
-11.2601 5.1633 2.8649
-11.1758 4.9983 2.8649
-11.0918 4.8363 2.8649
-10.4225 4.4286 2.7125
-10.3436 4.2808 2.7125
-10.2650 4.1357 2.7125
-10.1866 3.9934 2.7125
-10.1086 3.8536 2.7125
-10.0309 3.7163 2.7125
-9.9535 3.5815 2.7125
-9.8764 3.4492 2.7125
-9.7996 3.3192 2.7125
-9.7232 3.1916 2.7125
-9.6472 3.0662 2.7125
-9.5715 2.9431 2.7125
-9.4961 2.8222 2.7125
-9.4210 2.7034 2.7125
-9.3463 2.5868 2.7125
-9.2720 2.4722 2.7125
-9.1980 2.3596 2.7125
-9.1243 2.2489 2.7125
-9.0510 2.1402 2.7125
-8.9780 2.0334 2.7125
-8.9054 1.9285 2.7125
-8.8332 1.8254 2.7125
-8.7613 1.7241 2.7125
-8.6897 1.6244 2.7125
-8.6685 1.5354 2.7282
-8.7573 1.4654 2.7790
-8.8475 1.3942 2.8310
-8.8790 1.3127 2.8648
-8.8044 1.2161 2.8645
-8.7302 1.1211 2.8642
-8.6564 1.0278 2.8639
-8.5829 0.9360 2.8636
-8.5099 0.8458 2.8634
-8.4372 0.7572 2.8631
-8.3649 0.6701 2.8628
-8.2930 0.5844 2.8626
-8.2214 0.5001 2.8623
-8.1502 0.4173 2.8620
-8.0795 0.3359 2.8618
-8.0090 0.2558 2.8615
-7.9389 0.1771 2.8613
-7.8692 0.0997 2.8611
-7.7999 0.0236 2.8608
-7.7309 -0.0513 2.8606
-7.6622 -0.1249 2.8603
-7.5939 -0.1973 2.8601
-7.5260 -0.2685 2.8599
-7.4584 -0.3386 2.8597
-7.3911 -0.4075 2.8594
-7.2576 -0.5419 2.8590
-7.3242 -0.4752 2.8592
-7.1913 -0.6075 2.8588
-6.9945 -0.7978 2.8581
-7.1254 -0.6720 2.8586
-6.9295 -0.8592 2.8579
-7.0597 -0.7354 2.8584
-6.8648 -0.9197 2.8577
-6.7364 -1.0376 2.8573
-6.8005 -0.9791 2.8575
-6.6727 -1.0951 2.8571
-6.4833 -1.2622 2.8566
-6.6093 -1.1517 2.8569
-6.4208 -1.3161 2.8564
-6.5462 -1.2074 2.8568
-6.3585 -1.3691 2.8562
-6.2349 -1.4727 2.8558
-6.2966 -1.4213 2.8560
-6.1735 -1.5232 2.8556
-5.9909 -1.6700 2.8551
-6.1123 -1.5729 2.8555
-5.9306 -1.7174 2.8549
-6.0515 -1.6218 2.8553
-5.8706 -1.7640 2.8548
-5.7512 -1.8550 2.8544
-5.8108 -1.8098 2.8546
-5.6920 -1.8994 2.8543
-5.5157 -2.0284 2.8538
-5.6330 -1.9431 2.8541
-5.4574 -2.0700 2.8536
-5.5742 -1.9861 2.8539
-5.3993 -2.1110 2.8535
-5.2840 -2.1910 2.8532
-5.3415 -2.1513 2.8533
-5.2266 -2.2300 2.8530
-5.0560 -2.3433 2.8526
-5.1695 -2.2684 2.8529
-4.9995 -2.3798 2.8524
-5.1126 -2.3061 2.8527
-4.9433 -2.4158 2.8523
-4.8315 -2.4860 2.8520
-4.8873 -2.4512 2.8521
-4.7759 -2.5202 2.8518
-4.6103 -2.6196 2.8514
-4.7205 -2.5539 2.8517
-4.5555 -2.6517 2.8513
-4.6653 -2.5870 2.8516
-4.5010 -2.6832 2.8511
-4.3924 -2.7447 2.8509
-4.4466 -2.7142 2.8510
-4.3383 -2.7747 2.8507
-4.1774 -2.8616 2.8503
-4.2845 -2.8041 2.8506
-4.1241 -2.8896 2.8502
-4.2309 -2.8331 2.8505
-4.0709 -2.9172 2.8501
-4.0180 -2.9442 2.8500
-3.9652 -2.9708 2.8498
-3.9126 -2.9970 2.8497
-10.3275 7.9613 2.8649
-10.2896 7.7811 2.8649
-10.2508 7.6033 2.8649
-10.2111 7.4281 2.8649
-10.1705 7.2553 2.8649
-10.1291 7.0849 2.8649
-10.0869 6.9169 2.8649
-10.0439 6.7513 2.8649
-10.0002 6.5881 2.8649
-9.9559 6.4271 2.8649
-9.9108 6.2685 2.8649
-9.8652 6.1122 2.8649
-9.8189 5.9581 2.8649
-9.7721 5.8062 2.8649
-9.7248 5.6565 2.8649
-9.1621 5.2159 2.7125
-9.1163 5.0782 2.7125
-9.0701 4.9426 2.7125
-9.0235 4.8089 2.7125
-8.9764 4.6771 2.7125
-8.9290 4.5473 2.7125
-8.8813 4.4194 2.7125
-8.8332 4.2933 2.7125
-8.7848 4.1691 2.7125
-8.7361 4.0468 2.7125
-8.6871 3.9261 2.7125
-8.6379 3.8073 2.7125
-8.5884 3.6902 2.7125
-8.5387 3.5749 2.7125
-8.4888 3.4612 2.7125
-8.4387 3.3492 2.7125
-8.3884 3.2389 2.7125
-8.3379 3.1301 2.7125
-8.2873 3.0230 2.7125
-8.2365 2.9175 2.7125
-8.1856 2.8135 2.7125
-8.1346 2.7110 2.7125
-8.0835 2.6101 2.7125
-8.0323 2.5106 2.7125
-7.9809 2.4126 2.7125
-7.9296 2.3160 2.7125
-7.8781 2.2209 2.7125
-7.8266 2.1271 2.7125
-7.8804 2.0623 2.7492
-7.9561 2.0023 2.7942
-8.0329 1.9413 2.8401
-8.0479 1.8648 2.8647
-7.9926 1.7727 2.8645
-7.9373 1.6820 2.8642
-7.8820 1.5926 2.8640
-7.8267 1.5045 2.8637
-7.7715 1.4178 2.8635
-7.7163 1.3323 2.8633
-7.6611 1.2481 2.8630
-7.6060 1.1651 2.8628
-7.5508 1.0834 2.8626
-7.4958 1.0028 2.8623
-7.4408 0.9235 2.8621
-7.3859 0.8453 2.8619
-7.3310 0.7683 2.8617
-7.2763 0.6924 2.8614
-7.2215 0.6176 2.8612
-7.1669 0.5440 2.8610
-7.1123 0.4714 2.8608
-7.0579 0.3999 2.8606
-7.0035 0.3294 2.8604
-6.9492 0.2600 2.8602
-6.8950 0.1916 2.8599
-6.8409 0.1242 2.8597
-6.7868 0.0578 2.8595
-6.7329 -0.0076 2.8593
-6.6791 -0.0721 2.8591
-6.6254 -0.1357 2.8590
-6.5718 -0.1983 2.8588
-6.5183 -0.2599 2.8586
-6.4649 -0.3207 2.8584
-6.4116 -0.3806 2.8582
-6.3584 -0.4396 2.8580
-6.3054 -0.4978 2.8578
-6.2524 -0.5551 2.8576
-6.1996 -0.6115 2.8575
-6.1469 -0.6671 2.8573
-6.0943 -0.7220 2.8571
-6.0419 -0.7760 2.8569
-5.9895 -0.8292 2.8568
-5.9373 -0.8816 2.8566
-5.8852 -0.9333 2.8564
-5.8332 -0.9842 2.8562
-5.7813 -1.0343 2.8561
-5.5750 -1.2277 2.8554
-5.7295 -1.0838 2.8559
-5.5238 -1.2743 2.8553
-5.6779 -1.1325 2.8558
-5.4726 -1.3202 2.8551
-5.6264 -1.1804 2.8556
-5.4216 -1.3654 2.8550
-5.3707 -1.4100 2.8548
-5.1684 -1.5817 2.8542
-5.3200 -1.4539 2.8547
-5.1181 -1.6230 2.8541
-5.2693 -1.4971 2.8545
-5.0680 -1.6638 2.8539
-5.2188 -1.5397 2.8544
-5.0179 -1.7039 2.8538
-4.9680 -1.7434 2.8536
-4.7695 -1.8957 2.8531
-4.9182 -1.7823 2.8535
-4.7202 -1.9323 2.8529
-4.8685 -1.8207 2.8533
-4.6710 -1.9684 2.8528
-4.8189 -1.8585 2.8532
-4.6219 -2.0040 2.8526
-4.5729 -2.0390 2.8525
-4.3781 -2.1737 2.8520
-4.5240 -2.0734 2.8524
-4.3297 -2.2061 2.8518
-4.4753 -2.1074 2.8522
-4.2814 -2.2381 2.8517
-4.4266 -2.1408 2.8521
-4.2332 -2.2695 2.8516
-4.1851 -2.3004 2.8515
-3.9939 -2.4193 2.8510
-4.1372 -2.3308 2.8513
-3.9464 -2.4479 2.8508
-4.0893 -2.3608 2.8512
-3.8989 -2.4760 2.8507
-4.0415 -2.3903 2.8511
-3.8516 -2.5037 2.8506
-3.8043 -2.5309 2.8505
-3.7572 -2.5577 2.8504
-3.7102 -2.5840 2.8503
-3.6632 -2.6099 2.8501
-3.6164 -2.6354 2.8500
-3.5697 -2.6605 2.8499
-8.4043 6.6362 2.8649
-7.9432 6.1545 2.7125
-7.9281 6.0271 2.7125
-7.9120 5.9010 2.7125
-7.8950 5.7762 2.7125
-7.8771 5.6528 2.7125
-7.8584 5.5306 2.7125
-7.8387 5.4097 2.7125
-7.8183 5.2901 2.7125
-7.7970 5.1718 2.7125
-7.7749 5.0548 2.7125
-7.7521 4.9391 2.7125
-7.7286 4.8247 2.7125
-7.7043 4.7115 2.7125
-7.6794 4.5996 2.7125
-7.6538 4.4890 2.7125
-7.6276 4.3796 2.7125
-7.6007 4.2715 2.7125
-7.5732 4.1646 2.7125
-7.5451 4.0590 2.7125
-7.5165 3.9546 2.7125
-7.4873 3.8514 2.7125
-7.4576 3.7494 2.7125
-7.4274 3.6486 2.7125
-7.3967 3.5491 2.7125
-7.3655 3.4507 2.7125
-7.3339 3.3534 2.7125
-7.3018 3.2574 2.7125
-7.2693 3.1624 2.7125
-7.2364 3.0687 2.7125
-7.2031 2.9761 2.7125
-7.1694 2.8846 2.7125
-7.1353 2.7942 2.7125
-7.1009 2.7049 2.7125
-7.0678 2.6173 2.7131
-7.1324 2.5660 2.7515
-7.1977 2.5141 2.7908
-7.2638 2.4615 2.8309
-7.3129 2.4024 2.8648
-7.2740 2.3147 2.8646
-7.2349 2.2281 2.8644
-7.1955 2.1426 2.8642
-7.1558 2.0581 2.8639
-7.1159 1.9748 2.8637
-7.0758 1.8925 2.8635
-7.0355 1.8112 2.8633
-6.9949 1.7310 2.8631
-6.9541 1.6518 2.8629
-6.9132 1.5736 2.8627
-6.8721 1.4964 2.8625
-6.8308 1.4202 2.8623
-6.7893 1.3450 2.8621
-6.7477 1.2707 2.8619
-6.7059 1.1974 2.8617
-6.6640 1.1251 2.8615
-6.6220 1.0536 2.8613
-6.5798 0.9832 2.8611
-6.5375 0.9136 2.8609
-6.4951 0.8449 2.8607
-6.4526 0.7771 2.8605
-6.4100 0.7102 2.8603
-6.3673 0.6442 2.8601
-6.3246 0.5790 2.8600
-6.2817 0.5146 2.8598
-6.2388 0.4512 2.8596
-6.1958 0.3885 2.8594
-6.1527 0.3267 2.8592
-6.1096 0.2657 2.8591
-6.0664 0.2054 2.8589
-6.0231 0.1460 2.8587
-5.9798 0.0874 2.8585
-5.9365 0.0295 2.8584
-5.8931 -0.0276 2.8582
-5.8497 -0.0840 2.8580
-5.8063 -0.1396 2.8579
-5.7629 -0.1945 2.8577
-5.7194 -0.2486 2.8575
-5.6759 -0.3020 2.8574
-5.6324 -0.3548 2.8572
-5.5888 -0.4068 2.8571
-5.5453 -0.4581 2.8569
-5.5018 -0.5088 2.8567
-5.4582 -0.5587 2.8566
-5.4147 -0.6080 2.8564
-5.3711 -0.6566 2.8563
-5.3276 -0.7046 2.8561
-5.2840 -0.7520 2.8560
-5.2405 -0.7987 2.8558
-5.1970 -0.8447 2.8557
-5.1535 -0.8902 2.8555
-5.1100 -0.9350 2.8554
-5.0665 -0.9792 2.8552
-5.0230 -1.0228 2.8551
-4.9796 -1.0658 2.8550
-4.9362 -1.1083 2.8548
-4.8928 -1.1501 2.8547
-4.8495 -1.1914 2.8545
-4.8061 -1.2321 2.8544
-4.7628 -1.2723 2.8543
-4.7195 -1.3119 2.8541
-4.6763 -1.3509 2.8540
-4.6331 -1.3894 2.8539
-4.5899 -1.4274 2.8537
-4.5467 -1.4648 2.8536
-4.5036 -1.5018 2.8535
-4.4606 -1.5382 2.8533
-4.4175 -1.5741 2.8532
-4.3745 -1.6094 2.8531
-4.3316 -1.6443 2.8530
-4.2887 -1.6787 2.8528
-4.2458 -1.7126 2.8527
-4.2029 -1.7460 2.8526
-4.1601 -1.7790 2.8525
-4.1174 -1.8114 2.8523
-4.0747 -1.8434 2.8522
-4.0320 -1.8749 2.8521
-3.9894 -1.9060 2.8520
-3.9468 -1.9366 2.8519
-3.9043 -1.9668 2.8517
-3.8618 -1.9965 2.8516
-3.8194 -2.0258 2.8515
-3.7770 -2.0546 2.8514
-3.7346 -2.0830 2.8513
-3.6923 -2.1110 2.8512
-3.6501 -2.1386 2.8511
-3.6079 -2.1657 2.8509
-3.5657 -2.1925 2.8508
-3.5236 -2.2188 2.8507
-3.4815 -2.2447 2.8506
-3.4395 -2.2702 2.8505
-3.3975 -2.2954 2.8504
-3.3556 -2.3201 2.8503
-3.3137 -2.3444 2.8502
-3.2719 -2.3684 2.8501
-6.6624 5.3910 2.7125
-6.6596 5.2893 2.7125
-6.6559 5.1884 2.7125
-6.6512 5.0883 2.7125
-6.6457 4.9889 2.7125
-6.6393 4.8903 2.7125
-6.6321 4.7925 2.7125
-6.6240 4.6954 2.7125
-6.6151 4.5992 2.7125
-6.6054 4.5038 2.7125
-6.5949 4.4091 2.7125
-6.5837 4.3153 2.7125
-6.5717 4.2223 2.7125
-6.5590 4.1301 2.7125
-6.5456 4.0387 2.7125
-6.5316 3.9482 2.7125
-6.5168 3.8585 2.7125
-6.5014 3.7695 2.7125
-6.4853 3.6814 2.7125
-6.4686 3.5941 2.7125
-6.4513 3.5077 2.7125
-6.4335 3.4220 2.7125
-6.4150 3.3371 2.7125
-6.3960 3.2531 2.7125
-6.3764 3.1699 2.7125
-6.3638 3.0912 2.7157
-6.4206 3.0463 2.7488
-6.4779 3.0009 2.7826
-6.5357 2.9550 2.8171
-6.5940 2.9086 2.8523
-6.5990 2.8386 2.8647
-6.5743 2.7565 2.8645
-6.5490 2.6752 2.8644
-6.5234 2.5948 2.8642
-6.4973 2.5152 2.8640
-6.4708 2.4365 2.8638
-6.4438 2.3585 2.8636
-6.4165 2.2815 2.8634
-6.3888 2.2052 2.8632
-6.3607 2.1298 2.8630
-6.3322 2.0551 2.8629
-6.3034 1.9813 2.8627
-6.2743 1.9083 2.8625
-6.2448 1.8361 2.8623
-6.2150 1.7647 2.8621
-6.1849 1.6940 2.8620
-6.1545 1.6241 2.8618
-6.1237 1.5551 2.8616
-6.0927 1.4867 2.8614
-6.0615 1.4192 2.8613
-6.0299 1.3524 2.8611
-5.9981 1.2863 2.8609
-5.9661 1.2210 2.8607
-5.9338 1.1565 2.8606
-5.9013 1.0926 2.8604
-5.8685 1.0295 2.8602
-5.8355 0.9672 2.8601
-5.8023 0.9055 2.8599
-5.7690 0.8445 2.8597
-5.7354 0.7843 2.8596
-5.7016 0.7247 2.8594
-5.6676 0.6659 2.8593
-5.6335 0.6077 2.8591
-5.5992 0.5502 2.8589
-5.5647 0.4934 2.8588
-5.5301 0.4372 2.8586
-5.4953 0.3817 2.8585
-5.4604 0.3269 2.8583
-5.4253 0.2727 2.8582
-5.3901 0.2191 2.8580
-5.3547 0.1662 2.8579
-5.3193 0.1139 2.8577
-5.2837 0.0623 2.8576
-5.2479 0.0113 2.8574
-5.2121 -0.0392 2.8573
-5.1762 -0.0890 2.8571
-5.1402 -0.1382 2.8570
-5.1040 -0.1868 2.8568
-5.0678 -0.2348 2.8567
-5.0315 -0.2823 2.8566
-4.9951 -0.3291 2.8564
-4.9586 -0.3754 2.8563
-4.9220 -0.4211 2.8561
-4.8853 -0.4663 2.8560
-4.8486 -0.5109 2.8559
-4.7011 -0.6838 2.8553
-4.8118 -0.5549 2.8557
-4.6640 -0.7257 2.8552
-4.7750 -0.5984 2.8556
-4.6269 -0.7670 2.8551
-4.7380 -0.6414 2.8555
-4.5898 -0.8079 2.8550
-4.5526 -0.8482 2.8548
-4.4034 -1.0044 2.8543
-4.5154 -0.8880 2.8547
-4.3660 -1.0422 2.8542
-4.4781 -0.9273 2.8546
-4.3285 -1.0795 2.8541
-4.4407 -0.9661 2.8544
-4.2911 -1.1164 2.8539
-4.2536 -1.1527 2.8538
-4.1033 -1.2935 2.8533
-4.2161 -1.1886 2.8537
-4.0657 -1.3275 2.8532
-4.1785 -1.2240 2.8536
-4.0281 -1.3611 2.8531
-4.1409 -1.2590 2.8535
-3.9904 -1.3942 2.8530
-3.9528 -1.4269 2.8529
-3.8020 -1.5533 2.8524
-3.9151 -1.4592 2.8528
-3.7643 -1.5839 2.8523
-3.8774 -1.4910 2.8526
-3.7265 -1.6140 2.8522
-3.8397 -1.5224 2.8525
-3.6888 -1.6437 2.8521
-3.6511 -1.6730 2.8520
-3.5001 -1.7861 2.8515
-3.3491 -1.8929 2.8511
-3.6133 -1.7019 2.8519
-3.4624 -1.8134 2.8514
-3.3114 -1.9186 2.8510
-3.5756 -1.7303 2.8518
-3.4246 -1.8403 2.8513
-3.2737 -1.9440 2.8509
-3.5378 -1.7584 2.8517
-3.3869 -1.8668 2.8512
-3.2360 -1.9690 2.8508
-3.1983 -1.9936 2.8507
-3.1606 -2.0179 2.8506
-3.1229 -2.0417 2.8505
-3.0852 -2.0653 2.8504
-3.0475 -2.0884 2.8503
-3.0098 -2.1112 2.8502
-5.6907 4.7215 2.7125
-5.6941 4.6385 2.7125
-5.6966 4.5560 2.7125
-5.6984 4.4740 2.7125
-5.6993 4.3924 2.7125
-5.6995 4.3114 2.7125
-5.6989 4.2308 2.7125
-5.6975 4.1507 2.7125
-5.6954 4.0711 2.7125
-5.6925 3.9920 2.7125
-5.6889 3.9134 2.7125
-5.6846 3.8354 2.7125
-5.6796 3.7578 2.7125
-5.6739 3.6808 2.7125
-5.6676 3.6044 2.7125
-5.6874 3.5451 2.7253
-5.7382 3.5052 2.7534
-5.7894 3.4649 2.7820
-5.8410 3.4243 2.8112
-5.8929 3.3834 2.8410
-5.9317 3.3346 2.8648
-5.9201 3.2577 2.8647
-5.9078 3.1815 2.8645
-5.8950 3.1059 2.8643
-5.8817 3.0309 2.8642
-5.8677 2.9565 2.8640
-5.8533 2.8827 2.8638
-5.8382 2.8096 2.8637
-5.8227 2.7370 2.8635
-5.8066 2.6651 2.8634
-5.7901 2.5938 2.8632
-5.7730 2.5231 2.8630
-5.7555 2.4530 2.8629
-5.7375 2.3836 2.8627
-5.7190 2.3147 2.8626
-5.7001 2.2465 2.8624
-5.6808 2.1789 2.8622
-5.6610 2.1120 2.8621
-5.6408 2.0456 2.8619
-5.6202 1.9798 2.8618
-5.5992 1.9147 2.8616
-5.5778 1.8501 2.8615
-5.5561 1.7862 2.8613
-5.5339 1.7229 2.8612
-5.5114 1.6602 2.8610
-5.4886 1.5981 2.8608
-5.4654 1.5366 2.8607
-5.4419 1.4756 2.8605
-5.4180 1.4153 2.8604
-5.3938 1.3556 2.8602
-5.3694 1.2965 2.8601
-5.3446 1.2379 2.8600
-5.3195 1.1799 2.8598
-5.2941 1.1226 2.8597
-5.2685 1.0657 2.8595
-5.2425 1.0095 2.8594
-5.2164 0.9539 2.8592
-5.1899 0.8988 2.8591
-5.1632 0.8443 2.8589
-5.1363 0.7903 2.8588
-5.1091 0.7369 2.8587
-5.0817 0.6841 2.8585
-5.0540 0.6318 2.8584
-5.0262 0.5800 2.8582
-4.9981 0.5289 2.8581
-4.9698 0.4782 2.8580
-4.9413 0.4281 2.8578
-4.9126 0.3785 2.8577
-4.8837 0.3295 2.8576
-4.8547 0.2810 2.8574
-4.8254 0.2330 2.8573
-4.7960 0.1855 2.8572
-4.7664 0.1386 2.8570
-4.7366 0.0922 2.8569
-4.7067 0.0463 2.8568
-4.6766 0.0009 2.8567
-4.6464 -0.0440 2.8565
-4.6160 -0.0885 2.8564
-4.5855 -0.1324 2.8563
-4.5548 -0.1758 2.8561
-4.5240 -0.2187 2.8560
-4.4931 -0.2611 2.8559
-4.4620 -0.3031 2.8558
-4.4308 -0.3446 2.8557
-4.3995 -0.3856 2.8555
-4.3681 -0.4261 2.8554
-4.3366 -0.4662 2.8553
-4.3049 -0.5058 2.8552
-4.2732 -0.5449 2.8550
-4.2413 -0.5836 2.8549
-4.2094 -0.6218 2.8548
-4.1773 -0.6596 2.8547
-4.1452 -0.6969 2.8546
-4.1129 -0.7338 2.8545
-4.0806 -0.7703 2.8543
-4.0482 -0.8063 2.8542
-4.0157 -0.8419 2.8541
-3.9832 -0.8770 2.8540
-3.9506 -0.9117 2.8539
-3.9178 -0.9460 2.8538
-3.8851 -0.9799 2.8537
-3.8522 -1.0134 2.8535
-3.8193 -1.0464 2.8534
-3.7863 -1.0791 2.8533
-3.7533 -1.1113 2.8532
-3.7202 -1.1431 2.8531
-3.6870 -1.1745 2.8530
-3.6538 -1.2056 2.8529
-3.6205 -1.2362 2.8528
-3.5872 -1.2665 2.8527
-3.5538 -1.2963 2.8526
-3.5204 -1.3258 2.8525
-3.4870 -1.3549 2.8524
-3.4535 -1.3836 2.8523
-3.4199 -1.4119 2.8522
-3.3863 -1.4399 2.8521
-3.3527 -1.4675 2.8520
-3.3190 -1.4947 2.8519
-3.2853 -1.5215 2.8518
-3.2516 -1.5480 2.8517
-3.2179 -1.5742 2.8516
-3.1840 -1.5999 2.8515
-3.1502 -1.6254 2.8514
-3.1164 -1.6504 2.8513
-3.0825 -1.6751 2.8512
-3.0486 -1.6995 2.8511
-3.0146 -1.7236 2.8510
-2.9807 -1.7472 2.8509
-2.9467 -1.7706 2.8508
-2.9127 -1.7936 2.8507
-2.8787 -1.8163 2.8506
-2.8446 -1.8386 2.8506
-2.8106 -1.8606 2.8505
-2.7765 -1.8823 2.8504
