ply
format ascii 1.0
element vertex 2145
property float32 x
property float32 y
property float32 z
end_header
9.2362 -14.8460 2.0391
8.8004 -14.7908 2.0587
9.4560 -14.8691 2.0280
10.1396 -14.9461 1.9931
9.6380 -14.8295 2.0080
10.3743 -14.9718 1.9805
9.9075 -14.9191 2.0050
10.6106 -14.9945 1.9670
10.9027 -14.4793 1.8489
10.7379 -14.8612 1.9327
10.6607 -14.4522 1.8627
11.1502 -14.5086 1.8348
11.4032 -14.5393 1.8203
12.1904 -14.6332 1.7733
11.6617 -14.5716 1.8054
12.4626 -14.6648 1.7564
11.9243 -14.6031 1.7898
12.4836 -14.4007 1.7039
11.5063 -12.5104 1.4225
12.1323 -13.7212 1.6030
11.2261 -11.9684 1.3413
11.8075 -13.0930 1.5094
10.9746 -11.4733 1.2666
10.2872 -10.1419 1.0656
10.7307 -11.0009 1.1955
10.0849 -9.7503 1.0061
10.5020 -10.5580 1.1286
9.8941 -9.3808 0.9498
9.3895 -8.3950 0.7982
9.7246 -9.0417 0.8974
9.2346 -8.0961 0.7521
9.5526 -8.7097 0.8466
9.0874 -7.8120 0.7081
8.6857 -7.0369 0.5872
8.9471 -7.5413 0.6660
8.5636 -6.8014 0.5502
8.8134 -7.2833 0.6258
8.4468 -6.5759 0.5146
8.0131 -5.8722 0.4099
8.3226 -6.3505 0.4797
7.8550 -5.6402 0.3768
8.1802 -6.1173 0.4448
7.5267 -4.9748 0.2671
7.7561 -5.4562 0.3475
7.5054 -4.8572 0.2434
7.6635 -5.2809 0.3193
7.4845 -4.7417 0.2200
7.5743 -5.1121 0.2921
7.4640 -4.6284 0.1969
7.4240 -4.4076 0.1517
7.4438 -4.5170 0.1742
7.4133 -4.3051 0.1296
7.4774 -3.9654 0.0440
7.4295 -4.2193 0.1082
7.4932 -3.8818 0.0226
7.4456 -4.1341 0.0867
7.5088 -3.7988 0.0013
7.4615 -4.0494 0.0653
7.5244 -3.7162 -0.0200
7.5399 -3.6341 -0.0413
7.5642 -3.5566 -0.0627
7.5948 -3.4823 -0.0842
-4.9508 -13.1339 2.6646
-4.7847 -13.0935 2.6607
-4.6203 -13.0520 2.6564
-4.4581 -13.0115 2.6521
-4.2956 -12.9643 2.6463
-4.1340 -12.9140 2.6397
-3.9714 -12.8538 2.6309
-3.8047 -12.7723 2.6176
-3.6514 -12.7287 2.6119
-3.5033 -12.6977 2.6086
-3.3568 -12.6673 2.6054
-3.2118 -12.6377 2.6021
-3.0683 -12.6087 2.5988
-2.9262 -12.5804 2.5955
-2.7854 -12.5528 2.5923
-2.6460 -12.5258 2.5890
-2.5078 -12.4994 2.5857
-2.3707 -12.4737 2.5825
-2.2348 -12.4485 2.5792
-2.1000 -12.4239 2.5760
-1.9661 -12.3999 2.5727
-0.8937 -6.0330 1.2525
-0.8290 -6.0191 1.2503
-0.7648 -6.0055 1.2482
-0.7011 -5.9923 1.2460
-0.6378 -5.9794 1.2439
-0.5750 -5.9669 1.2418
-0.5125 -5.9546 1.2397
-0.4505 -5.9427 1.2376
-0.3887 -5.9311 1.2356
-0.3274 -5.9198 1.2335
-0.2663 -5.9087 1.2315
-0.2055 -5.8980 1.2294
-0.1450 -5.8875 1.2274
-0.0847 -5.8774 1.2254
-0.0246 -5.8674 1.2233
0.0352 -5.8578 1.2213
0.0949 -5.8484 1.2193
0.1544 -5.8393 1.2173
0.2137 -5.8304 1.2153
0.2729 -5.8218 1.2133
0.3321 -5.8135 1.2113
0.3911 -5.8053 1.2093
0.4500 -5.7975 1.2073
0.5089 -5.7898 1.2053
0.5678 -5.7824 1.2033
0.6266 -5.7752 1.2014
0.6855 -5.7683 1.1994
0.7443 -5.7616 1.1974
0.8033 -5.7551 1.1954
0.8622 -5.7488 1.1934
1.8837 -11.7424 2.4360
2.0064 -11.7410 2.4341
2.1296 -11.7401 2.4321
2.2532 -11.7394 2.4301
2.3774 -11.7392 2.4281
2.5021 -11.7392 2.4261
2.6273 -11.7397 2.4240
2.7532 -11.7404 2.4218
2.8798 -11.7416 2.4196
3.0071 -11.7430 2.4174
3.1351 -11.7449 2.4152
3.2639 -11.7471 2.4129
3.3935 -11.7497 2.4105
3.5241 -11.7526 2.4081
3.6555 -11.7560 2.4057
3.7879 -11.7597 2.4032
3.9214 -11.7638 2.4007
4.3283 -11.7785 2.3928
4.4663 -11.7842 2.3900
4.0559 -11.7683 2.3981
4.6056 -11.7903 2.3872
4.1751 -11.7273 2.3861
4.7462 -11.7969 2.3844
5.0317 -11.8113 2.3785
4.8883 -11.8039 2.3815
5.1767 -11.8192 2.3755
5.3233 -11.8275 2.3724
5.7732 -11.8553 2.3627
5.4715 -11.8363 2.3692
5.9268 -11.8656 2.3593
5.6215 -11.8456 2.3660
6.0823 -11.8764 2.3559
6.5613 -11.9118 2.3451
6.2398 -11.8876 2.3524
6.7254 -11.9247 2.3414
6.3995 -11.8995 2.3488
6.8918 -11.9382 2.3375
7.4064 -11.9823 2.3255
7.0608 -11.9523 2.3336
7.5834 -11.9983 2.3213
7.2323 -11.9670 2.3296
7.7633 -12.0149 2.3169
8.3242 -12.0730 2.3041
7.9461 -12.0323 2.3125
8.5198 -12.0966 2.3001
8.1321 -12.0502 2.3080
8.7192 -12.1210 2.2960
9.3031 -12.1496 2.2736
8.9153 -12.1365 2.2900
9.1112 -11.6569 2.1720
9.1075 -12.1428 2.2819
9.2904 -11.6457 2.1603
9.8984 -11.6766 2.1353
9.4892 -11.6554 2.1521
10.1091 -11.6882 2.1265
9.6918 -11.6657 2.1438
10.3241 -11.7004 2.1176
10.9971 -11.7413 2.0893
10.5436 -11.7134 2.1084
10.9881 -11.5018 2.0344
10.7679 -11.7270 2.0990
10.7409 -11.0229 1.9376
10.0875 -9.7574 1.6809
10.5093 -10.5744 1.8467
9.8948 -9.3841 1.6049
9.7232 -9.0412 1.5347
10.2920 -10.1535 1.7613
9.5496 -8.7062 1.4664
9.2290 -8.0876 1.3399
9.3851 -8.3888 1.4015
9.0807 -7.8013 1.2812
8.5538 -6.7844 1.0718
8.9395 -7.5288 1.2253
8.4364 -6.5578 1.0249
8.8050 -7.2691 1.1718
8.6765 -7.0212 1.1207
8.3102 -6.3303 0.9783
7.8415 -5.6179 0.8368
8.1642 -6.0938 0.9308
7.7449 -5.4351 0.7987
7.9966 -5.8479 0.8823
7.6520 -5.2592 0.7620
7.5022 -4.8398 0.6690
7.5625 -5.0899 0.7266
7.4812 -4.7238 0.6417
7.5237 -4.9580 0.6967
7.4606 -4.6099 0.6148
7.4404 -4.4980 0.5884
7.4163 -4.2890 0.5377
7.4204 -4.3881 0.5623
7.4326 -4.2027 0.5148
7.4488 -4.1171 0.4920
7.4966 -3.8634 0.4240
7.4648 -4.0320 0.4692
7.5124 -3.7800 0.4015
7.4808 -3.9474 0.4466
7.5281 -3.6970 0.3790
7.5436 -3.6145 0.3566
7.5717 -3.5384 0.3348
7.6026 -3.4637 0.3131
7.6333 -3.3890 0.2914
-4.1228 -10.7805 2.7501
-3.9913 -10.7662 2.7480
-3.8611 -10.7522 2.7460
-3.7322 -10.7385 2.7439
-3.6046 -10.7250 2.7419
-3.4781 -10.7119 2.7398
-3.3528 -10.6990 2.7378
-3.2285 -10.6863 2.7358
-3.1053 -10.6739 2.7338
-2.9831 -10.6617 2.7319
-2.8619 -10.6498 2.7299
-2.7416 -10.6380 2.7279
-2.6218 -10.6248 2.7255
-2.5020 -10.6083 2.7222
-2.3832 -10.5920 2.7190
-2.2652 -10.5760 2.7157
-0.9990 -4.9111 1.2615
-0.9447 -4.9026 1.2596
-0.8908 -4.8942 1.2578
-0.8373 -4.8859 1.2560
-0.7841 -4.8778 1.2542
-0.7313 -4.8698 1.2524
-0.6788 -4.8619 1.2507
-0.6267 -4.8542 1.2489
-0.5748 -4.8465 1.2472
-0.5233 -4.8390 1.2454
-0.4720 -4.8316 1.2437
-0.4209 -4.8242 1.2420
-0.3701 -4.8170 1.2402
-0.3196 -4.8099 1.2385
-0.2692 -4.8029 1.2368
-0.2191 -4.7960 1.2351
-0.1691 -4.7891 1.2335
-0.1194 -4.7824 1.2318
-0.0697 -4.7758 1.2301
-0.0203 -4.7692 1.2284
0.0290 -4.7627 1.2268
0.0782 -4.7564 1.2251
0.1273 -4.7501 1.2234
0.1763 -4.7438 1.2218
0.2252 -4.7377 1.2201
0.2740 -4.7316 1.2185
0.3227 -4.7256 1.2168
0.3714 -4.7197 1.2152
0.4200 -4.7139 1.2135
0.4686 -4.7081 1.2119
0.5172 -4.7024 1.2102
0.5658 -4.6968 1.2086
0.6144 -4.6912 1.2069
0.6630 -4.6857 1.2053
0.7116 -4.6803 1.2036
0.7603 -4.6749 1.2020
0.8090 -4.6696 1.2003
1.8511 -10.0653 2.5867
1.9524 -10.0327 2.5776
2.0572 -10.0190 2.5733
2.1645 -10.0161 2.5718
2.2723 -10.0132 2.5702
2.3804 -10.0105 2.5687
2.4890 -10.0079 2.5671
2.5981 -10.0054 2.5655
2.7078 -10.0029 2.5639
2.8179 -10.0006 2.5623
2.9287 -9.9984 2.5606
3.0400 -9.9963 2.5590
3.1397 -9.9553 2.5473
3.2520 -9.9535 2.5456
3.3781 -9.9906 2.5539
3.4922 -9.9889 2.5521
3.6071 -9.9873 2.5504
3.7227 -9.9858 2.5486
3.8392 -9.9844 2.5468
3.9566 -9.9831 2.5449
4.0749 -9.9820 2.5431
4.1942 -9.9809 2.5412
4.3144 -9.9800 2.5393
4.4357 -9.9791 2.5374
4.5580 -9.9784 2.5354
4.6815 -9.9778 2.5334
4.8061 -9.9773 2.5314
4.9319 -9.9769 2.5294
5.0592 -9.9771 2.5274
5.1889 -9.9796 2.5260
5.3201 -9.9823 2.5245
5.4527 -9.9851 2.5231
5.5869 -9.9881 2.5215
5.7227 -9.9912 2.5200
5.8591 -9.9926 2.5180
5.9964 -9.9930 2.5156
6.1354 -9.9935 2.5132
6.2761 -9.9942 2.5107
6.4186 -9.9950 2.5082
6.5630 -9.9959 2.5057
6.7093 -9.9969 2.5031
6.8577 -9.9982 2.5005
7.0081 -9.9995 2.4978
7.1335 -9.9630 2.4856
7.3156 -10.0027 2.4923
7.4724 -10.0041 2.4894
7.6304 -10.0039 2.4860
7.7892 -10.0018 2.4820
7.9485 -9.9974 2.4773
8.1096 -9.9923 2.4724
8.1313 -9.8161 2.4251
8.0539 -9.5264 2.3498
8.2158 -9.5227 2.3451
8.3813 -9.5201 2.3405
8.5497 -9.5176 2.3359
8.7210 -9.5152 2.3311
8.8954 -9.5128 2.3263
9.0719 -9.5095 2.3211
9.2506 -9.5051 2.3155
9.4327 -9.5009 2.3098
9.6183 -9.4967 2.3040
9.8075 -9.4926 2.2981
9.8969 -9.3903 2.2683
9.7230 -9.0434 2.1795
9.5478 -8.7052 2.0931
9.3819 -8.3850 2.0112
9.2246 -8.0813 1.9334
9.0751 -7.7928 1.8595
8.9330 -7.5183 1.7892
8.7975 -7.2568 1.7222
8.6683 -7.0074 1.6582
8.5448 -6.7691 1.5970
8.4294 -6.5432 1.5389
8.2990 -6.3118 1.4797
8.1494 -6.0722 1.4188
7.9813 -5.8255 1.3565
7.8315 -5.5988 1.2990
7.7345 -5.4153 1.2518
7.6412 -5.2388 1.2063
7.5514 -5.0690 1.1625
7.5208 -4.9420 1.1286
7.4992 -4.8232 1.0967
7.4781 -4.7066 1.0653
7.4574 -4.5922 1.0345
7.4371 -4.4798 1.0042
7.4171 -4.3695 0.9744
7.4192 -4.2736 0.9479
7.4356 -4.1868 0.9234
7.4519 -4.1006 0.8991
7.4680 -4.0151 0.8749
7.4841 -3.9301 0.8508
7.5000 -3.8456 0.8269
7.5158 -3.7618 0.8031
7.5316 -3.6784 0.7794
7.5480 -3.5959 0.7558
7.5791 -3.5206 0.7339
7.6101 -3.4455 0.7119
7.6410 -3.3704 0.6899
7.6719 -3.2955 0.6679
-3.5251 -9.0841 2.8042
-3.4152 -9.0791 2.8022
-3.3061 -9.0740 2.8002
-3.1978 -9.0687 2.7981
-3.0903 -9.0633 2.7961
-2.9836 -9.0580 2.7940
-2.8778 -9.0527 2.7920
-2.7726 -9.0473 2.7900
-2.6684 -9.0424 2.7881
-2.5648 -9.0374 2.7863
-2.4619 -9.0325 2.7844
-2.3597 -9.0276 2.7826
-1.0282 -4.1086 1.2663
-0.9816 -4.1039 1.2647
-0.9353 -4.0992 1.2631
-0.8893 -4.0945 1.2616
-0.8436 -4.0898 1.2600
-0.7982 -4.0851 1.2585
-0.7531 -4.0805 1.2569
-0.7082 -4.0758 1.2554
-0.6636 -4.0712 1.2539
-0.6192 -4.0665 1.2524
-0.5750 -4.0619 1.2509
-0.5311 -4.0573 1.2494
-0.4873 -4.0527 1.2479
-0.4438 -4.0480 1.2464
-0.4004 -4.0434 1.2450
-0.3573 -4.0388 1.2435
-0.3143 -4.0342 1.2420
-0.2714 -4.0296 1.2406
-0.2287 -4.0250 1.2391
-0.1862 -4.0204 1.2377
-0.1438 -4.0158 1.2363
-0.1015 -4.0112 1.2348
-0.0593 -4.0066 1.2334
-0.0173 -4.0020 1.2320
0.0247 -3.9973 1.2306
0.0666 -3.9927 1.2291
0.1083 -3.9881 1.2277
0.1501 -3.9834 1.2263
0.1917 -3.9788 1.2249
0.2333 -3.9741 1.2235
0.2748 -3.9694 1.2221
0.3163 -3.9647 1.2207
0.3577 -3.9600 1.2193
0.3992 -3.9553 1.2179
0.4406 -3.9506 1.2165
0.4819 -3.9459 1.2150
0.5233 -3.9411 1.2136
0.5647 -3.9363 1.2122
0.6061 -3.9316 1.2108
0.6475 -3.9267 1.2094
0.6890 -3.9219 1.2080
0.7305 -3.9171 1.2066
0.7720 -3.9122 1.2052
1.8214 -8.7476 2.6951
1.9149 -8.7378 2.6923
2.0085 -8.7279 2.6895
2.1006 -8.7106 2.6844
2.1925 -8.6923 2.6790
2.2880 -8.6875 2.6778
2.3839 -8.6827 2.6766
2.4705 -8.6440 2.6650
2.5668 -8.6391 2.6638
2.6740 -8.6680 2.6731
2.7716 -8.6629 2.6719
2.8696 -8.6579 2.6707
2.9682 -8.6527 2.6695
3.0674 -8.6479 2.6683
3.1677 -8.6446 2.6677
3.2685 -8.6407 2.6670
3.3693 -8.6352 2.6657
3.4707 -8.6295 2.6644
3.5727 -8.6238 2.6631
3.6753 -8.6177 2.6617
3.7780 -8.6104 2.6599
3.8814 -8.6030 2.6581
3.9856 -8.5955 2.6563
4.0904 -8.5879 2.6545
4.1961 -8.5802 2.6527
4.3025 -8.5725 2.6509
4.4097 -8.5647 2.6491
4.5178 -8.5567 2.6472
4.6268 -8.5487 2.6453
4.7367 -8.5405 2.6435
4.8475 -8.5323 2.6416
4.9594 -8.5239 2.6397
5.0720 -8.5150 2.6376
5.1854 -8.5057 2.6354
5.2999 -8.4962 2.6333
5.4155 -8.4866 2.6310
5.5322 -8.4768 2.6288
5.6501 -8.4669 2.6265
5.7692 -8.4569 2.6243
5.8896 -8.4468 2.6220
6.0113 -8.4365 2.6196
6.1344 -8.4260 2.6173
6.2589 -8.4154 2.6149
6.3644 -8.3778 2.6042
6.5122 -8.3937 2.6101
6.6412 -8.3826 2.6077
6.7717 -8.3713 2.6052
6.9037 -8.3595 2.6026
7.0367 -8.3468 2.5997
7.1715 -8.3338 2.5968
7.3080 -8.3206 2.5938
7.2366 -8.0731 2.5178
7.2272 -7.9006 2.4652
7.3629 -7.8876 2.4623
7.5013 -7.8751 2.4596
7.6417 -7.8623 2.4569
7.7843 -7.8493 2.4541
7.9292 -7.8361 2.4513
8.0763 -7.8226 2.4484
8.2258 -7.8088 2.4455
8.3778 -7.7948 2.4426
8.5324 -7.7805 2.4396
8.6897 -7.7659 2.4365
8.8497 -7.7510 2.4334
9.0127 -7.7358 2.4303
8.9268 -7.5085 2.3605
8.7904 -7.2452 2.2794
8.6604 -6.9941 2.2020
8.5362 -6.7544 2.1281
8.4359 -6.5395 2.0620
8.2881 -6.2940 1.9862
8.1351 -6.0512 1.9112
7.9664 -5.8037 1.8346
7.8217 -5.5803 1.7655
7.7243 -5.3960 1.7088
7.6307 -5.2189 1.6543
7.5406 -5.0484 1.6018
7.5179 -4.9262 1.5647
7.4963 -4.8068 1.5283
7.4751 -4.6897 1.4927
7.4542 -4.5747 1.4578
7.4338 -4.4619 1.4235
7.4137 -4.3510 1.3898
7.4221 -4.2583 1.3619
7.4386 -4.1710 1.3358
7.4550 -4.0843 1.3098
7.4712 -3.9983 1.2841
7.4873 -3.9129 1.2585
7.5033 -3.8280 1.2331
7.5192 -3.7437 1.2079
7.5351 -3.6599 1.1828
7.5551 -3.5786 1.1586
7.5863 -3.5030 1.1362
7.6175 -3.4274 1.1138
7.6486 -3.3520 1.0915
7.6797 -3.2766 1.0692
7.7108 -3.2013 1.0469
-3.0755 -7.8087 2.8419
-2.9817 -7.8105 2.8406
-2.8884 -7.8116 2.8390
-2.7952 -7.8116 2.8372
-2.7027 -7.8115 2.8353
-2.6107 -7.8111 2.8335
-2.5192 -7.8105 2.8316
-2.4284 -7.8102 2.8299
-1.0637 -3.5528 1.2866
-1.0223 -3.5506 1.2851
-0.9811 -3.5483 1.2837
-0.9403 -3.5461 1.2822
-0.8997 -3.5439 1.2808
-0.8593 -3.5417 1.2795
-0.8192 -3.5395 1.2782
-0.7793 -3.5373 1.2769
-0.7396 -3.5352 1.2756
-0.7002 -3.5330 1.2744
-0.6609 -3.5309 1.2732
-0.6219 -3.5287 1.2720
-0.5830 -3.5266 1.2709
-0.5442 -3.5245 1.2698
-0.5057 -3.5224 1.2687
-0.4673 -3.5203 1.2676
-0.4290 -3.5182 1.2666
-0.3909 -3.5162 1.2656
-0.3529 -3.5141 1.2646
-0.3150 -3.5120 1.2637
-0.2773 -3.5100 1.2627
-0.2396 -3.5079 1.2618
-0.2020 -3.5059 1.2610
-0.1645 -3.5038 1.2601
-0.1271 -3.5018 1.2593
-0.0898 -3.4998 1.2585
-0.0525 -3.4977 1.2577
-0.0153 -3.4957 1.2570
0.0219 -3.4937 1.2562
0.0590 -3.4917 1.2555
0.0961 -3.4897 1.2549
0.1332 -3.4876 1.2542
0.1703 -3.4856 1.2536
0.2074 -3.4836 1.2530
0.2444 -3.4816 1.2524
0.2815 -3.4796 1.2518
0.3186 -3.4776 1.2513
0.3557 -3.4755 1.2508
0.3928 -3.4735 1.2503
0.4300 -3.4715 1.2498
0.4672 -3.4695 1.2494
0.5045 -3.4674 1.2489
0.5418 -3.4654 1.2485
0.5792 -3.4634 1.2481
0.6167 -3.4613 1.2478
0.6543 -3.4593 1.2474
0.6919 -3.4573 1.2471
0.7297 -3.4552 1.2468
1.6966 -7.6324 2.7553
1.7800 -7.6255 2.7539
1.8636 -7.6185 2.7525
1.9475 -7.6112 2.7511
2.0315 -7.6039 2.7497
2.1158 -7.5964 2.7483
2.2004 -7.5887 2.7469
2.2852 -7.5809 2.7455
2.3703 -7.5729 2.7442
2.4557 -7.5648 2.7428
2.5414 -7.5565 2.7414
2.6274 -7.5480 2.7400
2.7138 -7.5394 2.7386
2.8005 -7.5306 2.7372
2.8876 -7.5216 2.7358
2.9751 -7.5124 2.7344
3.0630 -7.5031 2.7330
3.1513 -7.4936 2.7316
3.2400 -7.4839 2.7302
3.3292 -7.4740 2.7288
3.4189 -7.4639 2.7274
3.5090 -7.4535 2.7260
3.5995 -7.4426 2.7244
3.6906 -7.4316 2.7229
3.7821 -7.4203 2.7213
3.8743 -7.4089 2.7197
3.9670 -7.3972 2.7182
4.0603 -7.3853 2.7166
4.1542 -7.3733 2.7150
4.2488 -7.3609 2.7135
4.3441 -7.3484 2.7119
4.4400 -7.3356 2.7103
4.5367 -7.3226 2.7087
4.6340 -7.3094 2.7071
4.7322 -7.2959 2.7055
4.8311 -7.2821 2.7039
4.9308 -7.2681 2.7023
5.0314 -7.2538 2.7006
5.1329 -7.2393 2.6990
5.2352 -7.2245 2.6974
5.3385 -7.2093 2.6957
5.4427 -7.1940 2.6940
5.5479 -7.1783 2.6924
5.6379 -7.1418 2.6830
5.7448 -7.1256 2.6813
5.8696 -7.1294 2.6873
5.9790 -7.1125 2.6856
6.0896 -7.0952 2.6839
6.2014 -7.0776 2.6822
6.3144 -7.0596 2.6804
6.4286 -7.0413 2.6787
6.5442 -7.0227 2.6769
6.6610 -7.0036 2.6751
6.5573 -6.7554 2.5858
6.5626 -6.6247 2.5412
6.6779 -6.6054 2.5395
6.7953 -6.5865 2.5380
6.9142 -6.5671 2.5365
7.0348 -6.5472 2.5349
7.1569 -6.5270 2.5334
7.2808 -6.5063 2.5319
7.4064 -6.4851 2.5303
7.5338 -6.4635 2.5287
7.6631 -6.4414 2.5271
7.7943 -6.4188 2.5255
7.9275 -6.3957 2.5239
8.0627 -6.3721 2.5222
8.2001 -6.3479 2.5206
8.2769 -6.2756 2.4999
8.1205 -6.0297 2.4100
7.9512 -5.7814 2.3187
7.8116 -5.5612 2.2383
7.7138 -5.3762 2.1718
7.6199 -5.1984 2.1079
7.5372 -5.0325 2.0486
7.5150 -4.9101 2.0069
7.4933 -4.7901 1.9660
7.4719 -4.6724 1.9259
7.4510 -4.5569 1.8867
7.4305 -4.4435 1.8482
7.4103 -4.3322 1.8105
7.4251 -4.2426 1.7818
7.4417 -4.1548 1.7538
7.4581 -4.0677 1.7261
7.4744 -3.9812 1.6987
7.4906 -3.8953 1.6715
7.5067 -3.8100 1.6445
7.5227 -3.7253 1.6178
7.5386 -3.6411 1.5913
7.5623 -3.5611 1.5666
7.5937 -3.4850 1.5437
7.6251 -3.4091 1.5209
7.6564 -3.3332 1.4981
7.6877 -3.2574 1.4754
7.7189 -3.1817 1.4528
7.7501 -3.1060 1.4303
-2.7032 -6.7603 2.8473
-2.6229 -6.7677 2.8472
-2.5429 -6.7748 2.8471
-2.4633 -6.7817 2.8470
-2.3840 -6.7884 2.8469
-2.3051 -6.7948 2.8468
-2.2264 -6.8010 2.8467
-2.1480 -6.8070 2.8466
-2.0699 -6.8127 2.8465
-1.0380 -3.5527 1.4832
-0.9962 -3.5505 1.4810
-0.9547 -3.5482 1.4789
-0.9134 -3.5459 1.4769
-0.8724 -3.5437 1.4749
-0.8316 -3.5415 1.4730
-0.7911 -3.5393 1.4711
-0.7508 -3.5371 1.4693
-0.7107 -3.5349 1.4676
-0.6709 -3.5327 1.4659
-0.6312 -3.5305 1.4642
-0.5917 -3.5284 1.4626
-0.5524 -3.5262 1.4611
-0.5132 -3.5241 1.4596
-0.4742 -3.5220 1.4582
-0.4354 -3.5199 1.4568
-0.3967 -3.5177 1.4554
-0.3581 -3.5156 1.4541
-0.3197 -3.5135 1.4529
-0.2814 -3.5115 1.4517
-0.2431 -3.5094 1.4505
-0.2050 -3.5073 1.4494
-0.1670 -3.5052 1.4483
-0.1290 -3.5032 1.4473
-0.0911 -3.5011 1.4463
-0.0533 -3.4990 1.4454
-0.0155 -3.4970 1.4445
0.0222 -3.4949 1.4436
0.0599 -3.4929 1.4428
0.0975 -3.4908 1.4421
0.1352 -3.4888 1.4414
0.1728 -3.4867 1.4407
0.2104 -3.4847 1.4401
0.2480 -3.4826 1.4395
0.2856 -3.4806 1.4389
0.3232 -3.4785 1.4384
0.3609 -3.4765 1.4380
0.3986 -3.4744 1.4376
0.4363 -3.4724 1.4372
0.4740 -3.4703 1.4369
0.5119 -3.4683 1.4366
0.5498 -3.4662 1.4363
0.5877 -3.4642 1.4361
0.6258 -3.4621 1.4360
0.6639 -3.4600 1.4359
0.7021 -3.4580 1.4358
0.7405 -3.4559 1.4358
1.5157 -6.7204 2.7938
1.5900 -6.7131 2.7925
1.6644 -6.7057 2.7913
1.7390 -6.6982 2.7902
1.8138 -6.6904 2.7890
1.8887 -6.6824 2.7878
1.9638 -6.6742 2.7867
2.0393 -6.6657 2.7855
2.1147 -6.6571 2.7843
2.1904 -6.6482 2.7832
2.2664 -6.6392 2.7820
2.3425 -6.6299 2.7809
2.4189 -6.6204 2.7798
2.4956 -6.6106 2.7786
2.5726 -6.6006 2.7775
2.6497 -6.5903 2.7763
2.7272 -6.5798 2.7751
2.8050 -6.5691 2.7740
2.8831 -6.5582 2.7729
2.9616 -6.5470 2.7717
3.0404 -6.5356 2.7706
3.1195 -6.5240 2.7695
3.1991 -6.5121 2.7684
3.2790 -6.5000 2.7673
3.3593 -6.4876 2.7662
3.4399 -6.4749 2.7651
3.5210 -6.4619 2.7640
3.6025 -6.4487 2.7629
3.6845 -6.4352 2.7617
3.7669 -6.4214 2.7606
3.8499 -6.4073 2.7595
3.9333 -6.3929 2.7584
4.0172 -6.3782 2.7573
4.1016 -6.3633 2.7562
4.1866 -6.3480 2.7551
4.2721 -6.3324 2.7540
4.3583 -6.3165 2.7529
4.4449 -6.3003 2.7518
4.5323 -6.2837 2.7507
4.6202 -6.2668 2.7496
4.7088 -6.2496 2.7485
4.7981 -6.2321 2.7474
4.8880 -6.2141 2.7463
4.9787 -6.1958 2.7452
5.0701 -6.1772 2.7441
5.1622 -6.1581 2.7430
5.2551 -6.1387 2.7419
5.3488 -6.1189 2.7408
5.4434 -6.0988 2.7397
5.5389 -6.0783 2.7386
5.6351 -6.0572 2.7375
5.7324 -6.0359 2.7365
5.8307 -6.0143 2.7355
5.9300 -5.9923 2.7345
6.0302 -5.9696 2.7335
6.1132 -5.9289 2.7244
6.0496 -5.7482 2.6508
6.0269 -5.6104 2.5969
6.1267 -5.5875 2.5961
6.2280 -5.5644 2.5955
6.3305 -5.5409 2.5949
6.4342 -5.5169 2.5943
6.5379 -5.4913 2.5933
6.6418 -5.4645 2.5918
6.7470 -5.4371 2.5904
6.8535 -5.4091 2.5890
6.9619 -5.3811 2.5878
7.0720 -5.3527 2.5867
7.1835 -5.3237 2.5857
7.2964 -5.2940 2.5846
7.4108 -5.2638 2.5835
7.5268 -5.2328 2.5824
7.6084 -5.1767 2.5692
7.5342 -5.0161 2.5040
7.5119 -4.8930 2.4573
7.4900 -4.7724 2.4116
7.4686 -4.6541 2.3668
7.4476 -4.5381 2.3231
7.4270 -4.4243 2.2802
7.4114 -4.3152 2.2397
7.4282 -4.2262 2.2094
7.4448 -4.1379 2.1795
7.4614 -4.0503 2.1499
7.4778 -3.9634 2.1207
7.4941 -3.8770 2.0917
7.5103 -3.7913 2.0631
7.5263 -3.7061 2.0347
7.5423 -3.6215 2.0066
7.5699 -3.5429 1.9818
7.6015 -3.4663 1.9583
7.6330 -3.3899 1.9349
7.6645 -3.3136 1.9116
7.6959 -3.2374 1.8885
7.7273 -3.1613 1.8654
7.7587 -3.0853 1.8425
7.7900 -3.0093 1.8197
-2.4063 -5.9252 2.8487
-2.3355 -5.9337 2.8486
-2.2650 -5.9420 2.8485
-2.1947 -5.9501 2.8485
-2.1246 -5.9578 2.8484
-2.0548 -5.9653 2.8483
-1.9851 -5.9725 2.8482
-1.9157 -5.9795 2.8481
-1.8465 -5.9862 2.8480
-1.0545 -3.5550 1.6895
-1.0119 -3.5527 1.6866
-0.9697 -3.5504 1.6838
-0.9277 -3.5481 1.6810
-0.8860 -3.5458 1.6784
-0.8446 -3.5435 1.6759
-0.8034 -3.5413 1.6734
-0.7624 -3.5390 1.6710
-0.7217 -3.5368 1.6687
-0.6812 -3.5346 1.6664
-0.6409 -3.5324 1.6643
-0.6008 -3.5302 1.6622
-0.5608 -3.5280 1.6602
-0.5211 -3.5258 1.6583
-0.4815 -3.5237 1.6564
-0.4420 -3.5215 1.6546
-0.4027 -3.5194 1.6529
-0.3636 -3.5172 1.6512
-0.3245 -3.5151 1.6497
-0.2856 -3.5130 1.6482
-0.2468 -3.5109 1.6467
-0.2081 -3.5088 1.6454
-0.1695 -3.5067 1.6441
-0.1309 -3.5046 1.6428
-0.0925 -3.5025 1.6416
-0.0541 -3.5004 1.6405
-0.0158 -3.4983 1.6395
0.0225 -3.4962 1.6385
0.0608 -3.4941 1.6376
0.0990 -3.4920 1.6368
0.1372 -3.4900 1.6360
0.1754 -3.4879 1.6353
0.2135 -3.4858 1.6347
0.2517 -3.4837 1.6341
0.2899 -3.4816 1.6335
0.3281 -3.4796 1.6331
0.3663 -3.4775 1.6327
0.4045 -3.4754 1.6324
0.4428 -3.4733 1.6321
0.4812 -3.4713 1.6319
0.5196 -3.4692 1.6318
0.5580 -3.4671 1.6317
0.5966 -3.4650 1.6317
0.6352 -3.4629 1.6317
0.6739 -3.4608 1.6318
0.7128 -3.4587 1.6320
0.7517 -3.4566 1.6323
1.3684 -5.9779 2.8252
1.4354 -5.9709 2.8243
1.5024 -5.9633 2.8232
1.5695 -5.9555 2.8221
1.6367 -5.9475 2.8211
1.7041 -5.9392 2.8201
1.7716 -5.9307 2.8190
1.8392 -5.9219 2.8180
1.9070 -5.9129 2.8170
1.9749 -5.9037 2.8160
2.0430 -5.8943 2.8150
2.1113 -5.8846 2.8140
2.1797 -5.8746 2.8130
2.2483 -5.8644 2.8120
2.3171 -5.8539 2.8111
2.3861 -5.8432 2.8101
2.4553 -5.8322 2.8091
2.5248 -5.8209 2.8082
2.5944 -5.8094 2.8072
2.6643 -5.7976 2.8063
2.7345 -5.7855 2.8053
2.8049 -5.7732 2.8044
2.8755 -5.7605 2.8035
2.9465 -5.7476 2.8026
3.0177 -5.7344 2.8017
3.0892 -5.7209 2.8008
3.1610 -5.7072 2.7999
3.2331 -5.6931 2.7990
3.3055 -5.6787 2.7981
3.3783 -5.6640 2.7972
3.4514 -5.6489 2.7963
3.5248 -5.6335 2.7954
3.5985 -5.6177 2.7945
3.6727 -5.6018 2.7936
3.7473 -5.5855 2.7928
3.8223 -5.5689 2.7919
3.8977 -5.5519 2.7911
3.9735 -5.5346 2.7903
4.0498 -5.5169 2.7894
4.1265 -5.4989 2.7886
4.2036 -5.4805 2.7878
4.2812 -5.4617 2.7870
4.3593 -5.4426 2.7862
4.4379 -5.4231 2.7854
4.5171 -5.4031 2.7846
4.5967 -5.3828 2.7838
4.6769 -5.3621 2.7830
4.7576 -5.3410 2.7822
4.8389 -5.3195 2.7814
4.9208 -5.2975 2.7806
5.0033 -5.2751 2.7799
5.0865 -5.2522 2.7791
5.1702 -5.2289 2.7783
5.2546 -5.2051 2.7776
5.3397 -5.1809 2.7768
5.4263 -5.1570 2.7765
5.5145 -5.1334 2.7766
5.6035 -5.1092 2.7767
5.6932 -5.0846 2.7769
5.7839 -5.0595 2.7771
5.7950 -4.9649 2.7392
5.7815 -4.8512 2.6907
5.7787 -4.7486 2.6482
5.8498 -4.7074 2.6399
5.9410 -4.6814 2.6404
6.0334 -4.6550 2.6411
6.1268 -4.6281 2.6417
6.2212 -4.6005 2.6424
6.3168 -4.5723 2.6431
6.4134 -4.5435 2.6439
6.5111 -4.5141 2.6446
6.6100 -4.4840 2.6454
6.7101 -4.4532 2.6462
6.8114 -4.4217 2.6470
6.9140 -4.3896 2.6479
7.0199 -4.3580 2.6495
7.1283 -4.3262 2.6516
7.2381 -4.2936 2.6537
7.3496 -4.2603 2.6558
7.4315 -4.2085 2.6469
7.4483 -4.1197 2.6149
7.4649 -4.0316 2.5833
7.4814 -3.9442 2.5521
7.4978 -3.8574 2.5212
7.5140 -3.7712 2.4907
7.5302 -3.6856 2.4606
7.5462 -3.6006 2.4307
7.5779 -3.5234 2.4063
7.6097 -3.4464 2.3820
7.6414 -3.3696 2.3579
7.6730 -3.2929 2.3340
7.7046 -3.2163 2.3103
7.7362 -3.1398 2.2868
7.7678 -3.0633 2.2634
7.7993 -2.9869 2.2401
7.8308 -2.9105 2.2170
-2.1652 -5.2467 2.8499
-2.1020 -5.2559 2.8498
-2.0389 -5.2648 2.8497
-1.9761 -5.2734 2.8496
-1.9134 -5.2817 2.8496
-1.8509 -5.2897 2.8495
-1.7886 -5.2975 2.8494
-1.7263 -5.3050 2.8493
-1.6643 -5.3121 2.8492
-1.6024 -5.3190 2.8491
-1.0284 -3.5550 1.9018
-0.9854 -3.5526 1.8982
-0.9427 -3.5503 1.8948
-0.9003 -3.5480 1.8914
-0.8581 -3.5457 1.8882
-0.8163 -3.5434 1.8850
-0.7746 -3.5411 1.8820
-0.7332 -3.5388 1.8791
-0.6920 -3.5366 1.8763
-0.6510 -3.5343 1.8736
-0.6102 -3.5321 1.8710
-0.5697 -3.5299 1.8685
-0.5293 -3.5277 1.8661
-0.4890 -3.5255 1.8637
-0.4489 -3.5233 1.8615
-0.4090 -3.5211 1.8594
-0.3692 -3.5189 1.8574
-0.3296 -3.5168 1.8555
-0.2901 -3.5146 1.8536
-0.2506 -3.5124 1.8519
-0.2113 -3.5103 1.8503
-0.1721 -3.5082 1.8487
-0.1330 -3.5060 1.8472
-0.0939 -3.5039 1.8459
-0.0549 -3.5018 1.8446
-0.0160 -3.4996 1.8434
0.0229 -3.4975 1.8423
0.0617 -3.4954 1.8413
0.1005 -3.4933 1.8403
0.1393 -3.4912 1.8395
0.1781 -3.4891 1.8387
0.2168 -3.4870 1.8381
0.2556 -3.4849 1.8375
0.2943 -3.4828 1.8370
0.3331 -3.4806 1.8366
0.3719 -3.4785 1.8362
0.4108 -3.4764 1.8360
0.4497 -3.4743 1.8358
0.4886 -3.4722 1.8358
0.5276 -3.4701 1.8358
0.5667 -3.4680 1.8359
0.6058 -3.4658 1.8361
0.6451 -3.4637 1.8364
0.6844 -3.4616 1.8368
0.7238 -3.4594 1.8372
0.7634 -3.4573 1.8378
1.2432 -5.3486 2.8459
1.3043 -5.3430 2.8458
1.3655 -5.3372 2.8458
1.4268 -5.3311 2.8457
1.4882 -5.3247 2.8457
1.5497 -5.3180 2.8456
1.6110 -5.3100 2.8450
1.6725 -5.3018 2.8443
1.7340 -5.2933 2.8437
1.7957 -5.2845 2.8431
1.8573 -5.2750 2.8423
1.9191 -5.2652 2.8415
1.9810 -5.2551 2.8406
2.0430 -5.2448 2.8398
2.1051 -5.2342 2.8389
2.1674 -5.2233 2.8381
2.2298 -5.2121 2.8373
2.2925 -5.2007 2.8365
2.3552 -5.1889 2.8357
2.4181 -5.1769 2.8349
2.4812 -5.1645 2.8341
2.5445 -5.1519 2.8333
2.6080 -5.1389 2.8325
2.6716 -5.1257 2.8317
2.7355 -5.1122 2.8309
2.7995 -5.0983 2.8301
2.8638 -5.0842 2.8294
2.9283 -5.0697 2.8286
2.9930 -5.0550 2.8279
3.0580 -5.0399 2.8271
3.1233 -5.0246 2.8265
3.1889 -5.0091 2.8259
3.2548 -4.9932 2.8253
3.3209 -4.9770 2.8246
3.3872 -4.9602 2.8239
3.4537 -4.9432 2.8233
3.5206 -4.9257 2.8226
3.5878 -4.9080 2.8219
3.6552 -4.8898 2.8212
3.7230 -4.8713 2.8206
3.7911 -4.8525 2.8199
3.8596 -4.8332 2.8193
3.9284 -4.8136 2.8187
3.9975 -4.7936 2.8181
4.0670 -4.7732 2.8174
4.1369 -4.7524 2.8168
4.2072 -4.7312 2.8162
4.2778 -4.7096 2.8156
4.3489 -4.6876 2.8151
4.4203 -4.6652 2.8145
4.4922 -4.6423 2.8139
4.5646 -4.6190 2.8134
4.6373 -4.5953 2.8128
4.7105 -4.5711 2.8123
4.7842 -4.5464 2.8118
4.8584 -4.5213 2.8113
4.9331 -4.4957 2.8108
5.0082 -4.4695 2.8103
5.0839 -4.4430 2.8098
5.1601 -4.4159 2.8093
5.2368 -4.3883 2.8088
5.3142 -4.3601 2.8083
5.3960 -4.3346 2.8100
5.4770 -4.3074 2.8108
5.5592 -4.2799 2.8119
5.6421 -4.2518 2.8130
5.6980 -4.2027 2.8005
5.7052 -4.1182 2.7645
5.7124 -4.0348 2.7291
5.7198 -3.9528 2.6945
5.7603 -3.8943 2.6759
5.8440 -3.8644 2.6774
5.9290 -3.8342 2.6790
6.0149 -3.8034 2.6807
6.1017 -3.7718 2.6825
6.1893 -3.7395 2.6842
6.2777 -3.7064 2.6859
6.3671 -3.6726 2.6876
6.4575 -3.6381 2.6893
6.5510 -3.6039 2.6920
6.6476 -3.5701 2.6955
6.7422 -3.5337 2.6977
6.8371 -3.4961 2.6997
6.9331 -3.4576 2.7017
7.0294 -3.4178 2.7034
7.1286 -3.3780 2.7058
7.2315 -3.3383 2.7091
7.3351 -3.2974 2.7122
7.4360 -3.2537 2.7139
7.5367 -3.2085 2.7151
7.6387 -3.1622 2.7164
7.7414 -3.1147 2.7175
7.7775 -3.0396 2.6950
7.8092 -2.9628 2.6713
7.8409 -2.8861 2.6477
7.8831 -2.8131 2.6278
-1.9645 -4.6824 2.8509
-1.9076 -4.6918 2.8508
-1.8508 -4.7010 2.8507
-1.7940 -4.7098 2.8506
-1.7375 -4.7184 2.8505
-1.6810 -4.7266 2.8505
-1.6246 -4.7346 2.8504
-1.5684 -4.7423 2.8503
-1.5122 -4.7497 2.8502
-1.4562 -4.7568 2.8502
-1.0457 -3.5574 2.1284
-1.0019 -3.5550 2.1240
-0.9585 -3.5527 2.1197
-0.9153 -3.5503 2.1156
-0.8724 -3.5479 2.1116
-0.8298 -3.5456 2.1078
-0.7874 -3.5433 2.1040
-0.7453 -3.5409 2.1005
-0.7034 -3.5386 2.0970
-0.6617 -3.5364 2.0937
-0.6202 -3.5341 2.0906
-0.5790 -3.5318 2.0875
-0.5379 -3.5296 2.0846
-0.4970 -3.5273 2.0818
-0.4562 -3.5251 2.0791
-0.4156 -3.5229 2.0766
-0.3752 -3.5207 2.0742
-0.3349 -3.5185 2.0719
-0.2947 -3.5163 2.0697
-0.2547 -3.5141 2.0676
-0.2147 -3.5119 2.0657
-0.1749 -3.5097 2.0639
-0.1351 -3.5076 2.0621
-0.0954 -3.5054 2.0605
-0.0558 -3.5032 2.0591
-0.0162 -3.5011 2.0577
0.0233 -3.4989 2.0564
0.0627 -3.4968 2.0553
0.1021 -3.4946 2.0543
0.1415 -3.4925 2.0533
0.1809 -3.4903 2.0525
0.2203 -3.4882 2.0518
0.2597 -3.4861 2.0513
0.2990 -3.4839 2.0508
0.3384 -3.4818 2.0504
0.3779 -3.4796 2.0502
0.4173 -3.4775 2.0500
0.4569 -3.4753 2.0500
0.4964 -3.4732 2.0501
0.5361 -3.4710 2.0503
0.5758 -3.4689 2.0506
0.6156 -3.4667 2.0510
0.6554 -3.4646 2.0516
0.6954 -3.4624 2.0522
0.7355 -3.4602 2.0530
0.7757 -3.4581 2.0538
0.9124 -3.8639 2.2974
1.1862 -4.7828 2.8471
1.2417 -4.7768 2.8471
1.2973 -4.7705 2.8470
1.3529 -4.7640 2.8470
1.4087 -4.7572 2.8469
1.4645 -4.7501 2.8469
1.5204 -4.7428 2.8469
1.5764 -4.7351 2.8468
1.6326 -4.7272 2.8468
1.6888 -4.7189 2.8467
1.7452 -4.7104 2.8467
1.8016 -4.7016 2.8466
1.8582 -4.6925 2.8466
1.9149 -4.6831 2.8465
1.9717 -4.6734 2.8465
2.0286 -4.6634 2.8465
2.0857 -4.6531 2.8464
2.1429 -4.6425 2.8464
2.2002 -4.6316 2.8463
2.2577 -4.6204 2.8463
2.3154 -4.6089 2.8462
2.3732 -4.5970 2.8462
2.4311 -4.5849 2.8462
2.4893 -4.5724 2.8461
2.5475 -4.5596 2.8461
2.6060 -4.5464 2.8461
2.6646 -4.5329 2.8460
2.7235 -4.5191 2.8460
2.7825 -4.5050 2.8459
2.8417 -4.4905 2.8459
2.9010 -4.4757 2.8459
2.9606 -4.4605 2.8458
3.0204 -4.4450 2.8458
3.0804 -4.4291 2.8458
3.1406 -4.4128 2.8457
3.2011 -4.3962 2.8457
3.2617 -4.3792 2.8457
3.3226 -4.3619 2.8456
3.3837 -4.3441 2.8456
3.4451 -4.3260 2.8456
3.5067 -4.3075 2.8456
3.5686 -4.2886 2.8455
3.6305 -4.2690 2.8453
3.6925 -4.2489 2.8450
3.7548 -4.2284 2.8447
3.8173 -4.2075 2.8444
3.8800 -4.1860 2.8440
3.9429 -4.1641 2.8436
4.0061 -4.1417 2.8432
4.0697 -4.1190 2.8428
4.1335 -4.0958 2.8424
4.1976 -4.0722 2.8421
4.2621 -4.0482 2.8417
4.3269 -4.0237 2.8413
4.3920 -3.9988 2.8410
4.4574 -3.9734 2.8407
4.5232 -3.9475 2.8404
4.5894 -3.9212 2.8401
4.6559 -3.8944 2.8398
4.7228 -3.8671 2.8395
4.7901 -3.8393 2.8392
4.8578 -3.8110 2.8390
4.9259 -3.7822 2.8387
4.9944 -3.7529 2.8385
5.0633 -3.7230 2.8383
5.1326 -3.6926 2.8380
5.2024 -3.6617 2.8378
5.2726 -3.6301 2.8376
5.3460 -3.5999 2.8389
5.4201 -3.5691 2.8403
5.4948 -3.5378 2.8417
5.5706 -3.5061 2.8434
5.6470 -3.4738 2.8451
5.7236 -3.4406 2.8466
5.7563 -3.3805 2.8263
5.7735 -3.3118 2.7987
5.7907 -3.2435 2.7716
5.8108 -3.1775 2.7463
5.8309 -3.1118 2.7214
5.8731 -3.0581 2.7070
5.9500 -3.0218 2.7085
6.0326 -2.9872 2.7123
6.1051 -2.9466 2.7113
6.1837 -2.9079 2.7127
6.2629 -2.8683 2.7141
6.3419 -2.8275 2.7151
6.4216 -2.7859 2.7162
6.5019 -2.7434 2.7171
6.5825 -2.7000 2.7180
6.6640 -2.6557 2.7189
6.7457 -2.6103 2.7196
6.8280 -2.5640 2.7203
6.9114 -2.5168 2.7210
6.9957 -2.4688 2.7219
7.0793 -2.4193 2.7222
-1.7944 -4.2037 2.8517
-1.7426 -4.2132 2.8516
-1.6910 -4.2223 2.8515
-1.6395 -4.2312 2.8515
-1.5880 -4.2398 2.8514
-1.5366 -4.2482 2.8513
-1.4853 -4.2562 2.8512
-1.4341 -4.2639 2.8512
-1.3829 -4.2714 2.8511
-1.3318 -4.2785 2.8510
-1.2809 -4.2854 2.8510
-1.0195 -3.5576 2.3630
-0.9752 -3.5551 2.3579
-0.9312 -3.5527 2.3529
-0.8875 -3.5503 2.3481
-0.8441 -3.5479 2.3435
-0.8010 -3.5456 2.3390
-0.7581 -3.5432 2.3347
-0.7154 -3.5409 2.3306
-0.6730 -3.5385 2.3267
-0.6308 -3.5362 2.3229
-0.5888 -3.5339 2.3192
-0.5470 -3.5316 2.3158
-0.5054 -3.5293 2.3125
-0.4639 -3.5271 2.3093
-0.4226 -3.5248 2.3063
-0.3815 -3.5225 2.3034
-0.3405 -3.5203 2.3007
-0.2997 -3.5181 2.2981
-0.2589 -3.5158 2.2957
-0.2183 -3.5136 2.2935
-0.1778 -3.5114 2.2913
-0.1374 -3.5092 2.2893
-0.0970 -3.5070 2.2875
-0.0567 -3.5048 2.2858
-0.0165 -3.5026 2.2843
0.0236 -3.5004 2.2828
0.0638 -3.4982 2.2816
0.1038 -3.4960 2.2804
0.1439 -3.4939 2.2794
0.1839 -3.4917 2.2786
0.2239 -3.4895 2.2778
0.2640 -3.4873 2.2773
0.3040 -3.4851 2.2768
0.3441 -3.4830 2.2765
0.3842 -3.4808 2.2763
0.4243 -3.4786 2.2763
0.4645 -3.4764 2.2764
0.5047 -3.4742 2.2767
0.5450 -3.4721 2.2771
0.5854 -3.4699 2.2776
0.6258 -3.4677 2.2783
0.6664 -3.4655 2.2791
0.7071 -3.4633 2.2800
0.7478 -3.4611 2.2811
0.7887 -3.4589 2.2823
0.8866 -3.6932 2.4400
0.9513 -3.7730 2.4960
1.1362 -4.2995 2.8482
1.1870 -4.2933 2.8482
1.2378 -4.2867 2.8481
1.2886 -4.2799 2.8481
1.3396 -4.2728 2.8480
1.3905 -4.2654 2.8480
1.4416 -4.2578 2.8480
1.4927 -4.2498 2.8479
1.5439 -4.2416 2.8479
1.5952 -4.2330 2.8478
1.6465 -4.2242 2.8478
1.6980 -4.2151 2.8478
1.7495 -4.2057 2.8477
1.8011 -4.1960 2.8477
1.8528 -4.1860 2.8477
1.9046 -4.1758 2.8476
1.9565 -4.1651 2.8476
2.0084 -4.1543 2.8476
2.0605 -4.1431 2.8475
2.1127 -4.1315 2.8475
2.1650 -4.1197 2.8474
2.2174 -4.1076 2.8474
2.2699 -4.0951 2.8474
2.3226 -4.0824 2.8474
2.3753 -4.0693 2.8473
2.4282 -4.0559 2.8473
2.4812 -4.0421 2.8473
2.5344 -4.0280 2.8472
2.5876 -4.0136 2.8472
2.6410 -3.9989 2.8472
2.6946 -3.9838 2.8471
2.7483 -3.9684 2.8471
2.8021 -3.9526 2.8471
2.8561 -3.9365 2.8471
2.9102 -3.9200 2.8470
2.9645 -3.9032 2.8470
3.0189 -3.8860 2.8470
3.0735 -3.8685 2.8470
3.1283 -3.8505 2.8469
3.1832 -3.8322 2.8469
3.2383 -3.8136 2.8469
3.2936 -3.7945 2.8469
3.3490 -3.7751 2.8469
3.4047 -3.7552 2.8468
3.4605 -3.7350 2.8468
3.5165 -3.7144 2.8468
3.5727 -3.6934 2.8468
3.6291 -3.6719 2.8468
3.6858 -3.6501 2.8467
3.7426 -3.6278 2.8467
3.7996 -3.6052 2.8467
3.8568 -3.5820 2.8467
3.9143 -3.5585 2.8467
3.9719 -3.5345 2.8467
4.0299 -3.5100 2.8467
4.0880 -3.4851 2.8466
4.1463 -3.4598 2.8466
4.2050 -3.4340 2.8466
4.2638 -3.4077 2.8466
4.3229 -3.3809 2.8466
4.3822 -3.3536 2.8466
4.4418 -3.3259 2.8466
4.5017 -3.2976 2.8466
4.5618 -3.2689 2.8466
4.6222 -3.2396 2.8466
4.6829 -3.2098 2.8466
4.7439 -3.1795 2.8466
4.8051 -3.1487 2.8466
4.8666 -3.1173 2.8465
4.9285 -3.0853 2.8465
4.9906 -3.0528 2.8465
5.0530 -3.0197 2.8465
5.1214 -2.9893 2.8497
5.1906 -2.9585 2.8530
5.2594 -2.9264 2.8559
5.3282 -2.8935 2.8585
5.3973 -2.8598 2.8611
5.4645 -2.8242 2.8623
5.5316 -2.7876 2.8634
5.5993 -2.7505 2.8645
5.6677 -2.7128 2.8658
5.7360 -2.6741 2.8669
5.8046 -2.6347 2.8679
5.8736 -2.5945 2.8688
5.9428 -2.5535 2.8697
5.9855 -2.5005 2.8577
6.0092 -2.4395 2.8368
6.0344 -2.3791 2.8169
6.0596 -2.3189 2.7973
6.0849 -2.2588 2.7779
6.1101 -2.1986 2.7587
6.1380 -2.1395 2.7410
6.1739 -2.0829 2.7270
6.2305 -2.0329 2.7222
-1.6476 -3.7908 2.8524
-1.6004 -3.8002 2.8523
-1.5532 -3.8093 2.8523
-1.5060 -3.8182 2.8522
-1.4589 -3.8267 2.8521
-1.4119 -3.8349 2.8521
-1.3649 -3.8429 2.8520
-1.3180 -3.8505 2.8519
-1.2712 -3.8579 2.8518
-1.2243 -3.8650 2.8518
-1.1776 -3.8719 2.8517
-1.1308 -3.8784 2.8516
-0.9930 -3.5578 2.6116
-0.9481 -3.5553 2.6057
-0.9036 -3.5529 2.6000
-0.8593 -3.5504 2.5945
-0.8154 -3.5480 2.5892
-0.7717 -3.5456 2.5842
-0.7282 -3.5432 2.5793
-0.6850 -3.5408 2.5746
-0.6420 -3.5385 2.5702
-0.5993 -3.5361 2.5659
-0.5567 -3.5338 2.5618
-0.5143 -3.5314 2.5579
-0.4721 -3.5291 2.5542
-0.4301 -3.5268 2.5507
-0.3882 -3.5245 2.5473
-0.3465 -3.5222 2.5442
-0.3049 -3.5200 2.5412
-0.2635 -3.5177 2.5384
-0.2221 -3.5154 2.5357
-0.1809 -3.5132 2.5333
-0.1398 -3.5109 2.5310
-0.0987 -3.5087 2.5289
-0.0577 -3.5064 2.5270
-0.0168 -3.5042 2.5252
0.0241 -3.5020 2.5236
0.0649 -3.4998 2.5222
0.1056 -3.4975 2.5210
0.1464 -3.4953 2.5199
0.1871 -3.4931 2.5190
0.2278 -3.4909 2.5182
0.2686 -3.4887 2.5176
0.3093 -3.4865 2.5172
0.3500 -3.4842 2.5170
0.3908 -3.4820 2.5169
0.4317 -3.4798 2.5170
0.4725 -3.4776 2.5172
0.5135 -3.4754 2.5177
0.5545 -3.4731 2.5183
0.5956 -3.4709 2.5190
0.6368 -3.4687 2.5200
0.6781 -3.4665 2.5211
0.7194 -3.4642 2.5223
0.7610 -3.4620 2.5238
0.8026 -3.4597 2.5254
0.9520 -3.8981 2.8493
0.9985 -3.8924 2.8492
1.0450 -3.8865 2.8492
1.0916 -3.8803 2.8492
1.1382 -3.8738 2.8491
1.1848 -3.8671 2.8491
1.2315 -3.8601 2.8490
1.2782 -3.8528 2.8490
1.3250 -3.8452 2.8490
1.3718 -3.8373 2.8489
1.4187 -3.8292 2.8489
1.4656 -3.8208 2.8489
1.5126 -3.8121 2.8488
1.5597 -3.8031 2.8488
1.6068 -3.7938 2.8488
1.6539 -3.7842 2.8487
1.7011 -3.7744 2.8487
1.7484 -3.7642 2.8487
1.7958 -3.7538 2.8486
1.8432 -3.7430 2.8486
1.8907 -3.7320 2.8486
1.9382 -3.7207 2.8485
1.9859 -3.7090 2.8485
2.0336 -3.6971 2.8485
2.0814 -3.6848 2.8485
2.1292 -3.6722 2.8484
2.1772 -3.6594 2.8484
2.2252 -3.6462 2.8484
2.2733 -3.6327 2.8484
2.3215 -3.6188 2.8483
2.3698 -3.6047 2.8483
2.4182 -3.5902 2.8483
2.4666 -3.5754 2.8483
2.5152 -3.5603 2.8482
2.5639 -3.5448 2.8482
2.6126 -3.5290 2.8482
2.6615 -3.5129 2.8482
2.7105 -3.4964 2.8482
2.7595 -3.4796 2.8481
2.8087 -3.4625 2.8481
2.8580 -3.4449 2.8481
2.9074 -3.4271 2.8481
2.9569 -3.4088 2.8481
3.0065 -3.3902 2.8481
3.0563 -3.3713 2.8480
3.1061 -3.3519 2.8480
3.1561 -3.3322 2.8480
3.2062 -3.3122 2.8480
3.2565 -3.2917 2.8480
3.3068 -3.2709 2.8480
3.3573 -3.2496 2.8480
3.4080 -3.2280 2.8479
3.4587 -3.2060 2.8479
3.5096 -3.1836 2.8479
3.5606 -3.1607 2.8479
3.6118 -3.1375 2.8479
3.6631 -3.1138 2.8479
3.7146 -3.0897 2.8479
3.7662 -3.0652 2.8479
3.8180 -3.0403 2.8479
3.8699 -3.0149 2.8479
3.9220 -2.9891 2.8479
3.9743 -2.9628 2.8479
4.0267 -2.9361 2.8479
4.0792 -2.9089 2.8479
4.1320 -2.8813 2.8479
4.1849 -2.8532 2.8479
4.2379 -2.8246 2.8479
4.2912 -2.7955 2.8479
4.3446 -2.7660 2.8479
4.3982 -2.7359 2.8479
4.4520 -2.7054 2.8479
4.5059 -2.6743 2.8479
4.5601 -2.6427 2.8479
4.6144 -2.6106 2.8479
4.6690 -2.5780 2.8479
4.7236 -2.5448 2.8479
4.7807 -2.5122 2.8492
4.8409 -2.4806 2.8522
4.9015 -2.4483 2.8552
4.9613 -2.4148 2.8576
5.0214 -2.3807 2.8600
5.0814 -2.3457 2.8622
5.1411 -2.3099 2.8640
5.2011 -2.2733 2.8659
5.2609 -2.2360 2.8675
5.3207 -2.1978 2.8689
5.3805 -2.1588 2.8701
5.4403 -2.1191 2.8713
5.4998 -2.0784 2.8721
5.5594 -2.0370 2.8729
5.6192 -1.9949 2.8736
5.6789 -1.9519 2.8741
5.7382 -1.9081 2.8743
5.7978 -1.8634 2.8745
5.8575 -1.8181 2.8747
-1.5193 -3.4297 2.8530
-1.4759 -3.4389 2.8530
-1.4325 -3.4478 2.8529
-1.3892 -3.4565 2.8528
-1.3459 -3.4648 2.8528
-1.3027 -3.4729 2.8527
-1.2595 -3.4807 2.8526
-1.2163 -3.4883 2.8526
-1.1732 -3.4955 2.8525
-1.1301 -3.5025 2.8524
-1.0870 -3.5092 2.8524
-1.0440 -3.5157 2.8523
-1.0010 -3.5219 2.8523
-0.9580 -3.5278 2.8522
-0.9151 -3.5334 2.8521
-0.8722 -3.5388 2.8521
-0.8293 -3.5439 2.8520
-0.7864 -3.5487 2.8520
-0.7436 -3.5533 2.8519
-0.7007 -3.5576 2.8518
-0.6579 -3.5617 2.8518
-0.6151 -3.5655 2.8517
-0.5724 -3.5690 2.8517
-0.5296 -3.5723 2.8516
-0.4869 -3.5753 2.8516
-0.4442 -3.5781 2.8515
-0.4014 -3.5806 2.8515
-0.3588 -3.5828 2.8514
-0.3161 -3.5848 2.8514
-0.2734 -3.5865 2.8513
-0.2307 -3.5880 2.8513
-0.1881 -3.5892 2.8512
-0.1454 -3.5901 2.8512
-0.1028 -3.5908 2.8511
-0.0601 -3.5912 2.8511
-0.0175 -3.5914 2.8510
0.0251 -3.5913 2.8510
0.0678 -3.5910 2.8509
0.1104 -3.5904 2.8509
0.1530 -3.5895 2.8508
0.1957 -3.5884 2.8508
0.2383 -3.5870 2.8507
0.2810 -3.5854 2.8507
0.3236 -3.5835 2.8506
0.3663 -3.5814 2.8506
0.4089 -3.5790 2.8506
0.4516 -3.5763 2.8505
0.4943 -3.5734 2.8505
0.5370 -3.5702 2.8504
0.5797 -3.5668 2.8504
0.6225 -3.5631 2.8504
0.6652 -3.5591 2.8503
0.7080 -3.5549 2.8503
0.7507 -3.5504 2.8502
0.7935 -3.5457 2.8502
0.8364 -3.5407 2.8502
0.8792 -3.5354 2.8501
0.9221 -3.5299 2.8501
0.9650 -3.5241 2.8501
1.0079 -3.5180 2.8500
1.0508 -3.5117 2.8500
1.0938 -3.5051 2.8499
1.1368 -3.4982 2.8499
1.1798 -3.4910 2.8499
1.2229 -3.4836 2.8499
1.2659 -3.4759 2.8498
1.3091 -3.4679 2.8498
1.3522 -3.4597 2.8498
1.3954 -3.4512 2.8497
1.4386 -3.4424 2.8497
1.4819 -3.4333 2.8497
1.5252 -3.4239 2.8496
1.5685 -3.4143 2.8496
1.6119 -3.4044 2.8496
1.6553 -3.3942 2.8496
1.6988 -3.3837 2.8495
1.7423 -3.3729 2.8495
1.7859 -3.3618 2.8495
1.8295 -3.3504 2.8495
1.8731 -3.3388 2.8494
1.9168 -3.3268 2.8494
1.9606 -3.3145 2.8494
2.0044 -3.3020 2.8494
2.0483 -3.2891 2.8493
2.0922 -3.2760 2.8493
2.1362 -3.2625 2.8493
2.1802 -3.2487 2.8493
2.2243 -3.2346 2.8493
2.2684 -3.2202 2.8492
2.3126 -3.2055 2.8492
2.3569 -3.1905 2.8492
2.4012 -3.1751 2.8492
2.4456 -3.1594 2.8492
2.4900 -3.1434 2.8492
2.5346 -3.1271 2.8491
2.5791 -3.1104 2.8491
2.6238 -3.0934 2.8491
2.6685 -3.0761 2.8491
2.7133 -3.0584 2.8491
2.7582 -3.0404 2.8491
2.8031 -3.0221 2.8491
3.0289 -2.9250 2.8490
2.8481 -3.0033 2.8490
3.0743 -2.9045 2.8490
2.8932 -2.9843 2.8490
3.1198 -2.8836 2.8490
2.9383 -2.9649 2.8490
3.1653 -2.8624 2.8490
2.9836 -2.9451 2.8490
3.2110 -2.8408 2.8490
3.2567 -2.8188 2.8490
3.4865 -2.7030 2.8490
3.3025 -2.7964 2.8490
3.5328 -2.6787 2.8490
3.3484 -2.7737 2.8490
3.5791 -2.6539 2.8490
3.3943 -2.7505 2.8490
3.6255 -2.6288 2.8490
3.4404 -2.7270 2.8490
3.6721 -2.6032 2.8490
3.7187 -2.5772 2.8490
3.9532 -2.4407 2.8490
3.7654 -2.5508 2.8490
4.0004 -2.4121 2.8490
3.8122 -2.5239 2.8490
4.0476 -2.3830 2.8490
3.8591 -2.4966 2.8490
4.0950 -2.3535 2.8490
3.9061 -2.4689 2.8490
4.1425 -2.3234 2.8490
4.1901 -2.2930 2.8491
4.4297 -2.1333 2.8491
4.2378 -2.2620 2.8491
4.4779 -2.0999 2.8491
4.2856 -2.2306 2.8491
4.5294 -2.0674 2.8511
4.3336 -2.1986 2.8491
4.5823 -2.0348 2.8539
4.3816 -2.1662 2.8491
4.6353 -2.0016 2.8566
4.6876 -1.9675 2.8588
4.7402 -1.9328 2.8610
4.7925 -1.8973 2.8629
4.8445 -1.8610 2.8646
4.8967 -1.8242 2.8663
4.9488 -1.7865 2.8677
5.0007 -1.7482 2.8690
5.0525 -1.7092 2.8702
5.1042 -1.6694 2.8713
5.1557 -1.6289 2.8721
5.2071 -1.5877 2.8728
5.2586 -1.5458 2.8734
-1.4056 -3.1098 2.8536
-1.3656 -3.1188 2.8535
-1.3256 -3.1275 2.8535
-1.2856 -3.1359 2.8534
-1.2457 -3.1440 2.8533
-1.2058 -3.1519 2.8533
-1.1660 -3.1595 2.8532
-1.1261 -3.1669 2.8531
-1.0863 -3.1740 2.8531
-1.0464 -3.1808 2.8530
-1.0066 -3.1873 2.8530
-0.9669 -3.1936 2.8529
-0.9271 -3.1997 2.8529
-0.8874 -3.2054 2.8528
-0.8477 -3.2110 2.8527
-0.8080 -3.2162 2.8527
-0.7683 -3.2212 2.8526
-0.7286 -3.2259 2.8526
-0.6889 -3.2304 2.8525
-0.6493 -3.2346 2.8525
-0.6097 -3.2386 2.8524
-0.5700 -3.2423 2.8524
-0.5304 -3.2458 2.8523
-0.4908 -3.2490 2.8523
-0.4513 -3.2519 2.8522
-0.4117 -3.2546 2.8522
-0.3721 -3.2571 2.8521
-0.3325 -3.2592 2.8521
-0.2930 -3.2612 2.8520
-0.2534 -3.2629 2.8520
-0.2139 -3.2643 2.8519
-0.1744 -3.2655 2.8519
-0.1348 -3.2664 2.8518
-0.0953 -3.2671 2.8518
-0.0558 -3.2675 2.8517
-0.0162 -3.2677 2.8517
0.0233 -3.2676 2.8517
0.0628 -3.2673 2.8516
0.1023 -3.2667 2.8516
0.1419 -3.2659 2.8515
0.1814 -3.2648 2.8515
0.2209 -3.2635 2.8514
0.2604 -3.2619 2.8514
0.3000 -3.2601 2.8514
0.3395 -3.2580 2.8513
0.3791 -3.2557 2.8513
0.4186 -3.2531 2.8512
0.4582 -3.2502 2.8512
0.4977 -3.2472 2.8512
0.5373 -3.2438 2.8511
0.5769 -3.2402 2.8511
0.6164 -3.2364 2.8511
0.6560 -3.2322 2.8510
0.6956 -3.2279 2.8510
0.7352 -3.2233 2.8509
0.7749 -3.2184 2.8509
0.8145 -3.2132 2.8509
0.8542 -3.2079 2.8508
0.8939 -3.2022 2.8508
0.9335 -3.1963 2.8508
0.9732 -3.1901 2.8508
1.0129 -3.1837 2.8507
1.0527 -3.1770 2.8507
1.0924 -3.1700 2.8507
1.1322 -3.1628 2.8506
1.1720 -3.1553 2.8506
1.2118 -3.1476 2.8506
1.2516 -3.1395 2.8505
1.2915 -3.1312 2.8505
1.3313 -3.1227 2.8505
1.3712 -3.1139 2.8505
1.4111 -3.1048 2.8504
1.4511 -3.0954 2.8504
1.4910 -3.0857 2.8504
1.5310 -3.0758 2.8504
1.5710 -3.0656 2.8503
1.6110 -3.0551 2.8503
1.6511 -3.0444 2.8503
1.6912 -3.0333 2.8503
1.7313 -3.0220 2.8503
1.7715 -3.0104 2.8502
1.8116 -2.9985 2.8502
1.8518 -2.9863 2.8502
1.8921 -2.9739 2.8502
1.9323 -2.9611 2.8502
1.9726 -2.9481 2.8501
2.0129 -2.9347 2.8501
2.0533 -2.9211 2.8501
2.0937 -2.9071 2.8501
2.1341 -2.8929 2.8501
2.1746 -2.8784 2.8501
2.2150 -2.8635 2.8501
2.2556 -2.8484 2.8500
2.2961 -2.8329 2.8500
2.3367 -2.8171 2.8500
2.3774 -2.8010 2.8500
2.4180 -2.7846 2.8500
2.4588 -2.7679 2.8500
2.4995 -2.7509 2.8500
2.5403 -2.7335 2.8500
2.5811 -2.7158 2.8500
2.6219 -2.6978 2.8499
2.6628 -2.6795 2.8499
2.7038 -2.6608 2.8499
2.7448 -2.6418 2.8499
2.7858 -2.6224 2.8499
2.8268 -2.6027 2.8499
2.8679 -2.5827 2.8499
2.9091 -2.5623 2.8499
2.9502 -2.5416 2.8499
2.9915 -2.5205 2.8499
3.0327 -2.4991 2.8499
3.0740 -2.4773 2.8499
3.1154 -2.4551 2.8499
3.1568 -2.4326 2.8499
3.1982 -2.4097 2.8499
3.4060 -2.2896 2.8499
3.4477 -2.2644 2.8499
3.2397 -2.3864 2.8499
3.4895 -2.2388 2.8500
3.2812 -2.3628 2.8499
3.5313 -2.2128 2.8500
3.3228 -2.3388 2.8499
3.5731 -2.1865 2.8500
3.6150 -2.1597 2.8500
3.3644 -2.3143 2.8499
3.6569 -2.1325 2.8500
3.8250 -2.0195 2.8500
3.6988 -2.1049 2.8500
3.7408 -2.0769 2.8500
3.8671 -1.9903 2.8501
3.7829 -2.0484 2.8500
3.9092 -1.9605 2.8501
4.0360 -1.8687 2.8501
3.9515 -1.9303 2.8501
4.0783 -1.8371 2.8501
3.9937 -1.8997 2.8501
4.1207 -1.8052 2.8502
4.2481 -1.7064 2.8502
4.1631 -1.7727 2.8502
4.2938 -1.6738 2.8524
4.2056 -1.7398 2.8502
4.3403 -1.6409 2.8549
4.4783 -1.5381 2.8614
4.3866 -1.6073 2.8574
4.5241 -1.5026 2.8632
4.4324 -1.5730 2.8594
4.5694 -1.4664 2.8647
4.6148 -1.4296 2.8663
4.6601 -1.3921 2.8677
4.7051 -1.3540 2.8689
4.7501 -1.3153 2.8701
-1.3037 -2.8233 2.8541
-1.2667 -2.8320 2.8540
-1.2298 -2.8404 2.8540
-1.1928 -2.8486 2.8539
-1.1559 -2.8565 2.8538
-1.1190 -2.8641 2.8538
-1.0821 -2.8715 2.8537
-1.0452 -2.8786 2.8537
-1.0083 -2.8855 2.8536
-0.9714 -2.8921 2.8536
-0.9345 -2.8985 2.8535
-0.8977 -2.9046 2.8534
-0.8608 -2.9105 2.8534
-0.8240 -2.9161 2.8533
-0.7871 -2.9214 2.8533
-0.7503 -2.9265 2.8532
-0.7135 -2.9314 2.8532
-0.6767 -2.9360 2.8531
-0.6399 -2.9404 2.8531
-0.6031 -2.9445 2.8530
-0.5663 -2.9483 2.8530
-0.5295 -2.9519 2.8529
-0.4928 -2.9553 2.8529
-0.4560 -2.9584 2.8528
-0.4192 -2.9613 2.8528
-0.3825 -2.9639 2.8527
-0.3457 -2.9663 2.8527
-0.3090 -2.9684 2.8527
-0.2722 -2.9703 2.8526
-0.2355 -2.9720 2.8526
-0.1987 -2.9734 2.8525
-0.1620 -2.9745 2.8525
-0.1253 -2.9754 2.8524
-0.0886 -2.9761 2.8524
-0.0518 -2.9765 2.8524
-0.0151 -2.9767 2.8523
0.0216 -2.9766 2.8523
0.0584 -2.9763 2.8522
0.0951 -2.9758 2.8522
0.1318 -2.9750 2.8521
0.1686 -2.9739 2.8521
0.2053 -2.9726 2.8521
0.3522 -2.9651 2.8519
0.2420 -2.9711 2.8520
0.3889 -2.9626 2.8519
0.2787 -2.9693 2.8520
0.4256 -2.9598 2.8519
0.3154 -2.9673 2.8520
0.4624 -2.9568 2.8518
0.5359 -2.9501 2.8517
0.4991 -2.9536 2.8518
0.5726 -2.9463 2.8517
0.7197 -2.9289 2.8516
0.6094 -2.9423 2.8517
0.7565 -2.9239 2.8516
0.6461 -2.9381 2.8517
0.9036 -2.9015 2.8514
0.7932 -2.9187 2.8515
0.6829 -2.9336 2.8516
0.9404 -2.8953 2.8514
0.8300 -2.9132 2.8515
1.0877 -2.8678 2.8513
0.9772 -2.8888 2.8514
0.8668 -2.9075 2.8515
1.1246 -2.8603 2.8513
1.0141 -2.8820 2.8514
1.2720 -2.8277 2.8512
1.1614 -2.8525 2.8513
1.0509 -2.8750 2.8513
1.3090 -2.8188 2.8512
1.1983 -2.8445 2.8512
1.4566 -2.7810 2.8511
1.3459 -2.8098 2.8511
1.2352 -2.8362 2.8512
1.4936 -2.7708 2.8511
1.3828 -2.8004 2.8511
1.6415 -2.7276 2.8510
1.8266 -2.6675 2.8509
1.5306 -2.7605 2.8510
1.4197 -2.7908 2.8511
1.6785 -2.7162 2.8510
1.8637 -2.6546 2.8509
1.5675 -2.7498 2.8510
2.0121 -2.6003 2.8508
1.7155 -2.7044 2.8509
1.9008 -2.6414 2.8509
1.6045 -2.7388 2.8510
2.0492 -2.5860 2.8508
1.7526 -2.6924 2.8509
1.9379 -2.6280 2.8509
2.1979 -2.5259 2.8508
2.0864 -2.5714 2.8508
1.7896 -2.6800 2.8509
1.9750 -2.6143 2.8509
2.2351 -2.5101 2.8508
2.1235 -2.5565 2.8508
2.3840 -2.4440 2.8508
2.5704 -2.3545 2.8507
2.2723 -2.4940 2.8508
2.1607 -2.5413 2.8508
2.4213 -2.4267 2.8507
2.6077 -2.3356 2.8507
2.3095 -2.4777 2.8508
2.7571 -2.2569 2.8507
2.4585 -2.4091 2.8507
2.6451 -2.3164 2.8507
2.3467 -2.4610 2.8508
2.7945 -2.2365 2.8507
2.4958 -2.3912 2.8507
2.6824 -2.2969 2.8507
2.9441 -2.1511 2.8507
2.8319 -2.2156 2.8507
2.5331 -2.3730 2.8507
2.7198 -2.2771 2.8507
2.9815 -2.1290 2.8508
2.8693 -2.1945 2.8507
3.1313 -2.0368 2.8508
3.3186 -1.9134 2.8508
3.0190 -2.1064 2.8508
2.9067 -2.1730 2.8507
3.1688 -2.0128 2.8508
3.3561 -1.8877 2.8508
3.0564 -2.0836 2.8508
3.5060 -1.7808 2.8509
3.2062 -1.9885 2.8508
3.3936 -1.8615 2.8509
3.0939 -2.0603 2.8508
3.2437 -1.9639 2.8508
3.5435 -1.7531 2.8509
3.4311 -1.8350 2.8509
3.2812 -1.9388 2.8508
3.6934 -1.6384 2.8510
3.5810 -1.7250 2.8509
3.4686 -1.8081 2.8509
3.7308 -1.6087 2.8510
3.8806 -1.4858 2.8511
3.6185 -1.6965 2.8510
4.0699 -1.3233 2.8530
3.7683 -1.5786 2.8510
3.6559 -1.6676 2.8510
3.9180 -1.4540 2.8511
4.1106 -1.2904 2.8553
3.9554 -1.4218 2.8512
4.1513 -1.2569 2.8577
3.9928 -1.3891 2.8512
4.1913 -1.2227 2.8595
4.0301 -1.3560 2.8512
4.2313 -1.1880 2.8613
4.2713 -1.1528 2.8632
4.3107 -1.1169 2.8646
3.8057 -1.5480 2.8511
3.8432 -1.5171 2.8511
-1.2116 -2.5642 2.8545
-1.1773 -2.5725 2.8545
-1.1431 -2.5807 2.8544
-1.1088 -2.5886 2.8544
-1.0746 -2.5962 2.8543
-1.0404 -2.6036 2.8542
-1.0061 -2.6107 2.8542
-0.9719 -2.6176 2.8541
-0.9377 -2.6243 2.8541
-0.9034 -2.6307 2.8540
-0.8692 -2.6368 2.8540
-0.8350 -2.6427 2.8539
-0.8007 -2.6484 2.8539
-0.7665 -2.6538 2.8538
-0.7323 -2.6590 2.8538
-0.6981 -2.6639 2.8537
-0.6639 -2.6686 2.8537
-0.6296 -2.6731 2.8536
-0.5954 -2.6773 2.8536
-0.5612 -2.6813 2.8535
-0.5270 -2.6850 2.8535
-0.4928 -2.6885 2.8535
-0.4586 -2.6918 2.8534
-0.4244 -2.6948 2.8534
-0.3560 -2.7001 2.8533
-0.3902 -2.6976 2.8533
-0.3218 -2.7024 2.8532
-0.1850 -2.7093 2.8531
-0.2876 -2.7045 2.8532
-0.1508 -2.7104 2.8530
-0.2534 -2.7063 2.8531
-0.1166 -2.7113 2.8530
-0.0140 -2.7126 2.8529
-0.2192 -2.7079 2.8531
-0.0824 -2.7120 2.8529
0.0201 -2.7125 2.8528
0.1569 -2.7099 2.8527
-0.0482 -2.7124 2.8529
0.0543 -2.7122 2.8528
0.1911 -2.7087 2.8526
0.3278 -2.7014 2.8525
0.0885 -2.7117 2.8528
0.2252 -2.7072 2.8526
0.3620 -2.6989 2.8525
0.1227 -2.7109 2.8527
0.2594 -2.7055 2.8526
0.3962 -2.6963 2.8524
0.4987 -2.6869 2.8523
0.4303 -2.6934 2.8524
0.2936 -2.7035 2.8525
0.5329 -2.6833 2.8523
0.4645 -2.6902 2.8524
0.6696 -2.6664 2.8522
0.5671 -2.6794 2.8523
0.8405 -2.6400 2.8521
0.7038 -2.6616 2.8522
0.6012 -2.6753 2.8523
0.8747 -2.6339 2.8520
0.7380 -2.6566 2.8521
0.6354 -2.6710 2.8522
0.9089 -2.6277 2.8520
0.7721 -2.6513 2.8521
1.0114 -2.6074 2.8519
0.9431 -2.6212 2.8520
0.8063 -2.6457 2.8521
1.0456 -2.6002 2.8519
0.9772 -2.6144 2.8520
1.1824 -2.5687 2.8518
1.0798 -2.5927 2.8519
1.3533 -2.5237 2.8517
1.2165 -2.5602 2.8518
1.1140 -2.5849 2.8519
1.3874 -2.5139 2.8517
1.2507 -2.5514 2.8518
1.1482 -2.5769 2.8519
1.4216 -2.5039 2.8517
1.2849 -2.5425 2.8518
1.5242 -2.4723 2.8517
1.4558 -2.4936 2.8517
1.3191 -2.5332 2.8518
1.5583 -2.4613 2.8516
1.4900 -2.4831 2.8517
1.6950 -2.4144 2.8516
1.5925 -2.4500 2.8516
1.8659 -2.3499 2.8515
1.7292 -2.4021 2.8516
1.9000 -2.3362 2.8515
1.6267 -2.4384 2.8516
1.7634 -2.3894 2.8516
1.9342 -2.3222 2.8515
1.7975 -2.3765 2.8516
1.6609 -2.4265 2.8516
2.0366 -2.2785 2.8515
1.9683 -2.3079 2.8515
1.8317 -2.3633 2.8515
2.2072 -2.2001 2.8515
2.0707 -2.2634 2.8515
2.0024 -2.2933 2.8515
2.5477 -2.0214 2.8515
2.2413 -2.1835 2.8515
2.1048 -2.2480 2.8515
2.7175 -1.9206 2.8515
2.5817 -2.0019 2.8515
2.2754 -2.1667 2.8515
2.1390 -2.2323 2.8515
2.3776 -2.1145 2.8515
2.7515 -1.8995 2.8515
