ply
format ascii 1.0
element vertex 2051
property float32 x
property float32 y
property float32 z
end_header
-7.7535 -17.2932 1.6597
-7.1477 -18.3159 1.8308
-6.7588 -18.9635 1.9353
-6.3517 -19.6496 2.0424
-6.6254 -19.1883 1.9708
-5.5012 -20.4292 2.1789
-6.2112 -19.8865 2.0787
-6.4898 -19.4170 2.0065
-5.2536 -20.3109 2.1760
-6.0681 -20.1277 2.1153
-5.0105 -20.1967 2.1730
-4.3066 -19.8771 2.1636
-5.9223 -20.3734 2.1521
-4.7719 -20.0864 2.1700
-4.0984 -19.8689 2.1703
-5.7536 -20.5517 2.1817
-4.5373 -19.9799 2.1668
-3.9406 -20.1127 2.2041
-3.3501 -20.2907 2.2433
-3.7795 -20.3617 2.2384
-3.1211 -20.1493 2.2334
-3.5731 -20.3774 2.2467
-2.8791 -19.8942 2.2104
-2.2248 -19.4572 2.1752
-2.6690 -19.8336 2.2086
-2.0078 -19.2573 2.1566
-2.4453 -19.6499 2.1926
-1.8080 -19.1930 2.1528
-1.6101 -19.1313 2.1488
-1.4139 -19.0718 2.1448
-1.2193 -19.0148 2.1407
-1.0262 -18.9599 2.1365
-0.8344 -18.9072 2.1322
-0.6440 -18.8567 2.1278
-49.1285 3.0683 -7.5329
-48.5105 2.5590 -7.2927
-47.9084 2.0631 -7.0595
-46.5852 1.1051 -6.5894
-49.4315 0.2182 -6.7033
-49.4732 -0.2588 -6.5656
-17.8123 -1.2965 -2.0092
-24.7591 -4.2191 -2.1091
-24.6118 -4.4376 -2.0295
-24.9445 -4.7454 -1.9890
-25.4418 -5.0937 -1.9596
-25.3400 -5.3269 -1.8830
-24.9119 -5.4872 -1.7836
-25.4946 -5.8728 -1.7563
-25.1962 -6.0594 -1.6675
-24.3244 -6.0974 -1.5440
-25.2035 -6.5757 -1.5317
-25.3456 -6.8734 -1.4718
-25.1967 -7.0935 -1.3950
-25.0357 -7.3084 -1.3183
-33.5016 -10.4823 -1.5826
-40.6082 -13.1355 -1.8082
-39.7240 -13.2725 -1.6610
-39.6364 -13.6680 -1.5495
-40.1558 -14.2805 -1.4605
-40.0464 -14.6768 -1.3472
-39.7891 -15.0180 -1.2298
-40.0183 -15.5458 -1.1272
-39.7627 -15.8884 -1.0108
-35.6467 -27.6954 2.1598
-38.8917 -29.6145 2.2283
-24.8183 -21.2989 1.9263
-32.8944 -26.0743 2.1025
-23.3286 -20.4191 1.8930
-30.4775 -24.6455 2.0506
-21.9862 -19.6265 1.8626
-28.3479 -23.3838 2.0038
-20.7625 -18.9018 1.8341
-26.4861 -22.2854 1.9634
-19.6536 -18.2467 1.8083
-18.6321 -17.6406 1.7836
-14.3948 -15.0320 1.6580
-17.6949 -17.0848 1.7607
-13.7700 -14.6650 1.6422
-16.8318 -16.5728 1.7393
-13.3427 -14.4925 1.6466
-16.0551 -16.1209 1.7215
-12.9479 -14.3439 1.6525
-15.1828 -15.5468 1.6879
-12.6423 -14.2852 1.6678
-12.3443 -14.2279 1.6825
-11.1410 -14.1970 1.7769
-12.0748 -14.1972 1.6996
-10.9328 -14.2184 1.7976
-11.8265 -14.1859 1.7184
-10.7270 -14.2396 1.8179
-11.5825 -14.1748 1.7366
-10.5402 -14.2831 1.8406
-10.3619 -14.3359 1.8641
-11.3518 -14.1754 1.7557
-10.1847 -14.3884 1.8873
-9.4302 -14.8288 2.0225
-10.0086 -14.4406 1.9101
-9.3036 -14.9555 2.0542
-9.8597 -14.5311 1.9376
-9.1874 -15.1010 2.0883
-9.7167 -14.6302 1.9661
-9.0703 -15.2477 2.1224
-9.5735 -14.7295 1.9944
-8.9532 -15.3971 2.1567
-8.8458 -15.5667 2.1939
-8.7373 -15.7383 2.2312
-8.2742 -16.4131 2.3777
-8.6267 -15.9103 2.2684
-8.1626 -16.6016 2.4170
-8.5101 -16.0755 2.3046
-8.0494 -16.7927 2.4565
-8.3923 -16.2423 2.3409
-7.8741 -16.8571 2.4774
-7.3830 -16.6664 2.4709
-7.6258 -16.7601 2.4742
-7.1454 -16.5757 2.4678
-6.2534 -16.2693 2.4593
-6.9128 -16.4881 2.4646
-6.1310 -16.4412 2.4939
-6.6850 -16.4033 2.4614
-6.0107 -16.6256 2.5303
-5.8884 -16.8130 2.5670
-6.4618 -16.3213 2.4583
-5.6794 -16.7534 2.5659
-5.4699 -16.6843 2.5629
-5.2601 -16.6058 2.5581
-4.4538 -16.3112 2.5388
-4.2580 -16.2348 2.5327
-5.0356 -16.4701 2.5442
-4.0641 -16.1563 2.5260
-4.8504 -16.4540 2.5484
-3.8732 -16.0801 2.5194
-4.6506 -16.3815 2.5436
-3.6836 -15.9987 2.5117
-3.4952 -15.9116 2.5028
-2.5836 -15.4363 2.4478
-3.3081 -15.8187 2.4927
-2.4168 -15.3916 2.4440
-3.1219 -15.7170 2.4809
-2.2516 -15.3481 2.4401
-2.9345 -15.5944 2.4655
-2.0878 -15.3059 2.4363
-2.7521 -15.4824 2.4516
-1.9255 -15.2649 2.4324
-1.7646 -15.2252 2.4285
-1.6050 -15.1867 2.4245
-1.4465 -15.1493 2.4205
-1.2892 -15.1130 2.4165
-1.1330 -15.0778 2.4125
-0.9778 -15.0437 2.4084
-0.8235 -15.0107 2.4043
-0.6700 -14.9787 2.4001
-0.5174 -14.9478 2.3959
-46.6914 3.0877 -4.9025
-46.0432 2.5983 -4.6991
-46.5589 2.1764 -4.6155
-46.1709 1.7116 -4.4425
-45.7684 1.2544 -4.2710
-46.4985 0.8254 -4.2047
-47.0950 0.3814 -4.1230
-47.4974 -0.0735 -4.0219
-25.7269 -4.5472 -0.8753
-25.7646 -4.8101 -0.8047
-24.8331 -4.8841 -0.7062
-24.9923 -5.1659 -0.6408
-25.0481 -5.4295 -0.5722
-25.3193 -5.7442 -0.5074
-25.1885 -5.9703 -0.4341
-25.4492 -6.2916 -0.3671
-25.2229 -6.4942 -0.2928
-25.0673 -6.7124 -0.2202
-24.9129 -6.9291 -0.1484
-33.5491 -10.3857 0.0862
-39.8899 -14.0577 0.5610
-43.7140 -24.0818 2.8671
-41.6678 -23.4857 2.8671
-39.7894 -22.9400 2.8671
-38.0586 -22.4387 2.8671
-36.4584 -21.9767 2.8671
-34.9742 -21.5496 2.8671
-33.5934 -21.1535 2.8671
-32.3053 -20.7854 2.8671
-31.1007 -20.4424 2.8671
-29.9713 -20.1220 2.8671
-28.9100 -19.8222 2.8671
-27.9107 -19.5411 2.8671
-26.9680 -19.2770 2.8671
-26.0768 -19.0285 2.8671
-25.2328 -18.7943 2.8671
-24.4323 -18.5732 2.8671
-23.6716 -18.3641 2.8671
-22.9478 -18.1662 2.8671
-21.7969 -17.6061 2.8077
-20.4519 -16.8545 2.7147
-19.8565 -16.6943 2.7147
-19.2868 -16.5421 2.7147
-18.7411 -16.3971 2.7147
-18.2178 -16.2589 2.7147
-17.7154 -16.1271 2.7147
-17.2326 -16.0013 2.7147
-16.7680 -15.8811 2.7147
-16.3207 -15.7662 2.7147
-15.8894 -15.6561 2.7147
-15.4733 -15.5508 2.7147
-15.0715 -15.4499 2.7147
-14.3519 -15.0067 2.6535
-13.7368 -14.6516 2.6064
-13.3066 -14.4779 2.5906
-12.9180 -14.3381 2.5802
-12.6100 -14.2790 2.5836
-12.3097 -14.2213 2.5868
-12.0428 -14.1957 2.5954
-11.7924 -14.1844 2.6062
-11.5464 -14.1732 2.6166
-11.3178 -14.1789 2.6298
-11.1053 -14.2007 2.6457
-10.8952 -14.2223 2.6612
-10.6876 -14.2436 2.6765
-10.5037 -14.2939 2.6968
-10.2351 -14.2243 2.6943
-9.9461 -14.1184 2.6844
-9.6646 -14.0147 2.6746
-9.3918 -13.9154 2.6652
-9.1196 -13.8086 2.6539
-8.8679 -13.7248 2.6467
-8.6165 -13.6340 2.6377
-8.3787 -13.5573 2.6312
-7.8836 -13.6611 2.6750
-8.1476 -13.4845 2.6251
-7.7696 -13.7820 2.7062
-8.0012 -13.5481 2.6453
-7.6581 -13.9100 2.7387
-7.4648 -13.8884 2.7416
-7.0557 -13.7872 2.7351
-6.8580 -13.7413 2.7325
-7.2578 -13.8360 2.7381
-6.6637 -13.6965 2.7299
-6.1001 -13.5695 2.7220
-6.4727 -13.6529 2.7272
-5.9182 -13.5295 2.7195
-6.2849 -13.6106 2.7246
-5.7387 -13.4897 2.7167
-5.2158 -13.3758 2.7085
-5.5618 -13.4507 2.7140
-5.0464 -13.3399 2.7058
-5.3876 -13.4128 2.7112
-4.8794 -13.3049 2.7031
-4.3909 -13.2050 2.6950
-4.7145 -13.2709 2.7005
-4.2308 -13.1693 2.6915
-4.5518 -13.2378 2.6978
-4.0727 -13.1346 2.6881
-3.6042 -13.0168 2.6739
-3.9161 -13.0997 2.6844
-3.4467 -12.9599 2.6653
-3.7600 -13.0606 2.6797
-3.2891 -12.8952 2.6549
-2.8508 -12.8005 2.6432
-3.1415 -12.8629 2.6510
-2.7076 -12.7704 2.6394
-2.9955 -12.8314 2.6471
-2.5657 -12.7409 2.6355
-2.1474 -12.6564 2.6240
-2.4251 -12.7121 2.6317
-2.0103 -12.6295 2.6202
-2.2857 -12.6839 2.6279
-0.8958 -6.0237 1.2505
-0.8312 -6.0112 1.2486
-0.7671 -5.9990 1.2468
-0.7034 -5.9872 1.2449
-0.6401 -5.9756 1.2431
-0.5773 -5.9644 1.2413
-0.5148 -5.9535 1.2395
-0.4526 -5.9429 1.2377
-0.3908 -5.9326 1.2359
-0.3293 -5.9226 1.2341
-0.2681 -5.9129 1.2323
-0.2071 -5.9034 1.2306
-49.3803 4.4017 -3.1067
-49.4507 3.9269 -2.9673
-17.8051 -1.3400 -0.2543
-25.8337 -5.5117 0.6653
-44.2062 -14.9611 2.7147
-42.1036 -14.7062 2.7147
-40.0060 -14.4107 2.7029
-38.4156 -14.2607 2.7147
-36.7892 -14.0650 2.7147
-37.2662 -14.6640 2.8671
-35.7928 -14.4877 2.8671
-34.4223 -14.3242 2.8671
-33.1438 -14.1721 2.8671
-31.9481 -14.0304 2.8671
-30.8273 -13.8980 2.8671
-29.7743 -13.7740 2.8671
-28.7828 -13.6577 2.8671
-27.8475 -13.5484 2.8671
-26.9636 -13.4454 2.8671
-26.1267 -13.3484 2.8671
-25.3330 -13.2567 2.8671
-24.5790 -13.1700 2.8671
-23.8618 -13.0879 2.8671
-23.1786 -13.0100 2.8671
-22.5268 -12.9361 2.8671
-21.9042 -12.8658 2.8671
-21.3088 -12.7989 2.8671
-20.7387 -12.7352 2.8671
-20.1922 -12.6744 2.8671
-19.6677 -12.6164 2.8671
-19.1638 -12.5610 2.8671
-18.6793 -12.5080 2.8671
-18.2129 -12.4573 2.8671
-17.7635 -12.4088 2.8671
-17.3302 -12.3622 2.8671
-16.9120 -12.3176 2.8671
-16.5080 -12.2747 2.8671
-16.1174 -12.2336 2.8671
-15.7395 -12.1941 2.8671
-15.3737 -12.1561 2.8671
-15.0191 -12.1195 2.8671
-14.6754 -12.0843 2.8671
-14.3418 -12.0504 2.8671
-14.0180 -12.0177 2.8671
-13.7033 -11.9862 2.8671
-13.3973 -11.9559 2.8671
-13.0997 -11.9266 2.8671
-12.8100 -11.8983 2.8671
-12.5279 -11.8710 2.8671
-12.2528 -11.8446 2.8671
-11.9835 -11.8179 2.8668
-11.7192 -11.7905 2.8661
-11.4596 -11.7622 2.8650
-11.2048 -11.7332 2.8636
-10.9545 -11.7034 2.8617
-10.7079 -11.6724 2.8594
-10.4652 -11.6400 2.8565
-10.2261 -11.6062 2.8532
-9.9906 -11.5712 2.8494
-9.7580 -11.5341 2.8449
-9.5294 -11.4965 2.8401
-9.3208 -11.4780 2.8399
-9.1162 -11.4601 2.8397
-8.9155 -11.4427 2.8395
-8.7185 -11.4259 2.8393
-8.5252 -11.4095 2.8390
-8.3352 -11.3936 2.8388
-8.1486 -11.3782 2.8386
-7.9652 -11.3632 2.8384
-7.7827 -11.3456 2.8375
-7.5999 -11.3235 2.8353
-7.4203 -11.3018 2.8331
-7.2437 -11.2808 2.8309
-7.0701 -11.2602 2.8288
-6.8971 -11.2367 2.8259
-6.7279 -11.2153 2.8233
-6.5614 -11.1944 2.8208
-6.3975 -11.1740 2.8184
-6.2360 -11.1541 2.8160
-6.0767 -11.1342 2.8135
-5.9191 -11.1136 2.8107
-5.7638 -11.0935 2.8080
-5.6107 -11.0738 2.8053
-5.4597 -11.0546 2.8027
-5.3106 -11.0358 2.8001
-5.1636 -11.0174 2.7975
-5.0184 -10.9994 2.7949
-4.8749 -10.9814 2.7923
-4.7330 -10.9636 2.7897
-4.5929 -10.9462 2.7871
-4.4543 -10.9292 2.7845
-4.3174 -10.9124 2.7819
-4.1820 -10.8963 2.7795
-4.0483 -10.8809 2.7771
-3.9158 -10.8657 2.7748
-3.7846 -10.8505 2.7724
-3.6547 -10.8356 2.7700
-3.5261 -10.8209 2.7676
-3.3986 -10.8066 2.7652
-3.2723 -10.7925 2.7629
-3.1471 -10.7789 2.7606
-3.0230 -10.7656 2.7584
-2.9000 -10.7526 2.7561
-2.7778 -10.7397 2.7539
-2.6567 -10.7271 2.7517
-2.5363 -10.7148 2.7495
-2.4169 -10.7026 2.7473
-2.2983 -10.6907 2.7451
-0.9963 -4.8798 1.2534
-0.9424 -4.8723 1.2518
-0.8888 -4.8649 1.2503
-0.8356 -4.8577 1.2487
-0.7828 -4.8506 1.2472
-0.7302 -4.8436 1.2457
-0.6780 -4.8367 1.2442
-0.6261 -4.8299 1.2427
-0.5744 -4.8233 1.2412
-0.5231 -4.8167 1.2397
-0.4719 -4.8102 1.2382
-0.4211 -4.8039 1.2367
-0.3704 -4.7976 1.2352
-0.3200 -4.7914 1.2338
-0.2697 -4.7854 1.2323
-0.2197 -4.7794 1.2309
-0.1698 -4.7735 1.2294
-42.8036 0.6511 0.3272
-43.4965 0.2421 0.4563
-44.2122 -0.1804 0.5897
-44.9519 -0.6171 0.7276
-45.5453 -1.0647 0.8670
-46.5209 -1.5367 1.0184
-47.3417 -2.0212 1.1716
-48.1927 -2.5236 1.3305
-49.0760 -3.0450 1.4955
-17.8209 -1.2785 0.5942
-48.1825 -7.7050 2.8671
-45.9033 -7.7966 2.8671
-43.8221 -7.8802 2.8671
-41.9137 -7.9566 2.8671
-40.1571 -8.0267 2.8671
-38.5346 -8.0914 2.8671
-37.0311 -8.1511 2.8671
-25.3306 -5.8336 2.0381
-32.5066 -7.8190 2.7147
-31.3543 -7.8643 2.7147
-30.2749 -7.9067 2.7147
-29.2616 -7.9464 2.7147
-28.3084 -7.9836 2.7147
-27.4098 -8.0186 2.7147
-26.5610 -8.0515 2.7147
-26.7903 -8.4064 2.8235
-26.4002 -8.5671 2.8671
-25.6372 -8.5964 2.8671
-24.9118 -8.6241 2.8671
-24.2211 -8.6504 2.8671
-23.5627 -8.6753 2.8671
-22.9342 -8.6990 2.8671
-22.3333 -8.7215 2.8671
-21.7584 -8.7430 2.8671
-21.2076 -8.7635 2.8671
-20.6793 -8.7831 2.8671
-20.1722 -8.8018 2.8671
-19.6847 -8.8196 2.8671
-19.2158 -8.8368 2.8671
-18.7643 -8.8532 2.8671
-18.3291 -8.8689 2.8671
-17.9094 -8.8839 2.8671
-17.5041 -8.8984 2.8671
-17.1126 -8.9123 2.8671
-16.7341 -8.9257 2.8671
-16.3678 -8.9385 2.8671
-16.0131 -8.9509 2.8671
-15.6684 -8.9622 2.8669
-15.3332 -8.9726 2.8666
-15.0081 -8.9826 2.8662
-14.6925 -8.9922 2.8659
-14.3867 -9.0020 2.8657
-14.0896 -9.0115 2.8656
-13.8007 -9.0207 2.8655
-13.5195 -9.0296 2.8653
-13.2458 -9.0382 2.8652
-12.9790 -9.0465 2.8651
-12.7190 -9.0545 2.8650
-12.4654 -9.0623 2.8649
-12.2180 -9.0698 2.8648
-11.9728 -9.0742 2.8638
-11.7290 -9.0751 2.8618
-11.4883 -9.0737 2.8591
-11.2508 -9.0702 2.8558
-11.0169 -9.0650 2.8520
-10.7833 -9.0553 2.8469
-10.5713 -9.0595 2.8463
-10.3653 -9.0648 2.8460
-10.1634 -9.0698 2.8458
-9.9656 -9.0748 2.8455
-9.7717 -9.0796 2.8453
-9.5814 -9.0842 2.8451
-9.3948 -9.0887 2.8448
-9.2117 -9.0931 2.8446
-9.0319 -9.0973 2.8444
-8.8552 -9.1014 2.8441
-8.6817 -9.1054 2.8439
-8.5111 -9.1093 2.8437
-8.3435 -9.1130 2.8435
-8.1785 -9.1166 2.8433
-8.0162 -9.1202 2.8431
-7.8565 -9.1235 2.8429
-7.6993 -9.1268 2.8427
-7.5444 -9.1300 2.8425
-7.3919 -9.1332 2.8423
-7.2416 -9.1362 2.8421
-7.0934 -9.1391 2.8419
-6.9473 -9.1419 2.8417
-6.8032 -9.1446 2.8415
-6.6611 -9.1473 2.8414
-6.5208 -9.1499 2.8412
-6.3823 -9.1524 2.8410
-6.2456 -9.1548 2.8408
-6.1106 -9.1572 2.8407
-5.9772 -9.1594 2.8405
-5.8454 -9.1616 2.8403
-5.7151 -9.1637 2.8401
-5.5862 -9.1658 2.8400
-5.4589 -9.1678 2.8398
-5.3328 -9.1697 2.8397
-5.2081 -9.1716 2.8395
-5.0847 -9.1734 2.8393
-4.9626 -9.1752 2.8392
-4.8416 -9.1768 2.8390
-4.7218 -9.1785 2.8389
-4.6032 -9.1800 2.8387
-4.4856 -9.1815 2.8386
-4.3691 -9.1830 2.8384
-4.2535 -9.1844 2.8383
-4.1389 -9.1856 2.8381
-4.0231 -9.1819 2.8364
-3.9084 -9.1783 2.8348
-3.7947 -9.1746 2.8331
-3.6819 -9.1709 2.8315
-3.5694 -9.1653 2.8293
-3.4577 -9.1594 2.8270
-3.3469 -9.1534 2.8247
-3.2373 -9.1480 2.8226
-3.1286 -9.1431 2.8207
-3.0209 -9.1383 2.8188
-2.9139 -9.1335 2.8170
-2.8076 -9.1286 2.8151
-2.7017 -9.1227 2.8129
-2.5966 -9.1168 2.8108
-2.4923 -9.1111 2.8087
-2.3886 -9.1053 2.8066
-1.0220 -4.0690 1.2541
-0.9759 -4.0651 1.2528
-0.9301 -4.0612 1.2514
-0.8845 -4.0573 1.2501
-0.8392 -4.0534 1.2488
-0.7942 -4.0495 1.2475
-0.7495 -4.0456 1.2462
-0.7050 -4.0417 1.2449
-0.6607 -4.0378 1.2436
-0.6166 -4.0339 1.2423
-0.5728 -4.0300 1.2411
-0.5291 -4.0261 1.2398
-0.4857 -4.0222 1.2385
-0.4424 -4.0183 1.2373
-0.3993 -4.0144 1.2360
-0.3564 -4.0105 1.2348
-0.3136 -4.0067 1.2336
-0.2710 -4.0028 1.2323
-0.2285 -3.9989 1.2311
-0.1861 -3.9949 1.2299
-0.1439 -3.9910 1.2286
-36.5807 4.2307 0.9846
-37.2330 3.9429 1.1071
-37.7610 3.6312 1.2293
-38.3031 3.3112 1.3549
-38.8601 2.9823 1.4843
-39.4327 2.6443 1.6175
-40.0217 2.2965 1.7548
-40.6280 1.9386 1.8964
-41.0902 1.5638 2.0344
-41.8884 1.1899 2.1928
-42.5518 0.7983 2.3485
-43.2364 0.3941 2.5094
-44.5820 -0.0237 2.7148
-42.5802 -0.4334 2.7147
-41.3709 -0.8204 2.7563
-41.2533 -1.2164 2.8671
-39.6093 -1.5507 2.8671
-38.0867 -1.8595 2.8671
-36.6722 -2.1457 2.8671
-35.3547 -2.4115 2.8671
-34.1240 -2.6590 2.8671
-32.9718 -2.8901 2.8671
-31.8906 -3.1063 2.8671
-30.8739 -3.3090 2.8671
-29.9158 -3.4994 2.8671
-29.0111 -3.6786 2.8671
-28.1555 -3.8474 2.8671
-27.3450 -4.0069 2.8671
-25.1632 -3.9366 2.7147
-24.4711 -4.0717 2.7147
-23.8124 -4.1999 2.7147
-23.1845 -4.3215 2.7147
-22.5854 -4.4371 2.7147
-22.0130 -4.5472 2.7147
-21.4653 -4.6520 2.7147
-20.9408 -4.7519 2.7147
-21.0221 -4.9859 2.7923
-21.0756 -5.2157 2.8671
-20.5858 -5.3078 2.8671
-20.1149 -5.3960 2.8671
-19.6615 -5.4804 2.8671
-19.2248 -5.5613 2.8671
-18.8037 -5.6390 2.8671
-18.3972 -5.7136 2.8671
-18.0047 -5.7852 2.8671
-17.6253 -5.8541 2.8671
-17.2583 -5.9204 2.8671
-16.9031 -5.9842 2.8671
-16.5589 -6.0456 2.8671
-16.2248 -6.1046 2.8670
-15.9004 -6.1614 2.8668
-15.5857 -6.2162 2.8667
-15.2800 -6.2691 2.8666
-14.9830 -6.3201 2.8664
-14.6943 -6.3694 2.8663
-14.4134 -6.4171 2.8662
-14.1401 -6.4632 2.8660
-13.8739 -6.5078 2.8659
-13.6145 -6.5509 2.8658
-13.3617 -6.5927 2.8657
-13.1151 -6.6332 2.8656
-12.8743 -6.6721 2.8654
-12.6319 -6.7061 2.8636
-12.3919 -6.7372 2.8610
-12.1542 -6.7651 2.8576
-11.9173 -6.7892 2.8531
-11.7006 -6.8207 2.8522
-11.4910 -6.8526 2.8519
-11.2859 -6.8837 2.8516
-11.0852 -6.9138 2.8513
-10.8886 -6.9430 2.8510
-10.6959 -6.9715 2.8507
-10.5071 -6.9990 2.8504
-10.3220 -7.0258 2.8501
-10.1405 -7.0519 2.8498
-9.9624 -7.0773 2.8496
-9.7875 -7.1019 2.8493
-9.6159 -7.1259 2.8491
-9.4473 -7.1493 2.8488
-9.2817 -7.1719 2.8486
-9.1189 -7.1940 2.8483
-8.9589 -7.2155 2.8481
-8.8016 -7.2364 2.8479
-8.6468 -7.2568 2.8476
-8.4945 -7.2767 2.8474
-8.3446 -7.2960 2.8472
-8.1969 -7.3148 2.8470
-8.0516 -7.3331 2.8468
-7.9084 -7.3509 2.8466
-7.7673 -7.3683 2.8464
-7.6282 -7.3852 2.8462
-7.4911 -7.4017 2.8460
-7.3559 -7.4178 2.8458
-7.2225 -7.4334 2.8456
-7.0909 -7.4487 2.8454
-6.9610 -7.4635 2.8452
-6.8328 -7.4780 2.8450
-6.7062 -7.4921 2.8448
-6.5812 -7.5058 2.8446
-6.4577 -7.5192 2.8444
-6.3356 -7.5323 2.8443
-6.2150 -7.5450 2.8441
-6.0958 -7.5574 2.8439
-5.9779 -7.5694 2.8437
-5.8613 -7.5812 2.8436
-5.7459 -7.5926 2.8434
-5.6318 -7.6038 2.8432
-5.5189 -7.6147 2.8431
-5.4071 -7.6252 2.8429
-5.2964 -7.6355 2.8428
-5.1869 -7.6456 2.8426
-5.0783 -7.6553 2.8424
-4.9708 -7.6648 2.8423
-4.8642 -7.6741 2.8421
-4.7586 -7.6831 2.8420
-4.6539 -7.6918 2.8418
-4.5502 -7.7003 2.8417
-4.4472 -7.7086 2.8416
-4.3452 -7.7167 2.8414
-4.2439 -7.7245 2.8413
-4.1434 -7.7321 2.8411
-4.0438 -7.7394 2.8410
-3.9448 -7.7466 2.8408
-3.8466 -7.7535 2.8407
-3.7490 -7.7603 2.8406
-3.6521 -7.7668 2.8404
-3.5559 -7.7731 2.8403
-3.4603 -7.7793 2.8402
-3.3654 -7.7852 2.8400
-3.2710 -7.7910 2.8399
-3.1771 -7.7965 2.8398
-3.0839 -7.8019 2.8397
-2.9911 -7.8071 2.8395
-2.8989 -7.8121 2.8394
-2.8071 -7.8169 2.8393
-2.7159 -7.8216 2.8392
-2.6250 -7.8260 2.8390
-2.5347 -7.8303 2.8389
-2.4447 -7.8344 2.8388
-1.0711 -3.5650 1.2911
-1.0294 -3.5625 1.2895
-0.9879 -3.5601 1.2880
-0.9467 -3.5577 1.2865
-0.9058 -3.5553 1.2850
-0.8652 -3.5529 1.2836
-0.8248 -3.5505 1.2822
-0.7846 -3.5481 1.2808
-0.7446 -3.5458 1.2795
-0.7049 -3.5435 1.2782
-0.6654 -3.5411 1.2769
-0.6260 -3.5388 1.2757
-0.5869 -3.5365 1.2745
-0.5479 -3.5343 1.2733
-0.5091 -3.5320 1.2721
-0.4704 -3.5297 1.2710
-0.4319 -3.5275 1.2699
-0.3936 -3.5252 1.2688
-0.3554 -3.5230 1.2678
-0.3173 -3.5207 1.2668
-0.2793 -3.5185 1.2658
-0.2414 -3.5163 1.2648
-0.2036 -3.5141 1.2639
-0.1659 -3.5119 1.2630
-0.1283 -3.5097 1.2621
-36.0380 4.6485 2.5983
-36.2571 4.3226 2.7147
-34.9594 3.8271 2.7147
-34.2200 3.4133 2.7526
-34.4483 3.1016 2.8671
-33.3281 2.6776 2.8671
-32.2757 2.2805 2.8671
-31.2850 1.9080 2.8671
-30.3507 1.5578 2.8671
-29.4679 1.2280 2.8671
-28.6322 0.9169 2.8671
-27.8400 0.6230 2.8671
-27.0876 0.3450 2.8671
-26.3722 0.0815 2.8671
-25.6908 -0.1684 2.8671
-25.0411 -0.4058 2.8671
-24.4207 -0.6316 2.8671
-23.8276 -0.8465 2.8671
-23.2599 -1.0514 2.8671
-22.7161 -1.2469 2.8671
-21.0146 -1.3574 2.7147
-17.7967 -1.3225 2.3521
-20.0844 -1.6880 2.7147
-19.6458 -1.8428 2.7147
-19.2235 -1.9912 2.7147
-18.8166 -2.1335 2.7147
-18.4240 -2.2701 2.7147
-18.0451 -2.4013 2.7147
-17.6790 -2.5274 2.7147
-17.3251 -2.6488 2.7147
-17.3864 -2.8312 2.7792
-17.5860 -3.0395 2.8671
-17.2468 -3.1539 2.8671
-16.9179 -3.2643 2.8671
-16.5989 -3.3707 2.8671
-16.2892 -3.4734 2.8671
-15.9885 -3.5726 2.8671
-15.6962 -3.6685 2.8671
-15.4116 -3.7610 2.8670
-15.1344 -3.8504 2.8669
-14.8645 -3.9369 2.8668
-14.6018 -4.0206 2.8666
-14.3458 -4.1017 2.8665
-14.0962 -4.1802 2.8664
-13.8529 -4.2563 2.8663
-13.6145 -4.3298 2.8660
-13.3736 -4.3982 2.8639
-13.1327 -4.4625 2.8606
-12.9021 -4.5263 2.8583
-12.6852 -4.5909 2.8579
-12.4732 -4.6537 2.8575
-12.2658 -4.7146 2.8572
-12.0629 -4.7739 2.8568
-11.8643 -4.8314 2.8564
-11.6699 -4.8873 2.8561
-11.4794 -4.9417 2.8557
-11.2928 -4.9945 2.8554
-11.1099 -5.0460 2.8551
-10.9305 -5.0960 2.8548
-10.7546 -5.1446 2.8545
-10.5819 -5.1920 2.8542
-10.4125 -5.2381 2.8539
-10.2462 -5.2830 2.8536
-10.0828 -5.3267 2.8533
-9.9223 -5.3693 2.8530
-9.7645 -5.4107 2.8527
-9.6094 -5.4512 2.8525
-9.4570 -5.4905 2.8522
-9.3070 -5.5289 2.8519
-9.1594 -5.5664 2.8517
-9.0142 -5.6029 2.8514
-8.8713 -5.6384 2.8512
-8.7305 -5.6732 2.8510
-8.5919 -5.7070 2.8507
-8.4553 -5.7401 2.8505
-8.3208 -5.7722 2.8503
-8.1881 -5.8037 2.8500
-8.0573 -5.8344 2.8498
-7.9284 -5.8644 2.8496
-7.8011 -5.8936 2.8494
-7.6757 -5.9221 2.8492
-7.5518 -5.9500 2.8490
-7.4296 -5.9772 2.8488
-7.3089 -6.0037 2.8486
-7.1897 -6.0296 2.8484
-7.0720 -6.0549 2.8482
-6.9558 -6.0796 2.8480
-6.8409 -6.1037 2.8478
-6.7273 -6.1273 2.8476
-6.6151 -6.1503 2.8474
-6.5041 -6.1728 2.8473
-6.3943 -6.1947 2.8471
-6.2858 -6.2161 2.8469
-6.1784 -6.2371 2.8467
-6.0721 -6.2575 2.8465
-5.9670 -6.2774 2.8464
-5.8629 -6.2969 2.8462
-5.7598 -6.3159 2.8460
-5.6578 -6.3345 2.8459
-5.5567 -6.3527 2.8457
-5.4566 -6.3704 2.8455
-5.3574 -6.3877 2.8454
-5.2591 -6.4045 2.8452
-5.1617 -6.4210 2.8451
-5.0652 -6.4371 2.8449
-4.9695 -6.4528 2.8448
-4.8746 -6.4681 2.8446
-4.7804 -6.4830 2.8445
-4.6870 -6.4976 2.8443
-4.5944 -6.5118 2.8442
-4.5025 -6.5257 2.8440
-4.4113 -6.5392 2.8439
-4.3208 -6.5524 2.8438
-4.2309 -6.5653 2.8436
-4.1417 -6.5778 2.8435
-4.0531 -6.5900 2.8434
-3.9651 -6.6019 2.8432
-3.8776 -6.6134 2.8431
-3.7908 -6.6247 2.8430
-3.7045 -6.6357 2.8428
-3.6188 -6.6463 2.8427
-3.5336 -6.6567 2.8426
-3.4489 -6.6668 2.8424
-3.3646 -6.6766 2.8423
-3.2809 -6.6861 2.8422
-3.1976 -6.6953 2.8421
-3.1148 -6.7043 2.8420
-3.0324 -6.7130 2.8418
-2.9504 -6.7215 2.8417
-2.8689 -6.7297 2.8416
-2.7877 -6.7376 2.8415
-2.7069 -6.7452 2.8414
-2.6265 -6.7527 2.8412
-2.5464 -6.7598 2.8411
-2.4667 -6.7668 2.8410
-2.3873 -6.7734 2.8409
-2.3082 -6.7799 2.8408
-2.2295 -6.7861 2.8407
-2.1510 -6.7920 2.8406
-2.0728 -6.7978 2.8405
-1.0450 -3.5638 1.4879
-1.0029 -3.5613 1.4856
-0.9610 -3.5588 1.4834
-0.9194 -3.5564 1.4813
-0.8781 -3.5540 1.4793
-0.8371 -3.5515 1.4773
-0.7962 -3.5492 1.4753
-0.7557 -3.5468 1.4734
-0.7153 -3.5444 1.4716
-0.6752 -3.5420 1.4698
-0.6352 -3.5397 1.4681
-0.5955 -3.5374 1.4664
-0.5559 -3.5350 1.4648
-0.5165 -3.5327 1.4632
-0.4773 -3.5304 1.4617
-0.4382 -3.5281 1.4602
-0.3993 -3.5259 1.4588
-0.3605 -3.5236 1.4574
-0.3219 -3.5213 1.4561
-0.2833 -3.5191 1.4548
-0.2449 -3.5168 1.4536
-0.2066 -3.5146 1.4524
-0.1683 -3.5123 1.4512
-0.1302 -3.5101 1.4502
-24.3538 3.4693 2.8671
-23.8020 3.1579 2.8671
-23.2728 2.8606 2.8671
-22.7648 2.5764 2.8671
-22.2766 2.3047 2.8671
-21.8070 2.0445 2.8671
-21.3550 1.7952 2.8671
-20.9193 1.5562 2.8671
-20.4993 1.3268 2.8671
-20.0938 1.1065 2.8671
-19.7022 0.8949 2.8671
-19.3236 0.6913 2.8671
-17.9497 0.4691 2.7147
-17.6141 0.2905 2.7147
-17.2890 0.1184 2.7147
-16.9738 -0.0474 2.7147
-16.6682 -0.2074 2.7147
-16.3715 -0.3618 2.7147
-16.0834 -0.5109 2.7147
-15.8035 -0.6549 2.7147
-15.5314 -0.7942 2.7147
-15.2667 -0.9288 2.7147
-15.0091 -1.0590 2.7147
-14.7582 -1.1850 2.7147
-14.8646 -1.3387 2.7803
-15.0770 -1.5053 2.8671
-14.8317 -1.6263 2.8671
-14.5919 -1.7435 2.8670
-14.3526 -1.8565 2.8658
-14.1202 -1.9662 2.8650
-13.8952 -2.0729 2.8645
-13.6754 -2.1763 2.8640
-13.4605 -2.2768 2.8635
-13.2505 -2.3744 2.8631
-13.0451 -2.4692 2.8626
-12.8441 -2.5613 2.8622
-12.6474 -2.6508 2.8618
-12.4547 -2.7378 2.8614
-12.2660 -2.8225 2.8610
-12.0811 -2.9048 2.8606
-11.8999 -2.9849 2.8602
-11.7222 -3.0629 2.8599
-11.5479 -3.1388 2.8595
-11.3769 -3.2127 2.8591
-11.2091 -3.2847 2.8588
-11.0443 -3.3549 2.8584
-10.8825 -3.4232 2.8581
-10.7235 -3.4898 2.8578
-10.5673 -3.5547 2.8575
-10.4138 -3.6180 2.8572
-10.2628 -3.6798 2.8568
-10.1144 -3.7400 2.8565
-9.9684 -3.7987 2.8562
-9.8247 -3.8561 2.8560
-9.6833 -3.9120 2.8557
-9.5441 -3.9666 2.8554
-9.4070 -4.0199 2.8551
-9.2720 -4.0719 2.8549
-9.1390 -4.1227 2.8546
-9.0079 -4.1723 2.8543
-8.8787 -4.2207 2.8541
-8.7514 -4.2681 2.8538
-8.6258 -4.3143 2.8536
-8.5020 -4.3595 2.8533
-8.3798 -4.4037 2.8531
-8.2593 -4.4468 2.8529
-8.1403 -4.4890 2.8526
-8.0229 -4.5302 2.8524
-7.9069 -4.5705 2.8522
-7.7924 -4.6099 2.8520
-7.6793 -4.6484 2.8518
-7.5676 -4.6861 2.8516
-7.4572 -4.7229 2.8514
-7.3481 -4.7589 2.8511
-7.2403 -4.7942 2.8509
-7.1337 -4.8286 2.8508
-7.0283 -4.8623 2.8506
-6.9240 -4.8953 2.8504
-6.8209 -4.9275 2.8502
-6.7189 -4.9591 2.8500
-6.6179 -4.9900 2.8498
-6.5180 -5.0201 2.8496
-6.4191 -5.0497 2.8494
-6.3212 -5.0786 2.8493
-6.2243 -5.1068 2.8491
-6.1283 -5.1345 2.8489
-6.0332 -5.1615 2.8487
-5.9390 -5.1880 2.8486
-5.8457 -5.2139 2.8484
-5.7532 -5.2393 2.8482
-5.6615 -5.2640 2.8481
-5.5707 -5.2883 2.8479
-5.4806 -5.3120 2.8477
-5.3913 -5.3352 2.8476
-5.3028 -5.3579 2.8474
-5.2149 -5.3801 2.8473
-5.1278 -5.4018 2.8471
-5.0414 -5.4231 2.8470
-4.9556 -5.4438 2.8468
-4.8705 -5.4642 2.8467
-4.7861 -5.4840 2.8465
-4.7022 -5.5034 2.8464
-4.6190 -5.5224 2.8462
-4.5363 -5.5410 2.8461
-4.4542 -5.5591 2.8460
-4.3727 -5.5768 2.8458
-4.2918 -5.5941 2.8457
-4.2114 -5.6110 2.8456
-4.1314 -5.6276 2.8454
-4.0521 -5.6437 2.8453
-3.9731 -5.6595 2.8452
-3.8947 -5.6748 2.8450
-3.8168 -5.6898 2.8449
-3.7392 -5.7045 2.8448
-3.6622 -5.7188 2.8446
-3.5856 -5.7327 2.8445
-3.5094 -5.7463 2.8444
-3.4336 -5.7596 2.8443
-3.3582 -5.7725 2.8442
-3.2831 -5.7851 2.8440
-3.2085 -5.7973 2.8439
-3.1342 -5.8092 2.8438
-3.0603 -5.8208 2.8437
-2.9867 -5.8321 2.8436
-2.9135 -5.8431 2.8435
-2.8406 -5.8538 2.8434
-2.7680 -5.8641 2.8432
-2.6957 -5.8742 2.8431
-2.6237 -5.8840 2.8430
-2.5520 -5.8935 2.8429
-2.4806 -5.9026 2.8428
-2.4095 -5.9115 2.8427
-2.3386 -5.9202 2.8426
-2.2680 -5.9285 2.8425
-2.1975 -5.9365 2.8424
-2.1274 -5.9443 2.8423
-2.0575 -5.9518 2.8422
-1.9878 -5.9591 2.8421
-1.9183 -5.9660 2.8420
-1.8490 -5.9727 2.8419
-1.0613 -3.5650 1.6944
-1.0184 -3.5625 1.6914
-0.9758 -3.5600 1.6885
-0.9336 -3.5575 1.6857
-0.8916 -3.5551 1.6829
-0.8499 -3.5526 1.6803
-0.8084 -3.5502 1.6777
-0.7672 -3.5478 1.6752
-0.7262 -3.5454 1.6728
-0.6854 -3.5430 1.6705
-0.6448 -3.5406 1.6682
-0.6045 -3.5382 1.6660
-0.5643 -3.5359 1.6639
-0.5243 -3.5335 1.6619
-0.4844 -3.5312 1.6600
-0.4448 -3.5289 1.6581
-0.4053 -3.5265 1.6563
-0.3659 -3.5242 1.6546
-0.3266 -3.5219 1.6529
-0.2875 -3.5196 1.6513
-0.2485 -3.5173 1.6498
-0.2096 -3.5151 1.6483
-0.1708 -3.5128 1.6469
-0.1321 -3.5105 1.6456
-17.4815 2.7291 2.8671
-17.2001 2.5167 2.8671
-16.9261 2.3112 2.8671
-15.7738 2.0001 2.7147
-15.5276 1.8178 2.7147
-15.2876 1.6413 2.7147
-15.0535 1.4702 2.7147
-14.8251 1.3044 2.7147
-14.6022 1.1436 2.7147
-14.3844 0.9876 2.7147
-14.1717 0.8362 2.7147
-13.9638 0.6893 2.7147
-13.7605 0.5466 2.7147
-13.5617 0.4080 2.7147
-13.3671 0.2733 2.7147
-13.1767 0.1424 2.7147
-12.9902 0.0152 2.7147
-12.8075 -0.1086 2.7147
-12.9969 -0.2357 2.7939
-13.1520 -0.3657 2.8670
-12.9683 -0.4860 2.8666
-12.7881 -0.6032 2.8661
-12.6114 -0.7173 2.8657
-12.4380 -0.8283 2.8652
-12.2679 -0.9365 2.8648
-12.1009 -1.0419 2.8644
-11.9369 -1.1446 2.8640
-11.7759 -1.2447 2.8636
-11.6176 -1.3423 2.8632
-11.4621 -1.4375 2.8628
-11.3093 -1.5303 2.8625
-11.1589 -1.6209 2.8621
-11.0111 -1.7092 2.8617
-10.8657 -1.7955 2.8614
-10.7226 -1.8796 2.8611
-10.5818 -1.9618 2.8607
-10.4431 -2.0420 2.8604
-10.3066 -2.1203 2.8601
-10.1721 -2.1969 2.8597
-10.0397 -2.2716 2.8594
-9.9091 -2.3447 2.8591
-9.7805 -2.4160 2.8588
-9.6537 -2.4858 2.8585
-9.5287 -2.5540 2.8582
-9.4053 -2.6206 2.8580
-9.2837 -2.6858 2.8577
-9.1637 -2.7495 2.8574
-9.0453 -2.8119 2.8571
-8.9285 -2.8728 2.8569
-8.8131 -2.9325 2.8566
-8.6992 -2.9908 2.8564
-8.5868 -3.0479 2.8561
-8.4757 -3.1038 2.8559
-8.3659 -3.1585 2.8556
-8.2575 -3.2120 2.8554
-8.1504 -3.2643 2.8551
-8.0444 -3.3156 2.8549
-7.9398 -3.3658 2.8547
-7.8363 -3.4149 2.8545
-7.7339 -3.4631 2.8542
-7.6327 -3.5102 2.8540
-7.5326 -3.5563 2.8538
-7.4335 -3.6015 2.8536
-7.3355 -3.6458 2.8534
-7.2385 -3.6892 2.8532
-7.1425 -3.7316 2.8530
-7.0474 -3.7732 2.8528
-6.9533 -3.8140 2.8526
-6.8602 -3.8539 2.8524
-6.7679 -3.8931 2.8522
-6.6765 -3.9314 2.8520
-6.5859 -3.9690 2.8518
-6.4962 -4.0057 2.8517
-6.4073 -4.0418 2.8515
-6.3192 -4.0771 2.8513
-6.2319 -4.1118 2.8511
-6.1453 -4.1457 2.8509
-6.0595 -4.1789 2.8508
-5.9744 -4.2115 2.8506
-5.8900 -4.2434 2.8504
-5.8063 -4.2747 2.8503
-5.7233 -4.3054 2.8501
-5.6409 -4.3354 2.8499
-5.5592 -4.3648 2.8498
-5.4781 -4.3937 2.8496
-5.3976 -4.4219 2.8495
-5.3178 -4.4496 2.8493
-5.2385 -4.4768 2.8492
-5.1598 -4.5033 2.8490
-5.0816 -4.5294 2.8488
-5.0040 -4.5549 2.8487
-4.9270 -4.5799 2.8486
-4.8504 -4.6044 2.8484
-4.7744 -4.6283 2.8483
-4.6989 -4.6518 2.8481
-4.6239 -4.6749 2.8480
-4.5493 -4.6974 2.8478
-4.4752 -4.7194 2.8477
-4.4015 -4.7410 2.8476
-4.3284 -4.7622 2.8474
-4.2556 -4.7829 2.8473
-4.1833 -4.8031 2.8472
-4.1113 -4.8229 2.8470
-4.0398 -4.8423 2.8469
-3.9687 -4.8613 2.8468
-3.8980 -4.8799 2.8467
-3.8276 -4.8980 2.8465
-3.7576 -4.9158 2.8464
-3.6880 -4.9332 2.8463
-3.6187 -4.9501 2.8462
-3.5498 -4.9667 2.8460
-3.4812 -4.9829 2.8459
-3.4129 -4.9988 2.8458
-3.3450 -5.0142 2.8457
-3.2773 -5.0293 2.8456
-3.2100 -5.0441 2.8455
-3.1430 -5.0584 2.8454
-3.0762 -5.0725 2.8452
-3.0097 -5.0862 2.8451
-2.9435 -5.0995 2.8450
-2.8776 -5.1125 2.8449
-2.8119 -5.1252 2.8448
-2.7465 -5.1375 2.8447
-2.6813 -5.1496 2.8446
-2.6164 -5.1613 2.8445
-2.5516 -5.1726 2.8444
-2.4872 -5.1837 2.8443
-2.4229 -5.1944 2.8442
-2.3588 -5.2049 2.8441
-2.2950 -5.2150 2.8440
-2.2313 -5.2248 2.8439
-2.1678 -5.2343 2.8438
-2.1046 -5.2435 2.8437
-2.0415 -5.2525 2.8436
-1.9786 -5.2611 2.8435
-1.9158 -5.2694 2.8434
-1.8533 -5.2775 2.8433
-1.7908 -5.2853 2.8432
-1.7286 -5.2927 2.8431
-1.6664 -5.2999 2.8430
-1.6045 -5.3069 2.8429
-1.0347 -3.5638 1.9067
-0.9914 -3.5613 1.9030
-0.9484 -3.5588 1.8995
-0.9057 -3.5563 1.8960
-0.8633 -3.5538 1.8926
-0.8211 -3.5513 1.8894
-0.7792 -3.5488 1.8862
-0.7375 -3.5464 1.8832
-0.6961 -3.5440 1.8803
-0.6548 -3.5415 1.8775
-0.6138 -3.5391 1.8748
-0.5730 -3.5367 1.8722
-0.5324 -3.5343 1.8696
-0.4919 -3.5320 1.8672
-0.4516 -3.5296 1.8649
-0.4115 -3.5272 1.8627
-0.3715 -3.5249 1.8606
-0.3316 -3.5226 1.8586
-0.2919 -3.5202 1.8566
-0.2523 -3.5179 1.8548
-0.2128 -3.5156 1.8531
-0.1734 -3.5133 1.8514
-0.1341 -3.5110 1.8499
-12.8561 2.1859 2.7147
-12.6975 2.0344 2.7147
-12.5417 1.8868 2.7147
-12.3886 1.7428 2.7147
-12.2380 1.6024 2.7147
-12.0899 1.4656 2.7147
-11.9442 1.3320 2.7147
-11.8009 1.2017 2.7147
-11.6598 1.0746 2.7147
-11.5210 0.9505 2.7147
-11.3843 0.8293 2.7147
-11.3961 0.7203 2.7500
-11.5455 0.6185 2.8193
-11.6027 0.5098 2.8670
-11.4652 0.3933 2.8666
-11.3297 0.2795 2.8662
-11.1961 0.1683 2.8658
-11.0645 0.0597 2.8654
-10.9348 -0.0465 2.8650
-10.8069 -0.1503 2.8647
-10.6807 -0.2517 2.8643
-10.5563 -0.3509 2.8640
-10.4335 -0.4479 2.8636
-10.3124 -0.5428 2.8633
-10.1928 -0.6356 2.8629
-10.0748 -0.7264 2.8626
-9.9583 -0.8153 2.8623
-9.8433 -0.9022 2.8620
-9.7297 -0.9873 2.8617
-9.6175 -1.0706 2.8614
-9.5067 -1.1522 2.8611
-9.3972 -1.2320 2.8608
-9.2889 -1.3102 2.8605
-9.1820 -1.3867 2.8602
-9.0762 -1.4617 2.8599
-8.9717 -1.5351 2.8596
-8.8684 -1.6071 2.8594
-8.7662 -1.6775 2.8591
-8.6651 -1.7466 2.8588
-8.5651 -1.8143 2.8586
-8.4661 -1.8806 2.8583
-8.3682 -1.9455 2.8581
-8.2714 -2.0092 2.8578
-8.1755 -2.0717 2.8576
-8.0806 -2.1329 2.8574
-7.9866 -2.1929 2.8571
-7.8936 -2.2517 2.8569
-7.8014 -2.3094 2.8567
-7.7102 -2.3659 2.8564
-7.6198 -2.4214 2.8562
-7.5303 -2.4758 2.8560
-7.4416 -2.5291 2.8558
-7.3537 -2.5814 2.8556
-7.2666 -2.6327 2.8554
-7.1803 -2.6831 2.8552
-7.0948 -2.7325 2.8550
-7.0100 -2.7809 2.8548
-6.9259 -2.8284 2.8546
-6.8425 -2.8751 2.8544
-6.7599 -2.9208 2.8542
-6.6778 -2.9657 2.8540
-6.5965 -3.0097 2.8538
-6.5159 -3.0530 2.8536
-6.4358 -3.0954 2.8534
-6.3564 -3.1370 2.8533
-6.2776 -3.1778 2.8531
-6.1994 -3.2179 2.8529
-6.1218 -3.2572 2.8527
-6.0448 -3.2958 2.8526
-5.9684 -3.3337 2.8524
-5.8925 -3.3708 2.8522
-5.8171 -3.4073 2.8521
-5.7423 -3.4431 2.8519
-5.6679 -3.4782 2.8517
-5.5941 -3.5127 2.8516
-5.5208 -3.5465 2.8514
-5.4480 -3.5797 2.8512
-5.3756 -3.6123 2.8511
-5.3038 -3.6442 2.8509
-5.2324 -3.6756 2.8508
-5.1614 -3.7064 2.8506
-5.0909 -3.7366 2.8505
-5.0208 -3.7662 2.8503
-4.9511 -3.7953 2.8502
-4.8819 -3.8238 2.8500
-4.8130 -3.8518 2.8499
-4.7446 -3.8792 2.8498
-4.6765 -3.9061 2.8496
-4.6088 -3.9325 2.8495
-4.5415 -3.9585 2.8493
-4.4746 -3.9839 2.8492
-4.4080 -4.0088 2.8491
-4.3418 -4.0332 2.8489
-4.2759 -4.0572 2.8488
-4.2103 -4.0806 2.8487
-4.1452 -4.1037 2.8486
-4.0803 -4.1263 2.8484
-4.0157 -4.1484 2.8483
-3.9514 -4.1701 2.8482
-3.8875 -4.1913 2.8481
-3.8238 -4.2121 2.8479
-3.7604 -4.2325 2.8478
-3.6974 -4.2525 2.8477
-3.6345 -4.2720 2.8476
-3.5720 -4.2912 2.8475
-3.5097 -4.3100 2.8473
-3.4477 -4.3283 2.8472
-3.3860 -4.3463 2.8471
-3.3245 -4.3639 2.8470
-3.2632 -4.3811 2.8469
-3.2022 -4.3979 2.8468
-3.1414 -4.4143 2.8467
-3.0809 -4.4304 2.8466
-3.0205 -4.4461 2.8465
-2.9604 -4.4615 2.8464
-2.9005 -4.4765 2.8462
-2.8408 -4.4911 2.8461
-2.7813 -4.5054 2.8460
-2.7220 -4.5194 2.8459
-2.6629 -4.5330 2.8458
-2.6040 -4.5463 2.8457
-2.5452 -4.5593 2.8456
-2.4867 -4.5719 2.8455
-2.4283 -4.5842 2.8454
-2.3701 -4.5961 2.8453
-2.3120 -4.6078 2.8452
-2.2541 -4.6191 2.8452
-2.1964 -4.6301 2.8451
-2.1388 -4.6408 2.8450
-2.0814 -4.6512 2.8449
-2.0241 -4.6613 2.8448
-1.9669 -4.6711 2.8447
-1.9099 -4.6805 2.8446
-1.8530 -4.6897 2.8445
-1.7962 -4.6986 2.8444
-1.7396 -4.7072 2.8443
-1.6831 -4.7155 2.8442
-1.6266 -4.7235 2.8442
-1.5703 -4.7312 2.8441
-1.5142 -4.7386 2.8440
-1.4581 -4.7458 2.8439
-1.0518 -3.5652 2.1333
-1.0077 -3.5626 2.1288
-0.9640 -3.5601 2.1244
-0.9205 -3.5575 2.1201
-0.8774 -3.5550 2.1160
-0.8345 -3.5524 2.1120
-0.7918 -3.5499 2.1082
-0.7495 -3.5475 2.1045
-0.7073 -3.5450 2.1009
-0.6654 -3.5425 2.0975
-0.6237 -3.5401 2.0942
-0.5822 -3.5376 2.0910
-0.5409 -3.5352 2.0880
-0.4998 -3.5328 2.0851
-0.4588 -3.5304 2.0823
-0.4180 -3.5280 2.0796
-0.3774 -3.5256 2.0771
-0.3369 -3.5232 2.0747
-0.2965 -3.5209 2.0724
-0.2563 -3.5185 2.0702
-0.2162 -3.5161 2.0682
-0.1761 -3.5138 2.0662
-0.1362 -3.5114 2.0644
-10.4645 1.9283 2.7147
-10.3611 1.8075 2.7147
-10.2587 1.6892 2.7147
-10.1574 1.5733 2.7147
-10.1333 1.4707 2.7352
-10.2528 1.3883 2.7951
-10.3750 1.3042 2.8565
-10.3095 1.1960 2.8668
-10.2066 1.0853 2.8665
-10.1048 0.9768 2.8661
-10.0039 0.8705 2.8658
-9.9041 0.7663 2.8654
-9.8052 0.6642 2.8651
-9.7073 0.5641 2.8648
-9.6103 0.4659 2.8645
-9.5143 0.3697 2.8642
-9.4191 0.2753 2.8639
-9.3249 0.1827 2.8636
-9.2315 0.0920 2.8633
-9.1390 0.0029 2.8630
-9.0473 -0.0844 2.8627
-8.9564 -0.1701 2.8624
-8.8664 -0.2542 2.8621
-8.7771 -0.3366 2.8618
-8.6886 -0.4175 2.8616
-8.6009 -0.4969 2.8613
-8.5140 -0.5749 2.8610
-8.4277 -0.6514 2.8608
-8.3422 -0.7264 2.8605
-8.2574 -0.8001 2.8603
-8.1733 -0.8724 2.8600
-8.0899 -0.9434 2.8598
-8.0072 -1.0132 2.8595
-7.9251 -1.0816 2.8593
-7.8436 -1.1488 2.8591
-7.7628 -1.2148 2.8588
-7.6826 -1.2796 2.8586
-7.6031 -1.3432 2.8584
-7.5241 -1.4057 2.8582
-7.4458 -1.4671 2.8580
-7.3680 -1.5274 2.8577
-7.2908 -1.5866 2.8575
-7.2141 -1.6447 2.8573
-7.1380 -1.7019 2.8571
-7.0624 -1.7580 2.8569
-6.9874 -1.8131 2.8567
-6.9129 -1.8673 2.8565
-6.8389 -1.9205 2.8563
-6.7654 -1.9728 2.8561
-6.6924 -2.0242 2.8559
-6.6199 -2.0746 2.8557
-6.5479 -2.1242 2.8555
-6.4763 -2.1729 2.8554
-6.4052 -2.2208 2.8552
-6.3346 -2.2678 2.8550
-6.2644 -2.3141 2.8548
-6.1946 -2.3595 2.8546
-6.1253 -2.4041 2.8545
-6.0564 -2.4480 2.8543
-5.9879 -2.4911 2.8541
-5.9199 -2.5335 2.8540
-5.8522 -2.5751 2.8538
-5.7849 -2.6160 2.8536
-5.7180 -2.6562 2.8535
-5.6516 -2.6957 2.8533
-5.5854 -2.7345 2.8531
-5.5197 -2.7727 2.8530
-5.4543 -2.8102 2.8528
-5.3892 -2.8470 2.8527
-5.3246 -2.8832 2.8525
-5.2602 -2.9188 2.8524
-5.1962 -2.9537 2.8522
-5.1325 -2.9881 2.8521
-5.0692 -3.0218 2.8519
-5.0062 -3.0550 2.8518
-4.9435 -3.0876 2.8516
-4.8811 -3.1196 2.8515
-4.8190 -3.1510 2.8513
-4.7572 -3.1819 2.8512
-4.6957 -3.2122 2.8511
-4.6345 -3.2420 2.8509
-4.5736 -3.2713 2.8508
-4.5130 -3.3001 2.8507
-4.4526 -3.3283 2.8505
-4.3925 -3.3561 2.8504
-4.3327 -3.3833 2.8503
-4.2731 -3.4101 2.8501
-4.2138 -3.4363 2.8500
-4.1548 -3.4621 2.8499
-4.0960 -3.4875 2.8498
-4.0374 -3.5123 2.8496
-3.9791 -3.5367 2.8495
-3.9210 -3.5606 2.8494
-3.8631 -3.5841 2.8493
-3.8054 -3.6072 2.8491
-3.7480 -3.6298 2.8490
-3.6908 -3.6520 2.8489
-3.6338 -3.6738 2.8488
-3.5770 -3.6952 2.8487
-3.5204 -3.7161 2.8486
-3.4641 -3.7366 2.8485
-3.4079 -3.7567 2.8483
-3.3519 -3.7765 2.8482
-3.2961 -3.7958 2.8481
-3.2405 -3.8148 2.8480
-3.1850 -3.8333 2.8479
-3.1298 -3.8515 2.8478
-3.0747 -3.8693 2.8477
-3.0198 -3.8868 2.8476
-2.9651 -3.9038 2.8475
-2.9105 -3.9205 2.8474
-2.8561 -3.9369 2.8473
-2.8018 -3.9529 2.8472
-2.7477 -3.9685 2.8471
-2.6938 -3.9838 2.8470
-2.6400 -3.9987 2.8469
-2.5863 -4.0133 2.8468
-2.5328 -4.0276 2.8467
-2.4794 -4.0415 2.8466
-2.4261 -4.0551 2.8465
-2.3730 -4.0684 2.8464
-2.3200 -4.0813 2.8463
-2.2671 -4.0939 2.8462
-2.2144 -4.1062 2.8462
-2.1618 -4.1182 2.8461
-2.1093 -4.1299 2.8460
-2.0569 -4.1412 2.8459
-2.0046 -4.1522 2.8458
-1.9524 -4.1630 2.8457
-1.9003 -4.1734 2.8456
-1.8483 -4.1835 2.8455
-1.7965 -4.1933 2.8455
-1.7447 -4.2029 2.8454
-1.6930 -4.2121 2.8453
-1.6414 -4.2210 2.8452
-1.5899 -4.2296 2.8451
-1.5385 -4.2380 2.8450
-1.4871 -4.2460 2.8450
-1.4358 -4.2538 2.8449
-1.3846 -4.2613 2.8448
-1.3335 -4.2684 2.8447
-1.2825 -4.2754 2.8446
-1.0250 -3.5640 2.3676
-0.9805 -3.5614 2.3623
-0.9362 -3.5588 2.3572
-0.8923 -3.5562 2.3523
-0.8486 -3.5537 2.3475
-0.8052 -3.5511 2.3429
-0.7621 -3.5486 2.3385
-0.7192 -3.5461 2.3342
-0.6765 -3.5436 2.3301
-0.6341 -3.5411 2.3262
-0.5919 -3.5386 2.3224
-0.5499 -3.5361 2.3188
-0.5081 -3.5337 2.3154
-0.4664 -3.5312 2.3121
-0.4249 -3.5288 2.3089
-0.3836 -3.5263 2.3060
-0.3424 -3.5239 2.3031
-0.3014 -3.5215 2.3004
-0.2605 -3.5191 2.2979
-0.2197 -3.5167 2.2955
-0.1790 -3.5143 2.2933
-0.1384 -3.5120 2.2912
-9.2765 1.8453 2.8669
-9.1999 1.7396 2.8666
-9.1237 1.6357 2.8663
-9.0479 1.5336 2.8660
-8.9725 1.4332 2.8657
-8.8975 1.3346 2.8654
-8.8228 1.2377 2.8651
-8.7485 1.1425 2.8648
-8.6747 1.0488 2.8645
-8.6012 0.9568 2.8643
-8.5281 0.8664 2.8640
-8.4554 0.7774 2.8637
-8.3831 0.6900 2.8635
-8.3112 0.6041 2.8632
-8.2396 0.5196 2.8629
-8.1684 0.4365 2.8627
-8.0976 0.3548 2.8624
-8.0271 0.2745 2.8622
-7.9570 0.1955 2.8619
-7.8873 0.1179 2.8617
-7.8179 0.0415 2.8615
-7.7488 -0.0336 2.8612
-7.6802 -0.1075 2.8610
-7.6119 -0.1801 2.8608
-7.5439 -0.2516 2.8605
-7.4763 -0.3218 2.8603
-7.4089 -0.3909 2.8601
-7.3420 -0.4589 2.8599
-7.2754 -0.5258 2.8597
-7.2091 -0.5916 2.8594
-7.1431 -0.6563 2.8592
-7.0775 -0.7200 2.8590
-7.0122 -0.7826 2.8588
-6.9472 -0.8442 2.8586
-6.8825 -0.9048 2.8584
-6.8181 -0.9645 2.8582
-6.7541 -1.0231 2.8580
-6.6903 -1.0809 2.8578
-6.6269 -1.1376 2.8576
-6.5637 -1.1935 2.8574
-6.5009 -1.2485 2.8573
-6.4383 -1.3026 2.8571
-6.3760 -1.3558 2.8569
-6.3141 -1.4082 2.8567
-6.2523 -1.4597 2.8565
-6.1909 -1.5104 2.8564
-6.1298 -1.5604 2.8562
-6.0689 -1.6095 2.8560
-6.0083 -1.6578 2.8558
-5.9480 -1.7053 2.8557
-5.8879 -1.7521 2.8555
-5.8281 -1.7981 2.8553
-5.7686 -1.8434 2.8552
-5.7093 -1.8880 2.8550
-5.6502 -1.9319 2.8548
-5.5915 -1.9750 2.8547
-5.5329 -2.0175 2.8545
-5.4746 -2.0593 2.8544
-5.4165 -2.1004 2.8542
-5.3587 -2.1408 2.8541
-5.3011 -2.1807 2.8539
-5.2438 -2.2198 2.8538
-5.1867 -2.2584 2.8536
-5.1297 -2.2963 2.8535
-5.0731 -2.3336 2.8533
-5.0166 -2.3703 2.8532
-4.9604 -2.4064 2.8530
-4.9044 -2.4419 2.8529
-4.8485 -2.4769 2.8528
-4.7929 -2.5112 2.8526
-4.7375 -2.5451 2.8525
-4.6823 -2.5783 2.8523
-4.6273 -2.6110 2.8522
-4.5725 -2.6432 2.8521
-4.5179 -2.6749 2.8519
-4.4635 -2.7060 2.8518
-4.4093 -2.7366 2.8517
-4.3553 -2.7667 2.8516
-4.3014 -2.7963 2.8514
-4.1943 -2.8541 2.8512
-4.2478 -2.8254 2.8513
-4.1410 -2.8822 2.8511
-3.9295 -2.9901 2.8506
-4.0878 -2.9099 2.8509
-4.0349 -2.9371 2.8508
-3.8770 -3.0159 2.8504
-3.9821 -2.9638 2.8507
-3.8247 -3.0412 2.8503
-3.6688 -3.1147 2.8500
-3.6171 -3.1384 2.8499
-3.7726 -3.0662 2.8502
-3.5656 -3.1616 2.8498
-3.7206 -3.0907 2.8501
-3.5142 -3.1844 2.8497
-3.4630 -3.2068 2.8495
-3.4119 -3.2288 2.8494
-3.1585 -3.3327 2.8489
-3.3609 -3.2503 2.8493
-3.1082 -3.3524 2.8488
-3.0581 -3.3716 2.8487
-3.3101 -3.2715 2.8492
-3.0081 -3.3905 2.8486
-3.2595 -3.2923 2.8491
-2.9582 -3.4090 2.8485
-3.2089 -3.3127 2.8490
-2.9084 -3.4272 2.8484
-2.6612 -3.5126 2.8479
-2.8587 -3.4450 2.8483
-2.6121 -3.5286 2.8478
-2.8092 -3.4624 2.8482
-2.7597 -3.4795 2.8481
-2.5631 -3.5443 2.8477
-2.7104 -3.4962 2.8480
-2.5142 -3.5597 2.8476
-2.4167 -3.5894 2.8475
-2.4654 -3.5747 2.8476
-2.3681 -3.6038 2.8474
-2.1747 -3.6580 2.8470
-2.3196 -3.6178 2.8473
-2.1265 -3.6707 2.8469
-2.2712 -3.6315 2.8472
-2.0785 -3.6832 2.8468
-2.2229 -3.6449 2.8471
-2.0305 -3.6953 2.8468
-1.9348 -3.7186 2.8466
-1.9826 -3.7071 2.8467
-1.8871 -3.7298 2.8465
-1.6969 -3.7717 2.8462
-1.8394 -3.7407 2.8464
-1.6495 -3.7814 2.8461
-1.7918 -3.7513 2.8464
-1.6022 -3.7908 2.8460
-1.7443 -3.7616 2.8463
-1.5549 -3.7999 2.8460
-1.4606 -3.8173 2.8458
-1.5078 -3.8087 2.8459
-1.4136 -3.8256 2.8457
-1.2258 -3.8558 2.8454
-1.3666 -3.8335 2.8457
-1.1790 -3.8627 2.8454
-1.3196 -3.8413 2.8456
-1.0434 -3.5655 2.6220
-1.2727 -3.8487 2.8455
-0.9980 -3.5629 2.6157
-0.9081 -3.5576 2.6037
-0.9529 -3.5602 2.6096
-0.8636 -3.5550 2.5981
-0.6884 -3.5447 2.5776
-0.8194 -3.5524 2.5927
-0.6452 -3.5421 2.5730
-0.7755 -3.5498 2.5874
-0.6022 -3.5396 2.5686
-0.7318 -3.5472 2.5824
-0.5594 -3.5371 2.5643
-0.5169 -3.5346 2.5603
-0.4745 -3.5321 2.5564
-0.4323 -3.5296 2.5528
-0.3902 -3.5271 2.5493
-0.3483 -3.5247 2.5460
-0.3066 -3.5222 2.5429
-0.2650 -3.5198 2.5399
-0.2235 -3.5173 2.5372
-0.1821 -3.5149 2.5346
-0.1408 -3.5125 2.5322
-7.9513 1.7020 2.8650
-7.8960 1.6124 2.8647
-7.8408 1.5241 2.8645
-7.7856 1.4371 2.8643
-7.7304 1.3514 2.8640
-7.6752 1.2670 2.8638
-7.6201 1.1838 2.8635
-7.5650 1.1019 2.8633
-7.5100 1.0211 2.8631
-7.4551 0.9416 2.8629
-7.4002 0.8632 2.8626
-7.3454 0.7860 2.8624
-7.2906 0.7099 2.8622
-7.2359 0.6349 2.8620
-7.1813 0.5610 2.8618
-7.1267 0.4883 2.8615
-7.0723 0.4166 2.8613
-7.0179 0.3459 2.8611
-6.9637 0.2763 2.8609
-6.9095 0.2077 2.8607
-6.8554 0.1401 2.8605
-6.8014 0.0735 2.8603
-6.7475 0.0079 2.8601
-6.6937 -0.0568 2.8599
-6.6400 -0.1205 2.8597
-6.5864 -0.1833 2.8595
-6.5329 -0.2451 2.8593
-6.4795 -0.3061 2.8591
-6.4263 -0.3661 2.8590
-6.3731 -0.4253 2.8588
-6.3201 -0.4836 2.8586
-6.2671 -0.5411 2.8584
-6.2143 -0.5977 2.8582
-6.1616 -0.6535 2.8581
-6.1090 -0.7085 2.8579
-6.0566 -0.7627 2.8577
-6.0042 -0.8160 2.8575
-5.9520 -0.8686 2.8574
-5.8999 -0.9205 2.8572
-5.8480 -0.9715 2.8570
-5.7961 -1.0218 2.8569
-5.7444 -1.0714 2.8567
-5.6927 -1.1203 2.8565
-5.6412 -1.1684 2.8564
-5.5899 -1.2158 2.8562
-5.5386 -1.2626 2.8561
-5.4875 -1.3086 2.8559
-5.4365 -1.3540 2.8558
-5.3856 -1.3987 2.8556
-5.3348 -1.4427 2.8555
-5.2842 -1.4861 2.8553
-5.2337 -1.5288 2.8552
-5.1833 -1.5709 2.8550
-5.1330 -1.6124 2.8549
-5.0829 -1.6533 2.8547
-5.0328 -1.6936 2.8546
-4.9829 -1.7332 2.8544
-4.9331 -1.7723 2.8543
-4.8834 -1.8108 2.8542
-4.8339 -1.8487 2.8540
-4.7844 -1.8860 2.8539
-4.7351 -1.9228 2.8538
-4.6859 -1.9590 2.8536
-4.6368 -1.9947 2.8535
-4.5878 -2.0298 2.8534
-4.5390 -2.0644 2.8532
-4.4902 -2.0985 2.8531
-4.4416 -2.1321 2.8530
-4.3931 -2.1651 2.8528
-4.3447 -2.1976 2.8527
-4.2964 -2.2297 2.8526
-4.2482 -2.2612 2.8525
-4.2001 -2.2922 2.8523
-4.1522 -2.3228 2.8522
-4.1043 -2.3529 2.8521
-4.0566 -2.3825 2.8520
-4.0089 -2.4117 2.8518
-3.8194 -2.5237 2.8514
-3.9614 -2.4403 2.8517
-3.7723 -2.5506 2.8513
-3.9140 -2.4686 2.8516
-3.7252 -2.5771 2.8512
-3.8666 -2.4964 2.8515
-3.6783 -2.6031 2.8510
-3.5848 -2.6539 2.8508
-3.6315 -2.6287 2.8509
-3.5381 -2.6787 2.8507
-3.3525 -2.7736 2.8503
-3.4916 -2.7030 2.8506
-3.3063 -2.7964 2.8502
-3.4451 -2.7270 2.8505
-3.2603 -2.8188 2.8501
-3.3988 -2.7505 2.8504
-3.2143 -2.8407 2.8500
-3.1225 -2.8835 2.8498
-3.1683 -2.8623 2.8499
-3.0768 -2.9044 2.8497
-2.8947 -2.9840 2.8493
-3.0312 -2.9248 2.8496
-2.8494 -3.0030 2.8492
-2.9856 -2.9449 2.8495
-2.8041 -3.0217 2.8491
-2.9401 -2.9647 2.8494
-2.7590 -3.0400 2.8490
-2.6689 -3.0756 2.8488
-2.7139 -3.0580 2.8489
-2.6239 -3.0928 2.8487
-2.4449 -3.1586 2.8484
-2.5790 -3.1098 2.8486
-2.4003 -3.1742 2.8483
-2.5342 -3.1264 2.8486
-2.3557 -3.1894 2.8482
-2.4895 -3.1426 2.8485
-2.3113 -3.2044 2.8481
-2.2226 -3.2334 2.8479
-2.2669 -3.2190 2.8480
-2.1783 -3.2474 2.8479
-2.0018 -3.3002 2.8475
-2.1341 -3.2610 2.8478
-1.9578 -3.3127 2.8475
-2.0899 -3.2744 2.8477
-1.9139 -3.3249 2.8474
-2.0458 -3.2875 2.8476
-1.8701 -3.3367 2.8473
-1.7825 -3.3595 2.8471
-1.8262 -3.3483 2.8472
-1.7388 -3.3705 2.8471
-1.5644 -3.4115 2.8468
-1.6951 -3.3812 2.8470
-1.5209 -3.4210 2.8467
-1.6515 -3.3916 2.8469
-1.4775 -3.4302 2.8466
-1.6079 -3.4017 2.8468
-1.4341 -3.4392 2.8465
-1.3474 -3.4562 2.8464
-1.3907 -3.4478 2.8465
-1.3042 -3.4644 2.8463
-1.1314 -3.4941 2.8461
-1.2609 -3.4722 2.8463
-1.0884 -3.5008 2.8460
-1.2177 -3.4798 2.8462
-1.0453 -3.5073 2.8459
-1.1746 -3.4870 2.8461
-1.0023 -3.5135 2.8459
-0.9163 -3.5250 2.8457
-0.9593 -3.5194 2.8458
-0.8733 -3.5304 2.8457
-0.7018 -3.5494 2.8454
-0.8304 -3.5356 2.8456
-0.6589 -3.5534 2.8453
-0.7875 -3.5404 2.8455
-0.6161 -3.5572 2.8453
-0.7446 -3.5450 2.8455
-0.5733 -3.5608 2.8452
-0.4878 -3.5671 2.8451
-0.5305 -3.5641 2.8452
-0.4450 -3.5698 2.8451
-0.4023 -3.5723 2.8450
-0.3596 -3.5746 2.8449
-0.3169 -3.5766 2.8449
-0.2742 -3.5783 2.8448
-0.2315 -3.5797 2.8448
-0.1888 -3.5810 2.8447
-0.1461 -3.5819 2.8447
-6.9241 1.5910 2.8635
-6.8830 1.5136 2.8633
-6.8418 1.4372 2.8631
-6.8004 1.3619 2.8629
-6.7588 1.2874 2.8627
-6.7171 1.2140 2.8625
-6.6753 1.1415 2.8623
-6.6333 1.0699 2.8621
-6.5912 0.9992 2.8619
-6.5490 0.9295 2.8617
-6.5066 0.8607 2.8615
-6.4642 0.7927 2.8614
-6.4216 0.7256 2.8612
-6.3790 0.6595 2.8610
-6.3362 0.5941 2.8608
-6.2934 0.5296 2.8606
-6.2505 0.4660 2.8604
-6.2076 0.4032 2.8603
-6.1646 0.3412 2.8601
-6.1215 0.2801 2.8599
-6.0783 0.2197 2.8597
-6.0351 0.1601 2.8596
-5.9919 0.1013 2.8594
-5.9486 0.0433 2.8592
-5.9053 -0.0140 2.8591
-5.8619 -0.0705 2.8589
-5.8185 -0.1262 2.8587
-5.7751 -0.1812 2.8586
-5.7317 -0.2355 2.8584
-5.6882 -0.2891 2.8582
-5.6447 -0.3420 2.8581
-5.6012 -0.3941 2.8579
-5.5577 -0.4456 2.8578
-5.5142 -0.4963 2.8576
-5.4707 -0.5464 2.8574
-5.4272 -0.5959 2.8573
-5.3836 -0.6446 2.8571
-5.3401 -0.6927 2.8570
-5.2966 -0.7402 2.8568
-5.2531 -0.7870 2.8567
-5.2096 -0.8332 2.8566
-5.1662 -0.8788 2.8564
-5.1227 -0.9237 2.8563
-5.0793 -0.9681 2.8561
-5.0358 -1.0118 2.8560
-4.9924 -1.0550 2.8558
-4.9490 -1.0976 2.8557
-4.9057 -1.1395 2.8556
-4.8623 -1.1809 2.8554
-4.8190 -1.2218 2.8553
-4.7758 -1.2620 2.8552
-4.7325 -1.3018 2.8550
-4.6893 -1.3409 2.8549
-4.6461 -1.3796 2.8548
-4.6029 -1.4176 2.8546
-4.5598 -1.4552 2.8545
-4.5167 -1.4922 2.8544
-4.4736 -1.5288 2.8542
-4.4306 -1.5648 2.8541
-4.3877 -1.6003 2.8540
-4.3447 -1.6353 2.8539
-4.3018 -1.6698 2.8537
-4.2590 -1.7038 2.8536
-4.2162 -1.7373 2.8535
-4.1734 -1.7704 2.8534
-4.1306 -1.8029 2.8532
-4.0880 -1.8350 2.8531
-4.0453 -1.8667 2.8530
-4.0027 -1.8979 2.8529
-3.9601 -1.9286 2.8528
-3.9176 -1.9589 2.8527
-3.8752 -1.9887 2.8525
-3.8327 -2.0181 2.8524
-3.7904 -2.0470 2.8523
-3.7480 -2.0755 2.8522
-3.7058 -2.1036 2.8521
-3.6635 -2.1313 2.8520
-3.6213 -2.1586 2.8519
-3.5792 -2.1854 2.8518
-3.5371 -2.2118 2.8517
-3.4950 -2.2378 2.8516
-3.4530 -2.2635 2.8515
-3.4111 -2.2887 2.8514
-3.3692 -2.3135 2.8513
-3.3273 -2.3380 2.8512
-3.2855 -2.3620 2.8511
-3.2437 -2.3857 2.8510
-3.2020 -2.4090 2.8509
-3.1603 -2.4319 2.8508
-3.1187 -2.4544 2.8507
-3.0771 -2.4766 2.8506
-3.0355 -2.4984 2.8505
-2.9940 -2.5198 2.8504
-2.9526 -2.5409 2.8503
-2.9112 -2.5616 2.8502
-2.8698 -2.5820 2.8501
-2.8285 -2.6020 2.8500
-2.7872 -2.6217 2.8499
-2.7460 -2.6410 2.8498
-2.7048 -2.6600 2.8497
-2.6637 -2.6787 2.8496
-2.6226 -2.6970 2.8495
-2.5815 -2.7150 2.8495
-2.5405 -2.7326 2.8494
-2.4995 -2.7499 2.8493
-2.4586 -2.7669 2.8492
-2.4177 -2.7836 2.8491
-2.3769 -2.8000 2.8490
-2.3360 -2.8160 2.8489
-2.2953 -2.8317 2.8489
-2.2545 -2.8471 2.8488
-2.2138 -2.8622 2.8487
-2.1732 -2.8770 2.8486
-2.1326 -2.8915 2.8485
-2.0920 -2.9056 2.8485
-2.0514 -2.9195 2.8484
-2.0109 -2.9331 2.8483
-1.9704 -2.9464 2.8482
-1.9300 -2.9593 2.8481
-1.8896 -2.9720 2.8481
-1.8492 -2.9844 2.8480
-1.8088 -2.9965 2.8479
-1.7685 -3.0083 2.8478
-1.7282 -3.0198 2.8478
-1.6880 -3.0311 2.8477
-1.6478 -3.0420 2.8476
-1.6076 -3.0527 2.8476
-1.5674 -3.0631 2.8475
-1.5273 -3.0732 2.8474
-1.4872 -3.0830 2.8473
-1.4471 -3.0925 2.8473
-1.4071 -3.1018 2.8472
-1.3670 -3.1108 2.8471
-1.3270 -3.1195 2.8471
-1.2871 -3.1280 2.8470
-1.2471 -3.1361 2.8469
-1.2072 -3.1441 2.8469
-1.1673 -3.1517 2.8468
-1.1274 -3.1591 2.8467
-1.0875 -3.1662 2.8467
-1.0477 -3.1730 2.8466
-1.0079 -3.1796 2.8465
-0.9681 -3.1859 2.8465
-0.9283 -3.1920 2.8464
-0.8885 -3.1978 2.8464
-0.8488 -3.2033 2.8463
-0.8090 -3.2086 2.8462
-0.7693 -3.2136 2.8462
-0.7296 -3.2183 2.8461
-0.6899 -3.2228 2.8461
-0.6503 -3.2271 2.8460
-0.6106 -3.2310 2.8459
-0.5710 -3.2348 2.8459
-0.5313 -3.2382 2.8458
-0.4917 -3.2414 2.8458
-0.4521 -3.2444 2.8457
-0.4125 -3.2471 2.8457
-0.3729 -3.2495 2.8456
-0.3333 -3.2517 2.8456
-0.2937 -3.2537 2.8455
-0.2542 -3.2554 2.8455
-0.2146 -3.2568 2.8454
-0.1750 -3.2580 2.8454
-0.1355 -3.2589 2.8453
-6.1014 1.5020 2.8624
-6.0702 1.4343 2.8622
-6.0388 1.3674 2.8620
-6.0071 1.3012 2.8618
-5.9751 1.2358 2.8617
-5.9429 1.1711 2.8615
-5.9104 1.1072 2.8613
-5.8777 1.0440 2.8612
-5.8448 0.9814 2.8610
-5.8117 0.9197 2.8608
-5.7784 0.8586 2.8607
-5.7449 0.7982 2.8605
-5.7111 0.7385 2.8603
-5.6773 0.6796 2.8602
-5.6432 0.6213 2.8600
-5.6089 0.5636 2.8599
-5.5745 0.5067 2.8597
-5.5399 0.4504 2.8596
-5.5052 0.3948 2.8594
-5.4703 0.3399 2.8592
-5.4353 0.2855 2.8591
-5.4001 0.2319 2.8589
-5.3648 0.1789 2.8588
-5.3294 0.1265 2.8586
-5.2939 0.0747 2.8585
