ply
format ascii 1.0
element vertex 2068
property float32 x
property float32 y
property float32 z
end_header
-47.8437 9.5562 -4.6037
-48.1446 9.1322 -4.4859
-45.1744 7.6658 -3.9360
-45.3848 7.2505 -3.8181
-45.7974 6.8628 -3.7161
-46.8719 6.5611 -3.6639
-17.4525 1.2495 -1.0065
-47.0465 6.1225 -3.5382
-46.9762 5.6522 -3.3944
-25.5745 -1.8729 -0.3804
-24.9517 -2.0691 -0.3004
-25.1094 -2.3260 -0.2311
-25.5525 -1.3769 -0.5249
-25.5634 -1.6247 -0.4527
-25.5787 -2.6182 -0.1629
-25.1488 -3.3113 0.0543
-25.4000 -2.8475 -0.0896
-25.0165 -3.5395 0.1253
-25.2217 -3.0739 -0.0173
-45.2087 -15.6762 2.8825
-43.1266 -15.4242 2.8825
-41.2167 -15.1937 2.8825
-31.2584 -14.0040 2.8825
-39.4583 -14.9819 2.8825
-30.1848 -13.8775 2.8825
-37.8335 -14.7868 2.8825
-29.1744 -13.7589 2.8825
-36.3274 -14.6065 2.8825
-28.2217 -13.6474 2.8825
-27.3216 -13.5425 2.8825
-34.9273 -14.4393 2.8825
-26.4697 -13.4436 2.8825
-33.6219 -14.2840 2.8825
-25.6621 -13.3502 2.8825
-32.4016 -14.1392 2.8825
-24.8952 -13.2620 2.8825
-21.5717 -12.8843 2.8825
-24.1659 -13.1784 2.8825
-23.4714 -13.0991 2.8825
-20.9928 -12.8195 2.8825
-22.8090 -13.0239 2.8825
-20.4380 -12.7578 2.8825
-22.1765 -12.9524 2.8825
-18.1228 -12.3284 2.8345
-19.9056 -12.6988 2.8825
-17.0662 -11.8570 2.7369
-19.3944 -12.6425 2.8825
-16.6077 -11.7828 2.7301
-18.9028 -12.5887 2.8825
-16.2062 -11.7399 2.7301
-15.8184 -11.6987 2.7301
-15.0809 -11.6212 2.7301
-15.4435 -11.6592 2.7301
-14.7299 -11.5846 2.7301
-13.1415 -11.4332 2.7329
-14.3898 -11.5495 2.7301
-12.8482 -11.4042 2.7330
-12.5604 -11.3740 2.7325
-14.0601 -11.5157 2.7301
-12.2759 -11.3406 2.7310
-13.7526 -11.4934 2.7326
-11.9953 -11.3049 2.7287
-13.4429 -11.4629 2.7328
-11.7165 -11.2646 2.7251
-11.4415 -11.2219 2.7206
-9.9273 -10.9797 2.6932
-9.7503 -11.0038 2.7038
-11.1780 -11.1845 2.7173
-9.6268 -11.0865 2.7288
-10.9189 -11.1456 2.7133
-9.5036 -11.1692 2.7536
-10.6626 -11.1038 2.7085
-9.3871 -11.2595 2.7803
-9.2722 -11.3519 2.8075
-10.4139 -11.0643 2.7040
-9.0821 -11.3503 2.8113
-10.1676 -11.0216 2.6986
-8.8654 -11.3112 2.8057
-8.6557 -11.2759 2.8009
-7.8809 -11.1731 2.7900
-8.4562 -11.2491 2.7980
-7.6964 -11.1492 2.7874
-8.2606 -11.2229 2.7953
-7.5151 -11.1259 2.7849
-8.0689 -11.1977 2.7926
-7.3371 -11.1032 2.7824
-6.8209 -11.0382 2.7751
-7.1621 -11.0810 2.7799
-6.6547 -11.0179 2.7728
-6.9901 -11.0593 2.7775
-6.4910 -10.9980 2.7705
-6.3299 -10.9785 2.7683
-5.8605 -10.9227 2.7617
-6.1711 -10.9595 2.7661
-5.7085 -10.9049 2.7596
-6.0147 -10.9409 2.7639
-5.5586 -10.8875 2.7574
-5.4107 -10.8705 2.7553
-5.2648 -10.8539 2.7533
-5.1206 -10.8376 2.7512
-4.9784 -10.8217 2.7492
-4.8378 -10.8061 2.7472
-4.6989 -10.7909 2.7452
-4.5616 -10.7759 2.7432
-4.4258 -10.7613 2.7412
-4.2916 -10.7470 2.7393
-4.1588 -10.7330 2.7373
-4.0273 -10.7193 2.7354
-3.8964 -10.7036 2.7329
-3.7658 -10.6852 2.7297
-9.1229 6.2482 -1.7084
-9.1960 6.1656 -1.6839
-8.6826 5.6980 -1.5544
-8.8237 5.6668 -1.5440
-8.9674 5.6350 -1.5333
-9.1139 5.6025 -1.5225
-9.2634 5.5695 -1.5114
-9.3478 5.4958 -1.4893
-9.4293 5.4197 -1.4665
-9.5112 5.3431 -1.4435
-9.5936 5.2662 -1.4204
-9.6765 5.1888 -1.3972
-9.2837 4.8616 -1.3068
-9.3891 4.8001 -1.2879
-9.9368 4.9580 -1.3277
-10.1173 4.9250 -1.3162
-10.2449 4.8638 -1.2971
-10.3745 4.8016 -1.2777
-10.3878 4.6852 -1.2438
-9.7112 4.2664 -1.1298
-10.3583 4.4306 -1.1703
-10.3438 4.3056 -1.1342
-9.9422 4.0252 -1.0573
-10.5957 4.1702 -1.0921
-10.6185 4.0602 -1.0599
-9.9578 3.6969 -0.9618
-9.8730 3.5566 -0.9219
-9.7903 3.4197 -0.8831
-9.7096 3.2860 -0.8451
-9.6308 3.1555 -0.8080
-37.4549 11.8707 -3.0256
-38.8518 11.8999 -3.0179
-38.7947 11.4721 -2.8940
-39.3471 11.2219 -2.8146
-38.5486 10.5914 -2.6400
-38.4241 10.1580 -2.5150
-47.7300 10.6608 -2.5524
-47.9033 10.2144 -2.4199
-25.3318 -2.5041 1.0481
-48.9699 -7.7251 2.8825
-46.6334 -7.8191 2.8825
-44.5017 -7.9047 2.8825
-33.8985 -6.3601 2.2965
-38.5972 -7.6289 2.7301
-37.0268 -7.6915 2.7301
-35.5723 -7.7493 2.7301
-34.2212 -7.8029 2.7301
-33.3739 -7.9506 2.7642
-33.5619 -8.3399 2.8825
-32.4000 -8.3856 2.8825
-31.3098 -8.4283 2.8825
-30.2844 -8.4683 2.8825
-29.3183 -8.5059 2.8825
-28.4061 -8.5413 2.8825
-27.5434 -8.5747 2.8825
-26.7260 -8.6061 2.8825
-25.9503 -8.6359 2.8825
-25.2131 -8.6641 2.8825
-24.5114 -8.6908 2.8825
-23.8427 -8.7161 2.8825
-23.2044 -8.7402 2.8825
-22.5945 -8.7631 2.8825
-22.0110 -8.7850 2.8825
-21.4521 -8.8058 2.8825
-20.9161 -8.8257 2.8825
-20.4017 -8.8446 2.8825
-19.9074 -8.8628 2.8825
-19.4320 -8.8802 2.8825
-18.9743 -8.8968 2.8825
-18.5333 -8.9127 2.8825
-18.1079 -8.9280 2.8825
-17.6974 -8.9427 2.8825
-17.3008 -8.9568 2.8825
-16.9174 -8.9703 2.8825
-16.5464 -8.9834 2.8825
-16.1873 -8.9959 2.8825
-15.8393 -9.0080 2.8825
-15.5020 -9.0196 2.8825
-15.1747 -9.0308 2.8825
-14.8569 -9.0417 2.8825
-14.5482 -9.0521 2.8825
-14.2482 -9.0622 2.8825
-13.9564 -9.0719 2.8825
-13.6719 -9.0809 2.8824
-13.3925 -9.0880 2.8818
-13.1169 -9.0925 2.8804
-12.8532 -9.1000 2.8801
-12.5961 -9.1074 2.8798
-12.3458 -9.1148 2.8797
-12.1018 -9.1222 2.8795
-11.8587 -9.1257 2.8783
-11.6180 -9.1265 2.8763
-11.3811 -9.1256 2.8738
-11.1477 -9.1229 2.8708
-10.9175 -9.1183 2.8673
-10.6914 -9.1127 2.8635
-10.4654 -9.1026 2.8584
-10.2568 -9.1034 2.8568
-10.0575 -9.1085 2.8566
-9.8620 -9.1135 2.8564
-9.6704 -9.1183 2.8562
-9.4824 -9.1229 2.8560
-9.2979 -9.1275 2.8558
-9.1167 -9.1318 2.8556
-8.9387 -9.1361 2.8554
-8.7639 -9.1402 2.8552
-8.5921 -9.1442 2.8550
-8.4232 -9.1480 2.8548
-8.2570 -9.1518 2.8546
-8.0936 -9.1554 2.8545
-7.9327 -9.1590 2.8543
-7.7744 -9.1624 2.8541
-7.6185 -9.1657 2.8539
-7.4649 -9.1690 2.8538
-7.3116 -9.1697 2.8528
-7.1581 -9.1671 2.8510
-7.0070 -9.1646 2.8491
-6.8581 -9.1621 2.8473
-6.7114 -9.1595 2.8454
-6.5656 -9.1553 2.8431
-6.4214 -9.1503 2.8406
-6.2800 -9.1464 2.8385
-6.1406 -9.1426 2.8364
-6.0031 -9.1388 2.8344
-5.8673 -9.1350 2.8323
-5.7333 -9.1313 2.8303
-5.6005 -9.1266 2.8281
-5.4693 -9.1218 2.8258
-5.3397 -9.1171 2.8236
-5.2117 -9.1123 2.8214
-5.0851 -9.1076 2.8192
-4.9601 -9.1029 2.8170
-4.8364 -9.0982 2.8149
-4.7142 -9.0935 2.8128
-4.5932 -9.0889 2.8107
-4.4735 -9.0842 2.8087
-4.3549 -9.0792 2.8065
-4.2375 -9.0743 2.8044
-4.1213 -9.0693 2.8023
-4.0062 -9.0644 2.8003
-3.8922 -9.0595 2.7982
-3.7793 -9.0546 2.7962
-3.6674 -9.0501 2.7944
-3.5564 -9.0456 2.7925
-3.4467 -9.0412 2.7907
-3.3377 -9.0366 2.7888
-3.2295 -9.0319 2.7869
-40.2009 26.4551 -4.8757
-8.7128 5.6121 -1.0251
-8.8527 5.5804 -1.0097
-8.9796 5.5385 -0.9923
-9.0995 5.4904 -0.9735
-9.2210 5.4415 -0.9544
-9.3443 5.3920 -0.9349
-9.4727 5.3436 -0.9155
-9.3198 5.1381 -0.8692
-9.3990 5.0630 -0.8451
-9.4787 4.9874 -0.8208
-9.5588 4.9113 -0.7963
-9.6394 4.8348 -0.7715
-10.0912 4.9392 -0.7751
-9.9555 4.7533 -0.7327
-10.2494 4.7720 -0.7216
-10.1524 4.6073 -0.6827
-9.7261 4.3006 -0.6235
-10.2390 4.4091 -0.6244
-10.2943 4.3150 -0.5959
-10.0145 4.0841 -0.5489
-9.8929 3.9231 -0.5120
-9.8153 3.7828 -0.4781
-9.7395 3.6456 -0.4450
-9.6654 3.5116 -0.4125
-9.5929 3.3806 -0.3807
-37.4317 12.7856 -1.3742
-37.5842 12.4333 -1.2685
-37.7372 12.0806 -1.1624
-40.4896 12.5318 -1.1283
-40.7696 12.1882 -1.0169
-41.0464 11.8405 -0.9043
-41.1289 11.4355 -0.7867
-41.2113 11.0311 -0.6691
-38.6100 7.2023 0.2554
-39.2035 6.9229 0.3703
-39.8133 6.6358 0.4886
-40.2858 6.3164 0.6081
-41.0784 6.0359 0.7360
-41.7422 5.7235 0.8655
-42.4260 5.4016 0.9993
-43.1308 5.0698 1.1374
-43.8577 4.7276 1.2800
-44.6080 4.3744 1.4276
-45.2172 3.9950 1.5745
-46.1953 3.6335 1.7388
-17.4610 1.2044 0.7065
-47.8818 2.8396 2.0725
-48.7704 2.4213 2.2488
-49.5208 1.9806 2.4236
-48.0674 0.5323 2.7619
-47.7949 0.0688 2.8825
-45.6332 -0.3741 2.8825
-43.6536 -0.7788 2.8825
-41.8340 -1.1499 2.8825
-40.1554 -1.4914 2.8825
-38.6017 -1.8067 2.8825
-37.1593 -2.0986 2.8825
-35.8161 -2.3697 2.8825
-34.5624 -2.6221 2.8825
-33.3890 -2.8576 2.8825
-25.2567 -2.4076 2.2548
-29.6013 -3.1106 2.7301
-28.6782 -3.2941 2.7301
-27.8070 -3.4668 2.7301
-26.9833 -3.6295 2.7301
-26.2032 -3.7831 2.7301
-25.4631 -3.9282 2.7301
-25.3347 -4.1600 2.7935
-25.4357 -4.4301 2.8825
-24.7626 -4.5606 2.8825
-24.1205 -4.6846 2.8825
-23.5070 -4.8027 2.8825
-22.9204 -4.9151 2.8825
-22.3586 -5.0222 2.8825
-21.8200 -5.1245 2.8825
-21.3033 -5.2222 2.8825
-20.8069 -5.3156 2.8825
-20.3297 -5.4051 2.8825
-19.8703 -5.4907 2.8825
-19.4279 -5.5728 2.8825
-19.0013 -5.6515 2.8825
-18.5897 -5.7271 2.8825
-18.1922 -5.7998 2.8825
-17.8081 -5.8696 2.8825
-17.4366 -5.9367 2.8825
-17.0771 -6.0014 2.8825
-16.7288 -6.0637 2.8825
-16.3912 -6.1237 2.8825
-16.0620 -6.1808 2.8821
-15.7426 -6.2359 2.8818
-15.4325 -6.2891 2.8815
-15.1322 -6.3408 2.8814
-14.8403 -6.3907 2.8812
-14.5563 -6.4390 2.8811
-14.2800 -6.4857 2.8810
-14.0110 -6.5308 2.8809
-13.7489 -6.5745 2.8807
-13.4934 -6.6168 2.8806
-13.2442 -6.6578 2.8805
-13.0012 -6.6975 2.8804
-12.7639 -6.7359 2.8803
-12.5315 -6.7729 2.8800
-12.2981 -6.8051 2.8783
-12.0680 -6.8351 2.8761
-11.8409 -6.8626 2.8733
-11.6164 -6.8877 2.8699
-11.3943 -6.9102 2.8659
-11.1791 -6.9329 2.8624
-10.9810 -6.9625 2.8621
-10.7869 -6.9913 2.8618
-10.5967 -7.0193 2.8616
-10.4102 -7.0464 2.8613
-10.2273 -7.0729 2.8611
-10.0479 -7.0986 2.8609
-9.8718 -7.1235 2.8606
-9.6989 -7.1478 2.8604
-9.5292 -7.1715 2.8602
-9.3623 -7.1945 2.8600
-9.1984 -7.2169 2.8598
-9.0373 -7.2387 2.8595
-8.8788 -7.2599 2.8593
-8.7229 -7.2806 2.8591
-8.5696 -7.3007 2.8589
-8.4186 -7.3203 2.8588
-8.2700 -7.3393 2.8586
-8.1237 -7.3579 2.8584
-7.9795 -7.3759 2.8582
-7.8374 -7.3935 2.8580
-7.6975 -7.4107 2.8578
-7.5594 -7.4274 2.8576
-7.4233 -7.4437 2.8574
-7.2891 -7.4596 2.8573
-7.1566 -7.4750 2.8571
-7.0259 -7.4901 2.8569
-6.8968 -7.5048 2.8568
-6.7694 -7.5191 2.8566
-6.6436 -7.5330 2.8564
-6.5193 -7.5466 2.8563
-6.3965 -7.5599 2.8561
-6.2752 -7.5728 2.8560
-6.1552 -7.5854 2.8558
-6.0366 -7.5976 2.8557
-5.9193 -7.6095 2.8555
-5.8032 -7.6212 2.8554
-5.6885 -7.6325 2.8552
-5.5748 -7.6435 2.8551
-5.4624 -7.6543 2.8549
-5.3511 -7.6648 2.8548
-5.2409 -7.6750 2.8547
-5.1316 -7.6849 2.8545
-5.0235 -7.6946 2.8544
-4.9163 -7.7040 2.8543
-4.8101 -7.7131 2.8541
-4.7049 -7.7220 2.8540
-4.6005 -7.7307 2.8539
-4.4970 -7.7391 2.8537
-4.3944 -7.7473 2.8536
-4.2918 -7.7539 2.8530
-4.1889 -7.7581 2.8516
-4.0869 -7.7621 2.8502
-3.9857 -7.7659 2.8488
-3.8854 -7.7695 2.8474
-3.7854 -7.7720 2.8456
-3.6859 -7.7737 2.8437
-3.5872 -7.7751 2.8418
-3.4892 -7.7764 2.8398
-3.3922 -7.7779 2.8381
-3.2961 -7.7797 2.8365
-3.2006 -7.7813 2.8349
-3.1059 -7.7828 2.8334
-3.0118 -7.7842 2.8318
-2.9182 -7.7851 2.8302
-2.8250 -7.7855 2.8285
-36.0547 28.0558 -3.2888
-35.5994 27.1479 -3.1216
-35.9586 26.8712 -3.0275
-36.3398 26.6079 -2.9342
-36.7241 26.3435 -2.8399
-37.1216 26.0849 -2.7452
-37.5217 25.8241 -2.6493
-37.5502 25.3090 -2.5270
-38.0238 25.0940 -2.4342
-38.8359 25.0916 -2.3601
-39.4022 24.9184 -2.2677
-39.8201 24.6447 -2.1647
-40.3215 24.4171 -2.0644
-40.8293 24.1865 -1.9622
-9.0097 5.2199 -0.4050
-9.1270 5.1704 -0.3820
-9.2460 5.1201 -0.3587
-9.3666 5.0691 -0.3348
-9.4891 5.0172 -0.3105
-9.6133 4.9645 -0.2857
-9.6995 4.8908 -0.2593
-9.9229 4.8837 -0.2358
-9.9391 4.7729 -0.2069
-10.0206 4.6936 -0.1792
-10.0876 4.6067 -0.1509
-9.9764 4.4400 -0.1203
-9.8684 4.2784 -0.0905
-9.7635 4.1215 -0.0614
-9.7426 4.0024 -0.0334
-9.6679 3.8633 -0.0056
-9.5949 3.7273 0.0217
-30.6505 11.2321 0.2426
-30.5998 10.8805 0.3283
-31.0141 10.6927 0.4197
-31.5339 10.5334 0.5149
-31.9572 10.3342 0.6110
-32.3892 10.1308 0.7094
-32.8304 9.9231 0.8102
-33.2809 9.7110 0.9135
-33.7413 9.4942 1.0195
-34.2120 9.2727 1.1283
-34.6934 9.0460 1.2399
-35.1859 8.8142 1.3545
-35.5580 8.5451 1.4668
-36.2047 8.3333 1.5931
-36.7337 8.0842 1.7175
-37.2762 7.8288 1.8454
-37.8326 7.5669 1.9770
-38.4036 7.2981 2.1126
-38.9899 7.0221 2.2521
-39.5924 6.7384 2.3960
-40.0579 6.4223 2.5346
-41.3454 6.2218 2.7302
-39.6843 5.5824 2.7301
-38.5200 5.0416 2.7566
-38.7783 4.6967 2.8825
-37.3823 4.1635 2.8825
-36.0807 3.6677 2.8825
-34.8644 3.2057 2.8825
-33.7247 2.7742 2.8825
-17.4459 1.2663 1.5400
-31.6476 1.9913 2.8825
-30.6982 1.6351 2.8825
-29.8014 1.2999 2.8825
-28.9528 0.9838 2.8825
-28.1483 0.6851 2.8825
-27.3848 0.4027 2.8825
-26.6588 0.1352 2.8825
-24.5946 -0.1123 2.7301
-23.9704 -0.3405 2.7301
-23.3745 -0.5576 2.7301
-22.8050 -0.7642 2.7301
-22.2600 -0.9610 2.7301
-21.7380 -1.1488 2.7301
-21.2373 -1.3281 2.7301
-20.7566 -1.4995 2.7301
-20.2947 -1.6635 2.7301
-20.4955 -1.8797 2.8188
-20.5069 -2.0810 2.8825
-20.0717 -2.2333 2.8825
-19.6521 -2.3795 2.8825
-19.2470 -2.5199 2.8825
-18.8558 -2.6548 2.8825
-18.4776 -2.7846 2.8825
-18.1117 -2.9095 2.8825
-17.7575 -3.0298 2.8825
-17.4144 -3.1457 2.8825
-17.0818 -3.2574 2.8825
-16.7592 -3.3651 2.8825
-16.4460 -3.4691 2.8825
-16.1411 -3.5694 2.8823
-15.8448 -3.6662 2.8822
-15.5568 -3.7598 2.8821
-15.2767 -3.8503 2.8819
-15.0040 -3.9378 2.8818
-14.7385 -4.0226 2.8817
-14.4799 -4.1046 2.8815
-14.2278 -4.1840 2.8814
-13.9819 -4.2610 2.8813
-13.7421 -4.3356 2.8812
-13.5080 -4.4079 2.8811
-13.2793 -4.4780 2.8810
-13.0560 -4.5461 2.8809
-12.8309 -4.6097 2.8792
-12.6081 -4.6703 2.8770
-12.3873 -4.7278 2.8740
-12.1680 -4.7821 2.8703
-11.9581 -4.8364 2.8676
-11.7623 -4.8930 2.8673
-11.5704 -4.9479 2.8670
-11.3824 -5.0013 2.8667
-11.1982 -5.0533 2.8664
-11.0175 -5.1038 2.8661
-10.8403 -5.1530 2.8658
-10.6665 -5.2009 2.8655
-10.4958 -5.2475 2.8653
-10.3283 -5.2929 2.8650
-10.1638 -5.3371 2.8647
-10.0021 -5.3801 2.8645
-9.8433 -5.4220 2.8642
-9.6872 -5.4629 2.8640
-9.5337 -5.5027 2.8638
-9.3827 -5.5415 2.8635
-9.2341 -5.5794 2.8633
-9.0879 -5.6163 2.8631
-8.9440 -5.6523 2.8628
-8.8023 -5.6873 2.8626
-8.6628 -5.7216 2.8624
-8.5253 -5.7550 2.8622
-8.3899 -5.7876 2.8620
-8.2564 -5.8193 2.8618
-8.1248 -5.8504 2.8616
-7.9950 -5.8806 2.8614
-7.8670 -5.9102 2.8612
-7.7407 -5.9391 2.8610
-7.6161 -5.9672 2.8608
-7.4930 -5.9947 2.8606
-7.3716 -6.0215 2.8605
-7.2517 -6.0477 2.8603
-7.1333 -6.0733 2.8601
-7.0162 -6.0983 2.8599
-6.9006 -6.1227 2.8597
-6.7864 -6.1465 2.8596
-6.6735 -6.1698 2.8594
-6.5618 -6.1925 2.8592
-6.4514 -6.2147 2.8591
-6.3422 -6.2364 2.8589
-6.2342 -6.2576 2.8588
-6.1273 -6.2782 2.8586
-6.0215 -6.2984 2.8584
-5.9169 -6.3181 2.8583
-5.8132 -6.3374 2.8581
-5.7105 -6.3562 2.8580
-5.6089 -6.3746 2.8579
-5.5082 -6.3925 2.8577
-5.4085 -6.4100 2.8576
-5.3097 -6.4271 2.8574
-5.2117 -6.4438 2.8573
-5.1146 -6.4601 2.8571
-5.0184 -6.4760 2.8570
-4.9229 -6.4915 2.8569
-4.8283 -6.5066 2.8567
-4.7344 -6.5214 2.8566
-4.6413 -6.5358 2.8565
-4.5489 -6.5498 2.8564
-4.4572 -6.5635 2.8562
-4.3661 -6.5769 2.8561
-4.2758 -6.5899 2.8560
-4.1861 -6.6026 2.8559
-4.0970 -6.6150 2.8558
-4.0085 -6.6271 2.8556
-3.9207 -6.6388 2.8555
-3.8334 -6.6502 2.8554
-3.7467 -6.6614 2.8553
-3.6605 -6.6722 2.8552
-3.5749 -6.6827 2.8551
-3.4897 -6.6930 2.8549
-3.4051 -6.7029 2.8548
-3.3209 -6.7126 2.8547
-3.2372 -6.7220 2.8546
-3.1540 -6.7311 2.8545
-3.0712 -6.7400 2.8544
-2.9888 -6.7486 2.8543
-2.9069 -6.7569 2.8542
-2.8253 -6.7650 2.8541
-2.7441 -6.7728 2.8540
-2.6633 -6.7803 2.8539
-2.5828 -6.7876 2.8538
-2.5028 -6.7947 2.8537
-36.4882 29.0108 -1.2361
-36.0861 28.1252 -1.1108
-35.6988 27.2721 -0.9895
-35.6384 26.6840 -0.8796
-35.9695 26.3931 -0.7795
-36.3234 26.1164 -0.6786
-35.8035 25.2216 -0.5628
-37.4890 25.8710 -0.4791
-37.9586 25.6578 -0.3743
-38.4337 25.4421 -0.2676
-38.8381 25.1746 -0.1585
-37.9811 24.1023 -0.0464
-38.4557 23.8868 0.0624
-39.4996 24.0110 0.1757
-40.7364 24.2287 0.2957
-41.2460 23.9973 0.4147
-24.4182 13.8940 0.3134
-24.7193 13.7523 0.3857
-9.8389 5.3505 0.1806
-9.8475 5.2331 0.2078
-9.2639 4.8094 0.2208
-9.3820 4.7568 0.2491
-9.8724 4.8869 0.2889
-9.9127 4.7888 0.3169
-9.9004 4.6662 0.3432
-9.8214 4.5143 0.3668
-9.7443 4.3661 0.3901
-9.6689 4.2214 0.4129
-9.5953 4.0801 0.4353
-9.5234 3.9422 0.4574
-10.4590 4.2125 0.5302
-29.4338 11.5281 1.5701
-29.8146 11.3489 1.6694
-30.2024 11.1663 1.7710
-30.5187 10.9520 1.8702
-30.8784 10.7483 1.9739
-31.4020 10.5944 2.0903
-31.8208 10.3972 2.2022
-32.2481 10.1960 2.3169
-32.6844 9.9906 2.4345
-33.1299 9.7809 2.5552
-34.2265 9.7492 2.7302
-33.1267 9.0939 2.7301
-32.0958 8.4812 2.7301
-31.9746 8.1224 2.8045
-31.8988 7.7787 2.8825
-30.9875 7.2427 2.8825
-30.1255 6.7376 2.8825
-29.3086 6.2607 2.8825
-28.5334 5.8099 2.8825
-27.7965 5.3830 2.8825
-27.0950 4.9783 2.8825
-26.4263 4.5940 2.8825
-25.7882 4.2289 2.8825
-25.1784 3.8813 2.8825
-24.5948 3.5503 2.8825
-24.0360 3.2346 2.8825
-23.5001 2.9333 2.8825
-22.9858 2.6454 2.8825
-22.4916 2.3700 2.8825
-22.0163 2.1064 2.8825
-20.4190 1.7559 2.7301
-20.0015 1.5266 2.7301
-19.5990 1.3066 2.7301
-19.2105 1.0953 2.7301
-18.8353 0.8923 2.7301
-18.4727 0.6971 2.7301
-18.1220 0.5093 2.7301
-17.7825 0.3285 2.7301
-17.4537 0.1543 2.7301
-17.1350 -0.0137 2.7301
-16.9175 -0.1766 2.7450
-17.2366 -0.3462 2.8475
-17.1411 -0.5097 2.8825
-16.8423 -0.6636 2.8825
-16.5519 -0.8124 2.8825
-16.2695 -0.9562 2.8825
-15.9946 -1.0953 2.8825
-15.7270 -1.2300 2.8825
-15.4663 -1.3603 2.8825
-15.2115 -1.4865 2.8824
-14.9631 -1.6088 2.8822
-14.7208 -1.7273 2.8821
-14.4843 -1.8423 2.8820
-14.2535 -1.9537 2.8819
-14.0280 -2.0619 2.8818
-13.8077 -2.1669 2.8817
-13.5924 -2.2688 2.8815
-13.3760 -2.3668 2.8802
-13.1590 -2.4609 2.8777
-12.9415 -2.5511 2.8740
-12.7411 -2.6411 2.8731
-12.5471 -2.7289 2.8727
-12.3571 -2.8144 2.8723
-12.1709 -2.8975 2.8720
-11.9884 -2.9784 2.8716
-11.8094 -3.0572 2.8713
-11.6339 -3.1338 2.8709
-11.4617 -3.2084 2.8706
-11.2928 -3.2811 2.8703
-11.1268 -3.3520 2.8699
-10.9639 -3.4209 2.8696
-10.8039 -3.4882 2.8693
-10.6467 -3.5537 2.8690
-10.4921 -3.6177 2.8687
-10.3402 -3.6800 2.8685
-10.1908 -3.7408 2.8682
-10.0438 -3.8001 2.8679
-9.8992 -3.8580 2.8676
-9.7569 -3.9144 2.8674
-9.6168 -3.9695 2.8671
-9.4788 -4.0233 2.8669
-9.3429 -4.0758 2.8666
-9.2091 -4.1271 2.8664
-9.0772 -4.1772 2.8661
-8.9472 -4.2262 2.8659
-8.8191 -4.2740 2.8657
-8.6927 -4.3207 2.8654
-8.5681 -4.3663 2.8652
-8.4452 -4.4109 2.8650
-8.3239 -4.4544 2.8648
-8.2042 -4.4970 2.8646
-8.0860 -4.5386 2.8644
-7.9694 -4.5793 2.8641
-7.8542 -4.6191 2.8639
-7.7404 -4.6580 2.8637
-7.6280 -4.6961 2.8636
-7.5170 -4.7332 2.8634
-7.4072 -4.7696 2.8632
-7.2988 -4.8052 2.8630
-7.1915 -4.8400 2.8628
-7.0855 -4.8740 2.8626
-6.9806 -4.9073 2.8624
-6.8769 -4.9399 2.8623
-6.7743 -4.9717 2.8621
-6.6727 -5.0029 2.8619
-6.5723 -5.0334 2.8617
-6.4728 -5.0632 2.8616
-6.3743 -5.0924 2.8614
-6.2769 -5.1210 2.8612
-6.1803 -5.1489 2.8611
-6.0847 -5.1763 2.8609
-5.9900 -5.2030 2.8608
-5.8961 -5.2292 2.8606
-5.8031 -5.2548 2.8605
-5.7110 -5.2798 2.8603
-5.6196 -5.3043 2.8602
-5.5291 -5.3283 2.8600
-5.4393 -5.3518 2.8599
-5.3503 -5.3747 2.8597
-5.2620 -5.3971 2.8596
-5.1744 -5.4191 2.8595
-5.0875 -5.4406 2.8593
-5.0013 -5.4616 2.8592
-4.9157 -5.4821 2.8590
-4.8308 -5.5022 2.8589
-4.7465 -5.5218 2.8588
-4.6628 -5.5410 2.8587
-4.5797 -5.5598 2.8585
-4.4973 -5.5781 2.8584
-4.4153 -5.5961 2.8583
-4.3340 -5.6136 2.8582
-4.2531 -5.6307 2.8580
-4.1728 -5.6474 2.8579
-4.0930 -5.6637 2.8578
-4.0137 -5.6797 2.8577
-3.9349 -5.6953 2.8576
-3.8565 -5.7105 2.8574
-3.7786 -5.7253 2.8573
-3.7012 -5.7398 2.8572
-3.6242 -5.7539 2.8571
-3.5476 -5.7677 2.8570
-3.4714 -5.7811 2.8569
-3.3957 -5.7942 2.8568
-3.3203 -5.8069 2.8567
-3.2453 -5.8193 2.8566
-3.1707 -5.8314 2.8565
-3.0964 -5.8432 2.8564
-3.0225 -5.8546 2.8563
-2.9489 -5.8658 2.8562
-2.8756 -5.8766 2.8561
-2.8027 -5.8872 2.8560
-2.7301 -5.8974 2.8559
-2.6577 -5.9073 2.8558
-2.5857 -5.9169 2.8557
-2.5139 -5.9263 2.8556
-2.4425 -5.9353 2.8555
-2.3713 -5.9441 2.8554
-2.3003 -5.9525 2.8553
-2.2296 -5.9607 2.8552
-19.7779 16.0644 0.4803
-20.0247 15.9482 0.5393
-20.2738 15.8309 0.5994
-20.5251 15.7126 0.6605
-20.7790 15.5931 0.7228
-21.0353 15.4724 0.7862
-21.2165 15.2945 0.8476
-21.4771 15.1718 0.9132
-21.8316 15.1108 0.9840
-22.0989 14.9849 1.0523
-22.3693 14.8577 1.1219
-22.6427 14.7290 1.1928
-22.9193 14.5987 1.2651
-23.1992 14.4670 1.3387
-23.4824 14.3336 1.4139
-23.7692 14.1986 1.4905
-24.0597 14.0619 1.5687
-24.3539 13.9233 1.6484
-24.6520 13.7830 1.7298
-24.9541 13.6408 1.8128
-25.2605 13.4965 1.8976
-25.5711 13.3503 1.9842
-25.7871 13.1513 2.0646
-10.2576 5.1086 0.8466
-9.8550 4.7912 0.8377
-9.9155 4.7042 0.8673
-27.1900 12.5835 2.4453
-27.5301 12.4234 2.5438
-28.7813 12.6590 2.7304
-28.0485 12.0187 2.7301
-27.3543 11.4138 2.7301
-26.6930 10.8401 2.7301
-26.7753 10.5773 2.8048
-26.8811 10.3239 2.8825
-26.2730 9.8039 2.8825
-25.6908 9.3086 2.8825
-25.1329 8.8363 2.8825
-24.5976 8.3854 2.8825
-24.0836 7.9547 2.8825
-23.5894 7.5427 2.8825
-23.1140 7.1485 2.8825
-22.6561 6.7708 2.8825
-22.2147 6.4088 2.8825
-21.7890 6.0614 2.8825
-21.3780 5.7279 2.8825
-20.9808 5.4075 2.8825
-20.5968 5.0994 2.8825
-20.2253 4.8030 2.8825
-19.8655 4.5177 2.8825
-19.5169 4.2428 2.8825
-19.1789 3.9779 2.8825
-18.8511 3.7224 2.8825
-17.5529 3.2922 2.7301
-17.2602 3.0668 2.7301
-16.9757 2.8491 2.7301
-16.6990 2.6387 2.7301
-16.4298 2.4353 2.7301
-16.1678 2.2386 2.7301
-15.9126 2.0482 2.7301
-15.6641 1.8638 2.7301
-15.4217 1.6853 2.7301
-15.1853 1.5124 2.7301
-14.9548 1.3447 2.7301
-14.7296 1.1822 2.7301
-14.5098 1.0245 2.7301
-14.6346 0.8921 2.7949
-14.8715 0.7633 2.8825
-14.6549 0.6110 2.8825
-14.4427 0.4631 2.8824
-14.2348 0.3193 2.8823
-14.0277 0.1796 2.8815
-13.8216 0.0438 2.8799
-13.6249 -0.0881 2.8794
-13.4322 -0.2164 2.8790
-13.2435 -0.3412 2.8785
-13.0585 -0.4627 2.8781
-12.8771 -0.5809 2.8776
-12.6992 -0.6959 2.8772
-12.5247 -0.8080 2.8768
-12.3535 -0.9171 2.8764
-12.1854 -1.0235 2.8760
-12.0203 -1.1271 2.8756
-11.8582 -1.2281 2.8752
-11.6990 -1.3265 2.8748
-11.5425 -1.4225 2.8745
-11.3886 -1.5162 2.8741
-11.2374 -1.6075 2.8738
-11.0886 -1.6966 2.8734
-10.9423 -1.7836 2.8731
-10.7983 -1.8685 2.8728
-10.6566 -1.9514 2.8725
-10.5171 -2.0323 2.8721
-10.3797 -2.1113 2.8718
-10.2444 -2.1885 2.8715
-10.1111 -2.2639 2.8712
-9.9798 -2.3376 2.8710
-9.8504 -2.4096 2.8707
-9.7228 -2.4800 2.8704
-9.5970 -2.5488 2.8701
-9.4730 -2.6160 2.8699
-9.3506 -2.6817 2.8696
-9.2299 -2.7460 2.8693
-9.1108 -2.8089 2.8691
-8.9932 -2.8704 2.8688
-8.8772 -2.9306 2.8686
-8.7626 -2.9894 2.8683
-8.6495 -3.0470 2.8681
-8.5378 -3.1034 2.8679
-8.4274 -3.1585 2.8676
-8.3184 -3.2125 2.8674
-8.2106 -3.2654 2.8672
-8.1041 -3.3171 2.8670
-7.9988 -3.3677 2.8668
-7.8947 -3.4173 2.8666
-7.7918 -3.4659 2.8663
-7.6900 -3.5134 2.8661
-7.5893 -3.5600 2.8659
-7.4897 -3.6056 2.8657
-7.3911 -3.6502 2.8655
-7.2936 -3.6940 2.8654
-7.1970 -3.7368 2.8652
-7.1015 -3.7788 2.8650
-7.0068 -3.8200 2.8648
-6.9131 -3.8602 2.8646
-6.8204 -3.8997 2.8644
-6.7285 -3.9384 2.8643
-6.6374 -3.9763 2.8641
-6.5472 -4.0134 2.8639
-6.4578 -4.0498 2.8637
-6.3693 -4.0855 2.8636
-6.2814 -4.1204 2.8634
-6.1944 -4.1546 2.8632
-6.1081 -4.1882 2.8631
-6.0226 -4.2211 2.8629
-5.9377 -4.2533 2.8628
-5.8536 -4.2849 2.8626
-5.7701 -4.3158 2.8625
-5.6874 -4.3461 2.8623
-5.6052 -4.3758 2.8622
-5.5237 -4.4050 2.8620
-5.4428 -4.4335 2.8619
-5.3625 -4.4615 2.8617
-5.2828 -4.4888 2.8616
-5.2037 -4.5157 2.8614
-5.1252 -4.5420 2.8613
-5.0472 -4.5678 2.8612
-4.9697 -4.5930 2.8610
-4.8928 -4.6177 2.8609
-4.8164 -4.6420 2.8608
-4.7405 -4.6657 2.8606
-4.6651 -4.6889 2.8605
-4.5901 -4.7117 2.8604
-4.5157 -4.7340 2.8602
-4.4417 -4.7558 2.8601
-4.3681 -4.7771 2.8600
-4.2950 -4.7981 2.8599
-4.2223 -4.8185 2.8598
-4.1500 -4.8386 2.8596
-4.0782 -4.8582 2.8595
-4.0067 -4.8774 2.8594
-3.9356 -4.8961 2.8593
-3.8649 -4.9145 2.8592
-3.7946 -4.9324 2.8591
-3.7246 -4.9500 2.8589
-3.6550 -4.9672 2.8588
-3.5858 -4.9839 2.8587
-3.5169 -5.0003 2.8586
-3.4483 -5.0164 2.8585
-3.3800 -5.0320 2.8584
-3.3120 -5.0473 2.8583
-3.2444 -5.0622 2.8582
-3.1770 -5.0768 2.8581
-3.1100 -5.0910 2.8580
-3.0432 -5.1048 2.8579
-2.9767 -5.1184 2.8578
-2.9104 -5.1315 2.8577
-2.8444 -5.1444 2.8576
-2.7787 -5.1569 2.8575
-2.7132 -5.1691 2.8574
-2.6480 -5.1809 2.8573
-2.5830 -5.1925 2.8572
-2.5182 -5.2037 2.8571
-2.4537 -5.2146 2.8570
-2.3893 -5.2252 2.8570
-2.3252 -5.2354 2.8569
-2.2612 -5.2454 2.8568
-2.1975 -5.2551 2.8567
-2.1339 -5.2644 2.8566
-2.0706 -5.2735 2.8565
-2.0074 -5.2823 2.8564
-19.5113 16.1890 1.6300
-19.7535 16.0750 1.6936
-19.9978 15.9600 1.7584
-20.2444 15.8439 1.8244
-20.4934 15.7267 1.8916
-20.7447 15.6083 1.9602
-20.9985 15.4889 2.0300
-21.1772 15.3121 2.0935
-21.4353 15.1906 2.1658
-21.7869 15.1309 2.2489
-22.0516 15.0063 2.3244
-22.3193 14.8803 2.4014
-22.5899 14.7529 2.4799
-22.8637 14.6240 2.5600
-23.9172 14.9798 2.7304
-23.4637 14.3876 2.7301
-23.0289 13.8220 2.7301
-22.6093 13.2800 2.7301
-22.2079 12.7625 2.7306
-22.4488 12.6192 2.8098
-22.6296 12.4399 2.8825
-22.2422 11.9537 2.8825
-21.8670 11.4861 2.8825
-21.5033 11.0362 2.8825
-21.1506 10.6030 2.8825
-9.8161 4.8050 1.3598
-9.8785 4.7199 1.3906
-20.1529 9.3955 2.8825
-19.8389 9.0211 2.8825
-19.5335 8.6597 2.8825
-19.2363 8.3106 2.8825
-18.9469 7.9732 2.8825
-18.6649 7.6471 2.8825
-18.3902 7.3316 2.8825
-18.1223 7.0264 2.8825
-17.8610 6.7309 2.8825
-17.6060 6.4447 2.8825
-17.3570 6.1675 2.8825
-17.1138 5.8988 2.8825
-16.8762 5.6383 2.8825
-16.6440 5.3857 2.8825
-16.4168 5.1405 2.8825
-16.1947 4.9026 2.8825
-15.1326 4.4246 2.7301
-14.9310 4.2121 2.7301
-14.7336 4.0057 2.7301
-14.5403 3.8051 2.7301
-14.3509 3.6101 2.7301
-14.1652 3.4205 2.7301
-13.9831 3.2360 2.7301
-13.8046 3.0566 2.7301
-13.6294 2.8820 2.7301
-13.4575 2.7120 2.7301
-13.2887 2.5465 2.7301
-13.1230 2.3853 2.7301
-12.9603 2.2283 2.7301
-12.8004 2.0753 2.7301
-12.6432 1.9262 2.7301
-12.6972 1.8105 2.7756
-12.8788 1.7111 2.8500
-12.8669 1.5845 2.8822
-12.7099 1.4419 2.8818
-12.5554 1.3029 2.8813
-12.4034 1.1672 2.8809
-12.2539 1.0348 2.8804
-12.1068 0.9057 2.8800
-11.9619 0.7795 2.8796
-11.8193 0.6564 2.8792
-11.6789 0.5362 2.8788
-11.5405 0.4188 2.8784
-11.4042 0.3041 2.8780
-11.2699 0.1920 2.8777
-11.1376 0.0825 2.8773
-11.0071 -0.0245 2.8769
-10.8784 -0.1291 2.8766
-10.7515 -0.2314 2.8762
-10.6264 -0.3314 2.8759
-10.5029 -0.4292 2.8756
-10.3811 -0.5248 2.8752
-10.2609 -0.6184 2.8749
-10.1422 -0.7099 2.8746
-10.0251 -0.7995 2.8743
-9.9094 -0.8871 2.8740
-9.7952 -0.9729 2.8737
-9.6823 -1.0569 2.8734
-9.5709 -1.1391 2.8731
-9.4607 -1.2195 2.8728
-9.3519 -1.2983 2.8725
-9.2444 -1.3755 2.8723
-9.1381 -1.4511 2.8720
-9.0330 -1.5251 2.8717
-8.9290 -1.5976 2.8715
-8.8263 -1.6687 2.8712
-8.7246 -1.7383 2.8710
-8.6241 -1.8065 2.8707
-8.5246 -1.8733 2.8705
-8.4262 -1.9388 2.8702
-8.3288 -2.0031 2.8700
-8.2324 -2.0660 2.8698
-8.1370 -2.1277 2.8695
-8.0425 -2.1882 2.8693
-7.9490 -2.2475 2.8691
-7.8564 -2.3056 2.8689
-7.7647 -2.3627 2.8687
-7.6738 -2.4186 2.8685
-7.5838 -2.4734 2.8683
-7.4947 -2.5272 2.8680
-7.4063 -2.5799 2.8678
-7.3188 -2.6317 2.8676
-7.2320 -2.6824 2.8675
-7.1460 -2.7322 2.8673
-7.0608 -2.7811 2.8671
-6.9762 -2.8290 2.8669
-6.8924 -2.8760 2.8667
-6.8094 -2.9221 2.8665
-6.7269 -2.9674 2.8663
-6.6452 -3.0118 2.8662
-6.5641 -3.0554 2.8660
-6.4837 -3.0982 2.8658
-6.4039 -3.1401 2.8656
-6.3247 -3.1813 2.8655
-6.2461 -3.2217 2.8653
-6.1681 -3.2614 2.8651
-6.0907 -3.3003 2.8650
-6.0138 -3.3385 2.8648
-5.9375 -3.3760 2.8647
-5.8618 -3.4127 2.8645
-5.7866 -3.4488 2.8643
-5.7119 -3.4843 2.8642
-5.6377 -3.5190 2.8640
-5.5641 -3.5532 2.8639
-5.4909 -3.5866 2.8637
-5.4182 -3.6195 2.8636
-5.3460 -3.6517 2.8634
-5.2742 -3.6834 2.8633
-5.2029 -3.7144 2.8632
-5.1320 -3.7449 2.8630
-5.0616 -3.7748 2.8629
-4.9916 -3.8041 2.8627
-4.9220 -3.8329 2.8626
-4.8528 -3.8612 2.8625
-4.7840 -3.8889 2.8623
-4.7156 -3.9160 2.8622
-4.6476 -3.9427 2.8621
-4.5800 -3.9688 2.8620
-4.5128 -3.9945 2.8618
-4.4459 -4.0196 2.8617
-4.3793 -4.0443 2.8616
-4.3131 -4.0685 2.8615
-4.2473 -4.0922 2.8613
-4.1818 -4.1155 2.8612
-4.1166 -4.1383 2.8611
-4.0517 -4.1606 2.8610
-3.9871 -4.1825 2.8609
-3.9229 -4.2040 2.8608
-3.8589 -4.2250 2.8606
-3.7953 -4.2456 2.8605
-3.7319 -4.2658 2.8604
-3.6688 -4.2855 2.8603
-3.6060 -4.3049 2.8602
-3.5434 -4.3238 2.8601
-3.4811 -4.3424 2.8600
-3.4191 -4.3605 2.8599
-3.3573 -4.3783 2.8598
-3.2958 -4.3957 2.8597
-3.2345 -4.4127 2.8596
-3.1734 -4.4293 2.8595
-3.1126 -4.4456 2.8594
-3.0520 -4.4615 2.8593
-2.9916 -4.4770 2.8592
-2.9314 -4.4922 2.8591
-2.8714 -4.5070 2.8590
-2.8117 -4.5215 2.8589
-2.7521 -4.5356 2.8588
-2.6927 -4.5494 2.8587
-2.6336 -4.5629 2.8586
-2.5746 -4.5760 2.8585
-2.5157 -4.5888 2.8585
-2.4571 -4.6012 2.8584
-2.3986 -4.6133 2.8583
-2.3403 -4.6251 2.8582
-2.2822 -4.6366 2.8581
-2.2242 -4.6478 2.8580
-2.1664 -4.6586 2.8579
-2.1087 -4.6692 2.8579
-2.0511 -4.6794 2.8578
-1.9937 -4.6894 2.8577
-1.9365 -4.6990 2.8576
-1.8793 -4.7083 2.8575
-1.8223 -4.7173 2.8575
-18.9336 16.0487 2.7301
-18.7091 15.5575 2.7301
-18.4885 15.0814 2.7301
-18.2731 14.6208 2.7303
-18.4752 14.4989 2.7930
-18.6894 14.3844 2.8585
-18.6293 14.0606 2.8825
-18.4161 13.6291 2.8825
-18.2063 13.2101 2.8825
-18.0001 12.8034 2.8825
-17.7973 12.4083 2.8825
-17.5977 12.0244 2.8825
-17.4014 11.6513 2.8825
-17.2083 11.2887 2.8825
-17.0182 10.9362 2.8825
-16.8311 10.5933 2.8825
-16.6468 10.2598 2.8825
-16.4655 9.9353 2.8825
-16.2869 9.6195 2.8825
-16.1110 9.3121 2.8825
-15.9377 9.0128 2.8825
-15.7670 8.7213 2.8825
-15.5987 8.4374 2.8825
-15.4330 8.1609 2.8825
-15.2696 7.8914 2.8825
-15.1085 7.6287 2.8825
-9.7976 4.8318 1.8891
-9.8590 4.7471 1.9211
-9.9208 4.6623 1.9535
-14.4864 6.6420 2.8825
-14.3361 6.4103 2.8825
-14.1879 6.1843 2.8825
-14.0417 5.9636 2.8825
-13.8973 5.7483 2.8825
-13.0276 5.2453 2.7301
-12.8945 5.0509 2.7301
-12.7630 4.8610 2.7301
-12.6332 4.6755 2.7301
-12.5050 4.4944 2.7301
-12.3784 4.3174 2.7301
-12.2534 4.1444 2.7301
-12.1299 3.9754 2.7301
-12.0079 3.8101 2.7301
-11.8874 3.6486 2.7301
-11.7683 3.4906 2.7301
-11.6505 3.3361 2.7301
-11.5342 3.1850 2.7301
-11.4192 3.0372 2.7301
-11.3055 2.8926 2.7301
-11.1931 2.7511 2.7301
-11.0819 2.6127 2.7301
-11.1822 2.5247 2.7824
-11.3267 2.4446 2.8466
-11.3554 2.3382 2.8823
-11.2416 2.2037 2.8819
-11.1289 2.0720 2.8815
-11.0176 1.9431 2.8811
-10.9074 1.8168 2.8808
-10.7984 1.6932 2.8804
-10.6905 1.5722 2.8800
-10.5839 1.4536 2.8797
-10.4783 1.3374 2.8793
-10.3738 1.2236 2.8790
-10.2703 1.1120 2.8786
-10.1679 1.0028 2.8783
-10.0666 0.8957 2.8779
-9.9662 0.7907 2.8776
-9.8668 0.6878 2.8773
-9.7685 0.5869 2.8770
-9.6710 0.4880 2.8767
-9.5745 0.3911 2.8764
-9.4789 0.2960 2.8761
-9.3841 0.2028 2.8758
-9.2903 0.1113 2.8755
-9.1973 0.0216 2.8752
-9.1052 -0.0664 2.8749
-9.0139 -0.1527 2.8746
-8.9234 -0.2374 2.8744
-8.8337 -0.3204 2.8741
-8.7448 -0.4020 2.8738
-8.6566 -0.4820 2.8736
-8.5692 -0.5605 2.8733
-8.4826 -0.6375 2.8731
-8.3966 -0.7132 2.8728
-8.3114 -0.7874 2.8726
-8.2269 -0.8603 2.8723
-8.1431 -0.9318 2.8721
-8.0599 -1.0020 2.8719
-7.9775 -1.0710 2.8716
-7.8956 -1.1387 2.8714
-7.8144 -1.2052 2.8712
-7.7339 -1.2705 2.8710
-7.6539 -1.3346 2.8708
-7.5746 -1.3976 2.8705
-7.4958 -1.4594 2.8703
-7.4176 -1.5202 2.8701
-7.3400 -1.5798 2.8699
-7.2630 -1.6384 2.8697
-7.1866 -1.6960 2.8695
-7.1106 -1.7526 2.8693
-7.0352 -1.8081 2.8691
-6.9604 -1.8627 2.8689
-6.8860 -1.9163 2.8687
-6.8122 -1.9690 2.8686
-6.7388 -2.0208 2.8684
-6.6660 -2.0716 2.8682
-6.5936 -2.1216 2.8680
-6.5217 -2.1707 2.8678
-6.4503 -2.2189 2.8677
-6.3793 -2.2664 2.8675
-6.3088 -2.3130 2.8673
-6.2387 -2.3587 2.8671
-6.1691 -2.4037 2.8670
-6.0998 -2.4479 2.8668
-6.0310 -2.4914 2.8666
-5.9627 -2.5341 2.8665
-5.8947 -2.5761 2.8663
-5.8271 -2.6173 2.8662
-5.7599 -2.6578 2.8660
-5.6931 -2.6976 2.8659
-5.6266 -2.7368 2.8657
-5.5606 -2.7752 2.8656
-5.4949 -2.8130 2.8654
-5.4295 -2.8502 2.8653
-5.3646 -2.8867 2.8651
-5.2999 -2.9225 2.8650
-5.2356 -2.9578 2.8648
-5.1717 -2.9924 2.8647
-5.1080 -3.0264 2.8645
-5.0447 -3.0599 2.8644
-4.9817 -3.0927 2.8643
-4.9190 -3.1250 2.8641
-4.8567 -3.1567 2.8640
-4.7946 -3.1878 2.8639
-4.7328 -3.2185 2.8637
-4.6714 -3.2485 2.8636
-4.6102 -3.2780 2.8635
-4.5493 -3.3071 2.8633
-4.4886 -3.3356 2.8632
-4.4283 -3.3635 2.8631
-4.3682 -3.3910 2.8630
-4.3083 -3.4180 2.8629
-4.2488 -3.4445 2.8627
-4.1894 -3.4705 2.8626
-4.1303 -3.4961 2.8625
-4.0715 -3.5212 2.8624
-4.0129 -3.5458 2.8623
-3.9546 -3.5700 2.8622
-3.8964 -3.5937 2.8620
-3.8385 -3.6169 2.8619
-3.7809 -3.6398 2.8618
-3.7234 -3.6622 2.8617
-3.6662 -3.6842 2.8616
-3.6091 -3.7057 2.8615
-3.5523 -3.7269 2.8614
-3.4957 -3.7476 2.8613
-3.4392 -3.7679 2.8612
-3.3830 -3.7879 2.8611
-3.3270 -3.8074 2.8610
-3.2711 -3.8265 2.8609
-3.2154 -3.8453 2.8608
-3.1599 -3.8637 2.8607
-3.1046 -3.8816 2.8606
-3.0495 -3.8993 2.8605
-2.9945 -3.9165 2.8604
-2.7762 -3.9819 2.8600
-2.9397 -3.9334 2.8603
-2.7220 -3.9974 2.8599
-2.8850 -3.9499 2.8602
-2.6680 -4.0125 2.8599
-2.8305 -3.9661 2.8601
-2.6141 -4.0272 2.8598
-2.4532 -4.0695 2.8595
-2.5603 -4.0417 2.8597
-2.3999 -4.0829 2.8594
-2.5067 -4.0558 2.8596
-2.3467 -4.0960 2.8593
-2.2936 -4.1088 2.8593
-2.2406 -4.1213 2.8592
-2.1878 -4.1334 2.8591
-2.1350 -4.1452 2.8590
-2.0824 -4.1567 2.8589
-2.0299 -4.1679 2.8589
-1.9775 -4.1788 2.8588
-1.9252 -4.1893 2.8587
-1.8730 -4.1996 2.8586
-1.8209 -4.2095 2.8585
-1.7689 -4.2192 2.8585
-1.7170 -4.2286 2.8584
-1.6652 -4.2376 2.8583
-13.9549 12.0855 2.8825
-13.8707 11.7875 2.8825
-13.7860 11.4954 2.8825
-13.7008 11.2090 2.8825
-13.6152 10.9282 2.8825
-13.5292 10.6529 2.8825
-13.4429 10.3830 2.8825
-13.3563 10.1183 2.8825
-13.2695 9.8588 2.8825
-13.1825 9.6043 2.8825
-13.0953 9.3548 2.8825
-13.0079 9.1101 2.8825
-12.9205 8.8702 2.8825
-12.8331 8.6349 2.8825
-12.7456 8.4041 2.8825
-12.6581 8.1778 2.8825
-12.5706 7.9558 2.8825
-12.4831 7.7382 2.8825
-12.3958 7.5246 2.8825
-12.3085 7.3151 2.8825
-12.2214 7.1096 2.8825
-12.1344 6.9081 2.8825
-12.0476 6.7103 2.8825
-11.3285 6.1718 2.7301
-11.2466 5.9915 2.7301
-11.1649 5.8145 2.7301
-11.0834 5.6410 2.7301
-9.7770 4.8614 2.4261
-9.8379 4.7774 2.4593
-9.8990 4.6931 2.4930
-9.9604 4.6085 2.5273
-10.6795 4.8204 2.7301
-10.5995 4.6653 2.7301
-10.5198 4.5131 2.7301
-10.4404 4.3636 2.7301
-10.3612 4.2169 2.7301
-10.2824 4.0728 2.7301
-10.2039 3.9314 2.7301
-10.1257 3.7926 2.7301
-10.0478 3.6562 2.7301
-9.9703 3.5223 2.7301
-9.8931 3.3909 2.7301
-9.8161 3.2618 2.7301
-9.8348 3.1656 2.7568
-9.9518 3.1002 2.8116
-10.0709 3.0336 2.8677
-10.0421 2.9221 2.8822
-9.9615 2.7972 2.8819
-9.8813 2.6744 2.8816
-9.8016 2.5539 2.8812
-9.7222 2.4355 2.8809
-9.6433 2.3192 2.8806
-9.5647 2.2049 2.8802
-9.4866 2.0927 2.8799
-9.4088 1.9824 2.8796
-9.3315 1.8740 2.8793
-9.2545 1.7676 2.8790
-9.1780 1.6630 2.8787
-9.1018 1.5602 2.8784
-9.0261 1.4592 2.8781
-8.9507 1.3599 2.8778
-8.8758 1.2623 2.8775
-8.8012 1.1664 2.8772
-8.7270 1.0721 2.8770
-8.6532 0.9795 2.8767
-8.5798 0.8884 2.8764
-8.5068 0.7989 2.8762
-8.4342 0.7108 2.8759
-8.3619 0.6243 2.8756
-8.2901 0.5392 2.8754
-8.2186 0.4556 2.8751
-8.1474 0.3733 2.8749
-8.0767 0.2924 2.8747
-8.0063 0.2129 2.8744
-7.9362 0.1347 2.8742
-7.8665 0.0578 2.8739
-7.7972 -0.0178 2.8737
-7.7282 -0.0922 2.8735
-7.6596 -0.1654 2.8733
-7.5914 -0.2373 2.8730
-7.5234 -0.3081 2.8728
-7.4558 -0.3777 2.8726
-7.3886 -0.4462 2.8724
-7.3217 -0.5135 2.8722
-7.2551 -0.5798 2.8720
-7.1889 -0.6449 2.8718
-7.1230 -0.7090 2.8716
-7.0574 -0.7721 2.8714
-6.9921 -0.8342 2.8712
-6.9271 -0.8952 2.8710
-6.8625 -0.9553 2.8708
-6.7982 -1.0144 2.8706
-6.7341 -1.0725 2.8704
-6.6704 -1.1297 2.8702
-6.6070 -1.1860 2.8700
-6.5438 -1.2414 2.8698
-6.4810 -1.2959 2.8697
-6.4185 -1.3495 2.8695
-6.3562 -1.4022 2.8693
-6.2942 -1.4542 2.8691
-6.2326 -1.5053 2.8690
-6.1711 -1.5555 2.8688
-6.1100 -1.6050 2.8686
-6.0491 -1.6536 2.8685
-5.9885 -1.7015 2.8683
-5.9282 -1.7487 2.8681
-5.8682 -1.7950 2.8680
-5.8084 -1.8407 2.8678
-5.7488 -1.8856 2.8677
-5.6895 -1.9298 2.8675
-5.6305 -1.9733 2.8674
-5.5717 -2.0161 2.8672
-5.5131 -2.0582 2.8670
-5.4548 -2.0996 2.8669
-5.3967 -2.1404 2.8667
-5.3389 -2.1805 2.8666
-5.2813 -2.2199 2.8665
-5.2239 -2.2588 2.8663
-5.1668 -2.2970 2.8662
-5.1099 -2.3346 2.8660
-5.0531 -2.3716 2.8659
-4.9967 -2.4080 2.8658
-4.9404 -2.4438 2.8656
-4.8843 -2.4790 2.8655
-4.8285 -2.5136 2.8654
-4.7729 -2.5477 2.8652
-4.7174 -2.5813 2.8651
-4.6622 -2.6142 2.8650
-4.6072 -2.6467 2.8648
-4.5523 -2.6786 2.8647
-4.4977 -2.7100 2.8646
-4.4432 -2.7408 2.8645
-4.3890 -2.7712 2.8643
-4.3349 -2.8010 2.8642
-4.2810 -2.8304 2.8641
-4.2273 -2.8593 2.8640
-4.1738 -2.8876 2.8639
-4.1204 -2.9155 2.8637
-4.0672 -2.9430 2.8636
-4.0142 -2.9699 2.8635
-3.9614 -2.9964 2.8634
-3.9087 -3.0225 2.8633
-3.8562 -3.0480 2.8632
-3.8038 -3.0732 2.8631
-3.7516 -3.0979 2.8630
-3.6996 -3.1222 2.8629
-3.6477 -3.1460 2.8628
-3.5959 -3.1694 2.8626
-3.5443 -3.1924 2.8625
-3.4929 -3.2150 2.8624
-3.4416 -3.2372 2.8623
-3.3904 -3.2590 2.8622
-3.3394 -3.2804 2.8621
-3.2885 -3.3014 2.8620
-3.2378 -3.3220 2.8619
-3.1872 -3.3422 2.8618
-3.1367 -3.3620 2.8618
-3.0863 -3.3814 2.8617
-3.0361 -3.4005 2.8616
-2.9860 -3.4192 2.8615
-2.9360 -3.4375 2.8614
-2.8861 -3.4555 2.8613
-2.8364 -3.4731 2.8612
-2.7867 -3.4904 2.8611
-2.7372 -3.5073 2.8610
-2.6878 -3.5238 2.8609
-2.6385 -3.5400 2.8608
-2.5893 -3.5559 2.8608
-2.5402 -3.5714 2.8607
-2.4912 -3.5866 2.8606
-2.4423 -3.6015 2.8605
-2.3935 -3.6160 2.8604
-2.3448 -3.6302 2.8603
-2.2962 -3.6441 2.8603
-2.2477 -3.6576 2.8602
-2.1993 -3.6708 2.8601
-2.1509 -3.6837 2.8600
-2.1027 -3.6963 2.8599
-2.0545 -3.7086 2.8599
-2.0064 -3.7206 2.8598
-1.9584 -3.7322 2.8597
-1.9105 -3.7436 2.8596
-1.8626 -3.7546 2.8596
-1.8148 -3.7654 2.8595
-1.7671 -3.7758 2.8594
-1.7195 -3.7860 2.8594
-1.6719 -3.7958 2.8593
-1.6244 -3.8054 2.8592
-1.5770 -3.8146 2.8591
-1.5296 -3.8236 2.8591
-10.6367 9.4141 2.8825
-10.6069 9.2141 2.8825
-10.5759 9.0167 2.8825
-10.5436 8.8220 2.8825
-10.5101 8.6300 2.8825
-10.4755 8.4405 2.8825
-10.4399 8.2535 2.8825
-10.4031 8.0692 2.8825
-10.3654 7.8874 2.8825
-10.3267 7.7080 2.8825
-10.2871 7.5312 2.8825
-9.7049 6.9679 2.7301
-9.6658 6.8051 2.7301
-9.6259 6.6445 2.7301
-9.5852 6.4863 2.7301
-9.5439 6.3302 2.7301
-9.5019 6.1764 2.7301
-9.4593 6.0248 2.7301
-9.4161 5.8753 2.7301
-9.3723 5.7280 2.7301
-9.3281 5.5828 2.7301
-9.2831 5.4397 2.7301
-9.2377 5.2987 2.7301
-9.1919 5.1597 2.7301
-9.1456 5.0227 2.7301
-9.0989 4.8877 2.7301
-9.0518 4.7547 2.7301
-9.0043 4.6235 2.7301
-8.9564 4.4944 2.7301
-8.9082 4.3670 2.7301
-8.8597 4.2416 2.7301
-8.8109 4.1180 2.7301
-8.7618 3.9962 2.7301
-8.7124 3.8761 2.7301
-8.6629 3.7578 2.7301
-8.7243 3.6884 2.7654
-8.8223 3.6333 2.8128
-8.9218 3.5774 2.8613
-8.9340 3.4860 2.8823
-8.8796 3.3696 2.8820
-8.8251 3.2551 2.8817
-8.7704 3.1422 2.8814
-8.7156 3.0310 2.8811
-8.6607 2.9214 2.8808
-8.6057 2.8135 2.8806
-8.5506 2.7072 2.8803
-8.4954 2.6024 2.8800
-8.4402 2.4992 2.8797
-8.3848 2.3976 2.8795
-8.3295 2.2975 2.8792
-8.2741 2.1988 2.8789
-8.2187 2.1016 2.8787
-8.1633 2.0059 2.8784
-8.1078 1.9116 2.8781
-8.0524 1.8186 2.8779
-7.9969 1.7271 2.8776
-7.9415 1.6369 2.8774
-7.8861 1.5480 2.8771
-7.8307 1.4605 2.8769
-7.7753 1.3742 2.8767
-7.7199 1.2893 2.8764
-7.6646 1.2055 2.8762
-7.6094 1.1231 2.8760
-7.5542 1.0418 2.8757
-7.4990 0.9617 2.8755
-7.4439 0.8828 2.8753
-7.3889 0.8051 2.8751
-7.3339 0.7285 2.8748
-7.2790 0.6531 2.8746
-7.2242 0.5787 2.8744
-7.1695 0.5055 2.8742
-7.1148 0.4333 2.8740
-7.0603 0.3622 2.8738
-7.0058 0.2921 2.8736
-6.9514 0.2230 2.8734
-6.8971 0.1550 2.8732
-6.8429 0.0880 2.8730
-6.7888 0.0219 2.8728
-6.7348 -0.0432 2.8726
-6.6809 -0.1073 2.8724
-6.6271 -0.1705 2.8722
-6.5734 -0.2328 2.8720
-6.5198 -0.2942 2.8718
-6.4664 -0.3546 2.8716
-6.4130 -0.4142 2.8715
-6.3598 -0.4729 2.8713
-6.3066 -0.5308 2.8711
-6.2536 -0.5878 2.8709
-6.2007 -0.6440 2.8708
-6.1480 -0.6993 2.8706
-6.0953 -0.7539 2.8704
-6.0428 -0.8076 2.8703
-5.9903 -0.8606 2.8701
-5.9380 -0.9128 2.8699
-5.8858 -0.9642 2.8698
-5.8338 -1.0148 2.8696
-5.7818 -1.0648 2.8694
-5.7300 -1.1140 2.8693
-5.6783 -1.1624 2.8691
-5.6268 -1.2102 2.8690
-5.5753 -1.2573 2.8688
-5.5240 -1.3036 2.8687
-5.4728 -1.3493 2.8685
-5.4217 -1.3943 2.8684
-5.3707 -1.4387 2.8682
-5.3199 -1.4824 2.8681
-5.2692 -1.5254 2.8679
-5.1681 -1.6096 2.8677
-5.2186 -1.5678 2.8678
-5.1177 -1.6508 2.8675
-4.8678 -1.8476 2.8668
-5.0675 -1.6913 2.8674
-4.8181 -1.8852 2.8667
-5.0174 -1.7313 2.8672
-4.7686 -1.9223 2.8666
-4.9674 -1.7706 2.8671
-4.7192 -1.9588 2.8664
-4.9175 -1.8094 2.8670
-4.6699 -1.9947 2.8663
-4.5717 -2.0650 2.8660
-4.6208 -2.0301 2.8662
-4.5228 -2.0993 2.8659
-4.2798 -2.2633 2.8653
-4.4739 -2.1331 2.8658
-4.2315 -2.2946 2.8652
-4.4252 -2.1664 2.8657
-4.1833 -2.3254 2.8651
-4.3766 -2.1992 2.8656
-4.1353 -2.3557 2.8650
-4.3282 -2.2315 2.8654
-4.0874 -2.3855 2.8649
-3.9918 -2.4438 2.8646
-4.0395 -2.4149 2.8647
-3.9442 -2.4723 2.8645
-3.7076 -2.6079 2.8640
-3.8966 -2.5003 2.8644
-3.6606 -2.6337 2.8639
-3.8492 -2.5278 2.8643
-3.6136 -2.6591 2.8638
-3.8019 -2.5550 2.8642
-3.5668 -2.6841 2.8637
-3.7547 -2.5816 2.8641
-3.5201 -2.7086 2.8636
-3.4269 -2.7565 2.8634
-3.4735 -2.7328 2.8635
-3.3805 -2.7799 2.8633
-3.1496 -2.8907 2.8628
-3.3341 -2.8028 2.8632
-3.1037 -2.9118 2.8627
-3.2878 -2.8254 2.8631
-3.0578 -2.9324 2.8626
-3.2417 -2.8476 2.8630
-3.0121 -2.9527 2.8625
-3.1956 -2.8693 2.8629
-2.9664 -2.9726 2.8624
-2.8753 -3.0113 2.8622
-2.9208 -2.9922 2.8623
-2.8299 -3.0302 2.8621
-2.6039 -3.1191 2.8617
-2.7845 -3.0487 2.8621
-2.5589 -3.1359 2.8616
-2.7393 -3.0668 2.8620
-2.5140 -3.1523 2.8616
-2.6941 -3.0846 2.8619
-2.4692 -3.1684 2.8615
-2.6490 -3.1020 2.8618
-2.4244 -3.1842 2.8614
-2.3351 -3.2147 2.8612
-2.3797 -3.1996 2.8613
-2.2905 -3.2295 2.8612
-2.0686 -3.2987 2.8608
-2.2460 -3.2440 2.8611
-2.0244 -3.3116 2.8607
-2.2015 -3.2581 2.8610
-1.9802 -3.3242 2.8606
-2.1572 -3.2720 2.8609
-1.9361 -3.3365 2.8606
-2.1128 -3.2855 2.8608
-1.8921 -3.3485 2.8605
-1.8481 -3.3602 2.8604
-1.8042 -3.3717 2.8603
-1.7603 -3.3828 2.8603
-1.7164 -3.3936 2.8602
-1.6727 -3.4041 2.8601
-1.6289 -3.4143 2.8601
-1.5852 -3.4243 2.8600
-1.5416 -3.4339 2.8599
-1.4980 -3.4433 2.8599
-1.4544 -3.4524 2.8598
-1.4109 -3.4612 2.8597
-8.0795 7.3103 2.7301
-8.0735 7.1716 2.7301
-8.0664 7.0341 2.7301
-8.0580 6.8979 2.7301
-8.0485 6.7630 2.7301
-8.0379 6.6294 2.7301
-8.0262 6.4970 2.7301
-8.0134 6.3660 2.7301
-7.9995 6.2363 2.7301
-7.9847 6.1079 2.7301
-7.9689 5.9808 2.7301
-7.9521 5.8550 2.7301
-7.9344 5.7305 2.7301
-7.9159 5.6073 2.7301
-7.8964 5.4854 2.7301
-7.8761 5.3648 2.7301
-7.8550 5.2456 2.7301
-7.8332 5.1276 2.7301
-7.8105 5.0109 2.7301
-7.7871 4.8955 2.7301
-7.7630 4.7814 2.7301
-7.7382 4.6685 2.7301
-7.7126 4.5570 2.7301
-7.6865 4.4467 2.7301
-7.6597 4.3376 2.7301
-7.6323 4.2298 2.7301
-7.6973 4.1736 2.7635
-7.7809 4.1267 2.8040
-7.8655 4.0791 2.8454
-7.9366 4.0236 2.8825
-7.9040 3.9159 2.8822
-7.8709 3.8094 2.8819
-7.8373 3.7043 2.8817
-7.8032 3.6004 2.8814
-7.7687 3.4978 2.8812
-7.7338 3.3964 2.8809
-7.6984 3.2962 2.8807
-7.6625 3.1973 2.8804
-7.6263 3.0996 2.8802
-7.5898 3.0031 2.8799
-7.5528 2.9078 2.8797
-7.5155 2.8137 2.8795
-7.4778 2.7207 2.8792
-7.4398 2.6289 2.8790
-7.4015 2.5383 2.8788
-7.3629 2.4487 2.8785
-7.3240 2.3603 2.8783
-7.2849 2.2730 2.8781
-7.2455 2.1868 2.8779
-7.2058 2.1017 2.8776
-7.1659 2.0177 2.8774
-7.1257 1.9347 2.8772
-7.0853 1.8528 2.8770
-7.0447 1.7719 2.8768
-7.0039 1.6920 2.8766
-6.9629 1.6132 2.8763
-6.9218 1.5354 2.8761
-6.8804 1.4586 2.8759
-6.8389 1.3827 2.8757
-6.7972 1.3078 2.8755
-6.7554 1.2339 2.8753
-6.7134 1.1610 2.8751
-6.6713 1.0890 2.8749
-6.6291 1.0179 2.8747
-6.5867 0.9477 2.8745
-6.5443 0.8784 2.8744
-6.5017 0.8101 2.8742
-6.4590 0.7426 2.8740
-6.4162 0.6760 2.8738
-6.3734 0.6102 2.8736
-6.3304 0.5454 2.8734
-6.2874 0.4813 2.8733
-6.2443 0.4181 2.8731
-6.2012 0.3557 2.8729
-6.1579 0.2942 2.8727
-6.1147 0.2334 2.8725
-6.0713 0.1735 2.8724
-6.0279 0.1143 2.8722
-5.9845 0.0559 2.8720
-5.9410 -0.0017 2.8719
-5.8975 -0.0586 2.8717
-5.8540 -0.1147 2.8715
-5.8104 -0.1701 2.8714
-5.7668 -0.2247 2.8712
-5.7232 -0.2786 2.8711
-5.6796 -0.3318 2.8709
-5.6360 -0.3843 2.8707
-5.5923 -0.4361 2.8706
-5.5487 -0.4872 2.8704
-5.5050 -0.5377 2.8703
-5.4613 -0.5874 2.8701
-5.4177 -0.6365 2.8700
-5.3740 -0.6849 2.8698
-5.3303 -0.7327 2.8697
-5.2867 -0.7799 2.8696
-5.2431 -0.8264 2.8694
-5.1994 -0.8722 2.8693
-5.1558 -0.9175 2.8691
-5.1122 -0.9621 2.8690
-5.0686 -1.0062 2.8688
-5.0250 -1.0496 2.8687
-4.9815 -1.0925 2.8686
-4.9380 -1.1348 2.8684
-4.8945 -1.1764 2.8683
-4.8510 -1.2176 2.8682
-4.8076 -1.2581 2.8680
-4.7642 -1.2981 2.8679
-4.7208 -1.3376 2.8678
-4.6774 -1.3765 2.8676
-4.6341 -1.4148 2.8675
-4.5909 -1.4526 2.8674
-4.5476 -1.4900 2.8673
-4.5044 -1.5267 2.8671
-4.4612 -1.5630 2.8670
-4.4181 -1.5987 2.8669
-4.3750 -1.6340 2.8668
-4.3319 -1.6687 2.8667
-4.2889 -1.7030 2.8665
-4.2459 -1.7368 2.8664
-4.2030 -1.7701 2.8663
-4.1601 -1.8029 2.8662
-4.1173 -1.8352 2.8661
-4.0745 -1.8671 2.8660
-4.0317 -1.8985 2.8658
-3.9890 -1.9295 2.8657
-3.9463 -1.9600 2.8656
-3.9037 -1.9900 2.8655
-3.8611 -2.0196 2.8654
-3.8186 -2.0488 2.8653
-3.7761 -2.0775 2.8652
-3.7337 -2.1059 2.8651
-3.6913 -2.1337 2.8650
-3.6489 -2.1612 2.8649
-3.6066 -2.1883 2.8648
-3.5644 -2.2149 2.8647
-3.5221 -2.2411 2.8646
-3.4800 -2.2670 2.8645
-3.4379 -2.2924 2.8644
-3.3958 -2.3174 2.8643
-3.3538 -2.3420 2.8642
-3.3118 -2.3663 2.8641
-3.2699 -2.3902 2.8640
-3.2280 -2.4136 2.8639
-3.1861 -2.4367 2.8638
-3.1444 -2.4595 2.8637
-3.1026 -2.4818 2.8636
-3.0609 -2.5038 2.8635
-3.0192 -2.5254 2.8634
-2.9776 -2.5467 2.8633
-2.9361 -2.5676 2.8633
-2.8946 -2.5882 2.8632
-2.8531 -2.6083 2.8631
-2.8117 -2.6282 2.8630
-2.7703 -2.6477 2.8629
-2.7289 -2.6669 2.8628
-2.6876 -2.6857 2.8627
-2.6464 -2.7042 2.8627
-2.6051 -2.7223 2.8626
-2.5640 -2.7401 2.8625
-2.5228 -2.7576 2.8624
-2.4817 -2.7748 2.8623
-2.4407 -2.7916 2.8623
-2.3997 -2.8081 2.8622
-2.3587 -2.8243 2.8621
-2.3178 -2.8402 2.8620
-2.2769 -2.8557 2.8619
-2.2360 -2.8710 2.8619
-2.1952 -2.8859 2.8618
-2.1544 -2.9006 2.8617
-2.1137 -2.9149 2.8616
-2.0730 -2.9289 2.8616
-2.0323 -2.9426 2.8615
-1.9917 -2.9560 2.8614
-1.9511 -2.9692 2.8614
-1.9105 -2.9820 2.8613
-1.8700 -2.9945 2.8612
-1.8295 -3.0068 2.8611
-1.7890 -3.0187 2.8611
-1.7486 -3.0304 2.8610
-1.7082 -3.0417 2.8609
-1.6678 -3.0528 2.8609
-1.6274 -3.0636 2.8608
-1.5871 -3.0741 2.8608
-1.5468 -3.0843 2.8607
-1.5066 -3.0943 2.8606
-1.4663 -3.1040 2.8606
-1.4261 -3.1134 2.8605
-1.3859 -3.1225 2.8604
-1.3458 -3.1314 2.8604
-1.3057 -3.1399 2.8603
-6.6957 6.1963 2.7301
-6.7004 6.0889 2.7301
-6.7040 5.9822 2.7301
-6.7065 5.8761 2.7301
-6.7080 5.7708 2.7301
-6.7085 5.6662 2.7301
-6.7079 5.5623 2.7301
-6.7064 5.4591 2.7301
-6.7039 5.3568 2.7301
-6.7005 5.2551 2.7301
-6.6961 5.1542 2.7301
-6.6908 5.0541 2.7301
-6.6847 4.9548 2.7301
-6.6777 4.8563 2.7301
-6.6699 4.7585 2.7301
-6.6671 4.6658 2.7325
-6.7393 4.6255 2.7660
-6.8120 4.5849 2.8002
-6.8854 4.5438 2.8351
-6.9594 4.5023 2.8706
-6.9746 4.4226 2.8824
-6.9601 4.3250 2.8821
-6.9449 4.2283 2.8819
-6.9289 4.1326 2.8817
-6.9123 4.0376 2.8815
-6.8950 3.9436 2.8813
-6.8770 3.8505 2.8810
-6.8584 3.7582 2.8808
-6.8392 3.6668 2.8806
-6.8193 3.5763 2.8804
-6.7989 3.4867 2.8802
-6.7778 3.3979 2.8800
-6.7563 3.3101 2.8798
-6.7341 3.2231 2.8796
-6.7114 3.1369 2.8793
-6.6883 3.0517 2.8791
-6.6645 2.9673 2.8789
-6.6404 2.8837 2.8787
-6.6157 2.8010 2.8785
-6.5906 2.7192 2.8783
-6.5650 2.6382 2.8781
-6.5389 2.5581 2.8779
-6.5125 2.4788 2.8777
-6.4856 2.4003 2.8775
-6.4584 2.3227 2.8774
-6.4307 2.2458 2.8772
-6.4027 2.1699 2.8770
-6.3743 2.0947 2.8768
-6.3455 2.0203 2.8766
-6.3164 1.9468 2.8764
-6.2869 1.8740 2.8762
-6.2572 1.8020 2.8760
-6.2271 1.7309 2.8759
-6.1967 1.6605 2.8757
-6.1660 1.5909 2.8755
-6.1350 1.5220 2.8753
-6.1037 1.4540 2.8751
-6.0722 1.3867 2.8750
-6.0404 1.3201 2.8748
-6.0084 1.2543 2.8746
-5.9761 1.1892 2.8744
-5.9436 1.1249 2.8743
-5.9108 1.0613 2.8741
-5.8778 0.9984 2.8739
-5.8446 0.9363 2.8738
-5.8112 0.8748 2.8736
-5.7776 0.8141 2.8734
-5.7438 0.7541 2.8733
-5.7099 0.6948 2.8731
-5.6757 0.6361 2.8730
-5.6414 0.5781 2.8728
-5.6069 0.5208 2.8726
-5.5722 0.4642 2.8725
-5.5374 0.4083 2.8723
-5.5024 0.3530 2.8722
-5.4673 0.2983 2.8720
-5.4320 0.2443 2.8719
-5.3967 0.1910 2.8717
-5.3611 0.1382 2.8716
-5.3255 0.0862 2.8714
-5.2897 0.0347 2.8713
-5.2538 -0.0162 2.8711
-5.2179 -0.0664 2.8710
-5.1818 -0.1160 2.8709
-5.1456 -0.1651 2.8707
-5.1093 -0.2135 2.8706
-5.0729 -0.2614 2.8704
-5.0365 -0.3086 2.8703
-4.9999 -0.3553 2.8702
-4.9632 -0.4015 2.8700
-4.9265 -0.4470 2.8699
-4.8897 -0.4920 2.8698
-4.8529 -0.5364 2.8696
-4.8159 -0.5803 2.8695
-4.7789 -0.6237 2.8694
-4.7419 -0.6665 2.8692
-4.7048 -0.7087 2.8691
-4.6676 -0.7505 2.8690
-4.6304 -0.7917 2.8689
-4.5931 -0.8324 2.8687
-4.5558 -0.8726 2.8686
-4.5184 -0.9122 2.8685
-4.4810 -0.9514 2.8684
-4.4435 -0.9901 2.8682
-4.4061 -1.0282 2.8681
-4.3685 -1.0659 2.8680
-4.3310 -1.1031 2.8679
-4.2934 -1.1398 2.8677
-4.2558 -1.1761 2.8676
-4.2181 -1.2118 2.8675
-4.1805 -1.2471 2.8674
-4.1428 -1.2820 2.8673
-4.1051 -1.3163 2.8672
-4.0673 -1.3503 2.8671
-4.0296 -1.3837 2.8669
-3.8028 -1.5753 2.8663
-3.9918 -1.4168 2.8668
-3.7650 -1.6058 2.8662
