ply
format ascii 1.0
element vertex 1351
property float32 x
property float32 y
property float32 z
end_header
7.3963 10.6587 -5.7124
7.7072 11.3647 -6.0727
7.6529 11.5493 -6.1535
7.5819 11.7134 -6.2233
7.4883 11.8461 -6.2766
7.1475 11.5810 -6.1198
7.1025 11.7904 -6.2143
7.3433 12.4931 -6.5680
7.2023 12.5617 -6.5878
6.6145 11.8309 -6.1897
6.9827 12.8129 -6.6879
6.6925 12.6034 -6.5637
6.4259 12.4245 -6.4564
6.2134 12.3400 -6.3989
6.1403 12.5317 -6.4848
5.9567 12.4992 -6.4550
5.7422 12.3945 -6.3885
5.5299 12.2852 -6.3203
5.3231 12.1789 -6.2541
5.4679 12.8916 -6.6084
-1.1040 9.3135 -4.6437
-1.4388 10.1996 -5.0907
8.3629 11.9898 -5.6232
7.3768 10.8182 -5.0613
7.4074 11.1142 -5.1873
7.5604 11.6087 -5.4054
7.4685 11.7382 -5.4532
6.7882 12.0384 -5.5344
7.3758 11.8690 -5.5018
6.7390 12.2552 -5.6232
7.2823 12.0012 -5.5512
7.2933 12.3131 -5.6835
6.6114 12.3334 -5.6485
7.1573 12.3826 -5.7039
6.4263 12.3022 -5.6240
5.6293 12.3471 -5.5978
6.2440 12.2717 -5.6002
5.4223 12.2399 -5.5408
6.0646 12.2418 -5.5770
5.5634 12.9324 -5.8457
5.3903 12.9113 -5.8279
6.3048 13.0773 -5.9477
6.1075 13.0237 -5.9138
-1.0884 9.3190 -4.1139
-1.9151 11.8731 -5.2508
-2.0528 11.9004 -5.2657
7.7336 11.0301 -4.4592
7.3284 10.6881 -4.3132
7.3575 10.9751 -4.4212
7.3879 11.2738 -4.5338
7.3889 11.5374 -4.6321
7.3354 11.7228 -4.6989
7.2807 11.9118 -4.7672
7.0821 11.8653 -4.7413
6.9894 11.9950 -4.7860
6.8958 12.1261 -4.8313
6.8012 12.2585 -4.8772
6.7735 12.5182 -4.9737
6.5954 12.5024 -4.9609
6.4059 12.4605 -4.9379
5.9362 11.8534 -4.6914
6.0366 12.3794 -4.8936
5.8451 12.3160 -4.8628
5.6445 12.2262 -4.8219
5.6830 12.6607 -4.9877
5.7438 13.1685 -5.1822
5.0127 11.8338 -4.6522
13.2952 35.5247 -13.9123
12.8016 35.3492 -13.8315
12.3530 35.2812 -13.7932
10.7601 31.8164 -12.4285
10.3637 31.7575 -12.3958
9.9712 31.6992 -12.3637
9.5825 31.6413 -12.3321
9.1975 31.5839 -12.3012
9.4134 33.6635 -13.1024
9.0089 33.6001 -13.0693
8.6080 33.5371 -13.0369
8.2106 33.4746 -13.0050
7.1126 33.6423 -13.0494
7.8306 33.4724 -12.9969
7.4079 33.2709 -12.9118
6.7850 33.8866 -13.1379
6.2593 37.5023 -14.5213
6.4539 34.1335 -13.2277
5.1138 35.2979 -13.6579
4.7641 35.5777 -13.7618
6.6778 37.5214 -14.5344
4.3952 35.7418 -13.8212
2.9850 37.5671 -14.5136
2.5745 37.5138 -14.4906
3.9989 35.6855 -13.7957
3.6047 35.6294 -13.7707
3.3973 37.6205 -14.5370
-1.0742 9.3302 -3.6073
7.6159 10.8058 -3.6887
7.6748 11.1318 -3.7966
7.6384 11.3278 -3.8600
7.2411 10.9821 -3.7390
7.2686 11.2761 -3.8359
7.2973 11.5825 -3.9369
7.5520 12.2671 -4.1663
7.4254 12.3468 -4.1901
6.9223 11.7858 -3.9968
6.8652 11.9719 -4.0569
6.8069 12.1619 -4.1184
6.8133 12.4764 -4.2220
6.5217 12.2440 -4.1406
6.3120 12.1541 -4.1076
6.2462 12.3407 -4.1680
6.5122 13.2069 -4.4578
6.3554 13.2359 -4.4650
6.1690 13.1998 -4.4503
5.4852 12.0644 -4.0652
5.1705 11.6957 -3.9389
5.0816 11.8285 -3.9815
12.2234 33.1504 -11.1323
11.8021 33.0759 -11.1025
11.3856 33.0022 -11.0733
10.8934 32.6882 -10.9636
10.5191 32.7105 -10.9669
10.0551 32.4372 -10.8713
9.6963 32.4878 -10.8845
9.3465 32.5660 -10.9070
8.9984 32.6496 -10.9314
8.6595 32.7674 -10.9675
8.3155 32.8684 -10.9981
7.9609 32.9272 -11.0146
8.1420 35.3072 -11.8076
7.8260 35.6561 -11.9212
7.4394 35.6953 -11.9315
7.0816 35.8766 -11.9893
6.6579 35.7178 -11.9337
6.2560 35.6555 -11.9104
5.8966 35.8345 -11.9679
5.4977 35.7738 -11.9455
4.9675 34.7771 -11.6108
4.5566 34.5124 -11.5206
4.1613 34.3211 -11.4551
3.7765 34.1800 -11.4065
3.4019 34.1028 -11.3794
3.0605 34.3711 -11.4678
2.7510 35.1125 -11.7141
2.3862 35.2626 -11.7632
2.0636 36.2003 -12.0751
1.6756 36.1492 -12.0574
1.2917 36.1709 -12.0641
7.5474 10.8878 -3.0486
7.5237 11.0940 -3.1074
7.4992 11.3049 -3.1676
7.5427 11.6272 -3.2590
7.7872 12.2776 -3.4425
7.4795 12.0641 -3.3837
6.9354 11.4469 -3.2116
6.9573 11.7536 -3.2986
7.0565 12.2055 -3.4264
6.9389 12.2919 -3.4517
6.8043 12.3485 -3.4685
6.7272 12.5116 -3.5153
6.5623 12.5123 -3.5163
6.0064 11.7450 -3.3016
6.2576 12.5539 -3.5298
6.1068 12.5748 -3.5365
6.3581 13.4438 -3.7818
5.5208 11.9924 -3.3742
5.1717 11.5469 -3.2496
5.1494 11.8236 -3.3282
5.7564 13.6003 -3.8290
5.6192 13.6688 -3.8491
5.4817 13.7374 -3.8691
14.5510 40.0439 -11.2842
13.3992 38.1025 -10.7389
10.7866 31.7229 -8.9423
10.2476 31.1984 -8.7958
9.8556 31.0923 -8.7671
9.4353 30.8786 -8.7081
9.0232 30.6691 -8.6502
8.7436 30.9039 -8.7175
8.2203 30.2546 -8.5354
7.9172 30.3875 -8.5740
7.6129 30.5208 -8.6126
7.2670 30.4856 -8.6035
6.9189 30.4298 -8.5887
6.5735 30.3745 -8.5739
6.3829 31.0596 -8.7681
6.1481 31.5873 -8.9179
5.7972 31.5390 -8.9050
6.1604 35.6044 -10.0536
5.8085 35.7951 -10.1082
5.5814 36.8286 -10.4008
5.2212 37.0658 -10.4684
4.5686 35.0876 -9.9103
4.5005 37.6372 -10.6310
4.0503 37.1699 -10.4995
4.1819 42.5059 -12.0074
3.3001 37.5780 -10.6157
2.8372 36.7168 -10.3728
-1.1420 9.3177 -2.6318
8.1565 11.2150 -2.4563
8.1076 11.3876 -2.5001
8.0579 11.5631 -2.5446
7.4800 10.9682 -2.4192
7.4558 11.1736 -2.4699
7.4309 11.3841 -2.5218
7.9109 12.3917 -2.7507
7.2340 11.5885 -2.5775
7.1847 11.7735 -2.6238
7.1342 11.9618 -2.6708
7.0411 12.0827 -2.7027
6.9743 12.2526 -2.7456
6.6245 11.9179 -2.6752
6.5985 12.1608 -2.7343
6.7077 12.6679 -2.8529
6.6352 12.8453 -2.8974
6.1487 12.2068 -2.7575
5.9449 12.1077 -2.7392
5.7460 12.0109 -2.7211
5.3188 11.4157 -2.5898
5.9395 13.0954 -2.9749
5.9240 13.4240 -3.0535
5.7896 13.4910 -3.0726
5.6549 13.5581 -3.0916
5.5200 13.6254 -3.1105
14.4625 36.7761 -8.4051
13.8038 36.1850 -8.2790
13.5384 36.6115 -8.3854
11.5613 32.2783 -7.4004
11.0818 31.9686 -7.3366
10.5931 31.6032 -7.2596
10.2325 31.6003 -7.2655
9.8584 31.5469 -7.2596
9.4879 31.4941 -7.2535
9.1207 31.4418 -7.2473
9.2917 33.3079 -7.6833
8.9541 33.4222 -7.7154
8.6677 33.7383 -7.7938
8.3282 33.8593 -7.8270
7.9451 33.7990 -7.8182
7.6103 33.9403 -7.8556
7.2103 33.7833 -7.8239
6.8156 33.6285 -7.7923
6.4115 33.4002 -7.7434
6.0244 33.2310 -7.7080
5.7073 33.4441 -7.7610
5.5662 34.7778 -8.0740
5.1900 34.7200 -8.0639
4.8161 34.6626 -8.0536
4.4445 34.6055 -8.0431
4.2259 35.8292 -8.3302
3.8860 36.1530 -8.4080
3.4814 35.8731 -8.3451
3.1478 36.3372 -8.4551
2.7815 36.4909 -8.4927
2.4547 37.2846 -8.6790
2.0724 37.3660 -8.6993
1.6440 36.4521 -8.4876
1.2944 37.2539 -8.6752
0.9075 37.1982 -8.6629
-1.1252 9.3075 -2.1638
8.0413 11.2405 -1.7987
7.9925 11.4112 -1.8365
7.9427 11.5846 -1.8748
7.8919 11.7607 -1.9136
7.3482 11.1907 -1.8303
7.3133 11.3842 -1.8713
7.2777 11.5820 -1.9131
7.7482 12.6094 -2.0926
7.2094 12.0006 -2.0007
7.0794 12.0564 -2.0189
6.8062 11.8620 -1.9948
6.7530 12.0480 -2.0344
6.9797 12.7509 -2.1617
6.5157 12.1925 -2.0751
6.3074 12.0939 -2.0660
6.1952 12.1758 -2.0875
5.8814 11.8528 -2.0392
6.1857 12.7878 -2.2075
5.2872 11.2173 -1.9428
6.0591 13.1984 -2.2931
5.8560 13.1030 -2.2835
5.5480 12.7578 -2.2299
5.5515 13.1267 -2.3009
5.3900 13.1125 -2.3048
5.2302 13.0985 -2.3084
12.3849 31.9513 -5.6454
11.8005 31.3820 -5.5585
11.7057 32.1126 -5.7014
11.3139 32.0422 -5.7020
10.9264 31.9726 -5.7022
10.5432 31.9039 -5.7020
10.1640 31.8361 -5.7015
9.8506 31.9696 -5.7367
9.6254 32.4033 -5.8255
9.0608 31.6766 -5.7051
8.7652 31.8630 -5.7486
8.4677 32.0503 -5.7920
8.1095 32.0079 -5.7935
7.7518 31.9564 -5.7929
7.3969 31.9055 -5.7920
7.0447 31.8550 -5.7908
6.6951 31.8050 -5.7892
6.5477 32.7545 -5.9694
6.1902 32.6929 -5.9651
5.6865 31.8004 -5.8086
5.3740 31.9251 -5.8374
5.0600 32.0503 -5.8660
4.7211 32.0175 -5.8653
4.3809 31.9629 -5.8602
4.0427 31.9089 -5.8548
3.7065 31.8552 -5.8492
3.5744 33.7088 -6.1936
3.2227 33.6617 -6.1886
2.8727 33.6149 -6.1833
2.5243 33.5685 -6.1776
2.4693 38.0176 -6.9992
2.0833 38.0732 -7.0119
1.6913 38.0128 -7.0028
1.3013 37.9635 -6.9954
0.9125 37.9091 -6.9865
0.5249 37.8551 -6.9773
-1.1098 9.3056 -1.7083
7.9282 11.2654 -1.1531
7.8791 11.4340 -1.1852
7.8293 11.6053 -1.2175
7.7785 11.7795 -1.2502
7.7380 11.9739 -1.2851
7.7037 12.1835 -1.3217
7.0709 11.4318 -1.2530
7.0334 11.6270 -1.2872
6.9950 11.8265 -1.3218
6.9554 12.0301 -1.3571
7.1345 12.6272 -1.4371
6.8745 12.4539 -1.4295
6.4641 11.9904 -1.3877
6.5777 12.4967 -1.4578
6.4621 12.5787 -1.4787
6.3424 12.6537 -1.4985
5.6591 11.5765 -1.3807
6.1126 12.8259 -1.5402
5.9951 12.9089 -1.5605
5.8385 12.9066 -1.5701
5.4120 12.2883 -1.5041
5.1513 12.0199 -1.4800
5.4310 13.0301 -1.6135
5.2737 13.0167 -1.6207
11.8727 36.4383 -4.6887
11.0434 35.0812 -4.5322
10.8072 35.5704 -4.6130
10.5657 36.0703 -4.6950
10.1728 36.0642 -4.7108
9.7061 35.7780 -4.6891
9.4108 36.1183 -4.7489
9.0069 36.0461 -4.7540
9.4951 39.6880 -5.2496
8.4443 36.9291 -4.8983
8.2245 37.7056 -5.0145
7.2504 34.9194 -4.6556
6.8069 34.5210 -4.6134
6.5034 34.8206 -4.6639
6.1335 34.7720 -4.6672
5.7659 34.7238 -4.6700
5.4006 34.6761 -4.6723
5.7205 39.3257 -5.3079
5.3093 39.2657 -5.3084
5.3083 42.4700 -5.7501
3.4733 41.1948 -5.6040
3.0516 41.1315 -5.6004
2.4972 38.9682 -5.3100
2.1822 40.4218 -5.5118
1.7290 39.3866 -5.3736
1.3270 39.2361 -5.3554
0.9328 39.2816 -5.3633
0.5367 39.2297 -5.3574
0.1417 39.1781 -5.3508
-1.0946 9.3037 -1.2609
-12.7249 40.0289 -5.1656
-13.0879 39.7874 -5.1138
-13.4483 39.5457 -5.0613
-13.8060 39.3038 -5.0084
-14.1612 39.0617 -4.9549
-14.5139 38.8195 -4.9008
-14.8640 38.5770 -4.8463
-15.2118 38.3343 -4.7911
-15.5572 38.0914 -4.7355
-15.9002 37.8482 -4.6793
-16.2410 37.6047 -4.6225
-16.5795 37.3609 -4.5653
-16.9158 37.1168 -4.5074
-17.2499 36.8724 -4.4491
-17.5819 36.6276 -4.3902
-17.9118 36.3825 -4.3307
-18.2396 36.1369 -4.2707
-18.5654 35.8910 -4.2102
-18.8893 35.6447 -4.1491
-19.2111 35.3979 -4.0875
-19.5311 35.1507 -4.0253
-19.8492 34.9030 -3.9625
-20.1655 34.6549 -3.8992
-20.4800 34.4062 -3.8354
-20.7926 34.1571 -3.7710
-21.1036 33.9074 -3.7060
-21.4128 33.6571 -3.6404
-21.7204 33.4063 -3.5743
-22.0263 33.1549 -3.5076
-22.3306 32.9028 -3.4404
-22.6333 32.6502 -3.3725
-22.9344 32.3969 -3.3041
7.5986 11.4465 -0.5610
7.5406 11.6037 -0.5868
7.4816 11.7630 -0.6127
7.4215 11.9246 -0.6387
7.3393 12.0538 -0.6629
7.2511 12.1758 -0.6866
7.1620 12.2986 -0.7102
6.7538 11.8634 -0.7007
6.7123 12.0641 -0.7280
6.8871 12.6692 -0.7803
6.6327 12.4919 -0.7845
6.1336 11.8307 -0.7569
6.4507 12.7472 -0.8301
6.3134 12.7861 -0.8469
5.9638 12.3832 -0.8335
6.0184 12.8174 -0.8761
5.7091 12.4761 -0.8655
5.3769 12.0626 -0.8487
5.5847 12.8679 -0.9176
5.4417 12.8842 -0.9307
5.2993 12.9002 -0.9434
8.5435 37.8820 -3.1971
8.1556 37.9077 -3.2162
9.4970 48.8288 -4.1834
8.9602 48.6360 -4.1856
8.4294 48.4449 -4.1866
7.9058 48.2645 -4.1875
7.3876 48.0851 -4.1873
6.8746 47.9067 -4.1861
6.3666 47.7291 -4.1839
5.8635 47.5524 -4.1806
5.3652 47.3765 -4.1764
4.8715 47.2014 -4.1712
4.3823 47.0271 -4.1650
3.8974 46.8535 -4.1579
3.4169 46.6805 -4.1498
2.9404 46.5083 -4.1408
2.4801 46.5641 -4.1512
2.0674 47.7326 -4.2600
-1.0810 9.3134 -0.8204
-10.5574 36.1724 -2.9321
-10.8858 35.9715 -2.8936
-11.2119 35.7701 -2.8545
-11.5357 35.5682 -2.8147
-11.8574 35.3657 -2.7743
-12.1768 35.1626 -2.7332
-12.4941 34.9590 -2.6914
-12.8092 34.7549 -2.6490
-13.1222 34.5501 -2.6060
-13.4608 34.4152 -2.5676
-13.8015 34.2863 -2.5289
-14.1423 34.1572 -2.4894
-14.9008 35.0097 -2.5199
-15.2529 34.8798 -2.4780
-15.6053 34.7499 -2.4353
-15.9582 34.6202 -2.3918
-16.3115 34.4903 -2.3476
-16.6653 34.3602 -2.3025
-17.0196 34.2300 -2.2566
-17.3745 34.0995 -2.2098
-17.7301 33.9687 -2.1622
-18.0865 33.8377 -2.1137
-18.4437 33.7063 -2.0644
-18.8018 33.5746 -2.0141
-19.1609 33.4426 -1.9630
-19.5210 33.3102 -1.9110
-19.8823 33.1774 -1.8580
-20.2447 33.0442 -1.8041
-20.6083 32.9104 -1.7492
-20.9734 32.7762 -1.6933
-21.3398 32.6415 -1.6365
-21.7077 32.5062 -1.5786
-22.0772 32.3704 -1.5197
27.5941 35.8657 0.8306
26.8261 35.5715 0.7407
26.0812 35.2861 0.6545
25.3582 35.0091 0.5719
24.5585 34.6027 0.4908
23.9460 34.4389 0.4163
23.3005 34.2104 0.3438
7.1598 11.6882 0.0076
7.0990 11.8448 -0.0127
6.9530 11.8600 -0.0327
6.8665 11.9766 -0.0526
6.9165 12.3393 -0.0738
6.6107 12.0663 -0.0909
6.5882 12.3068 -0.1112
6.4455 12.3260 -0.1293
6.3036 12.3449 -0.1471
6.1626 12.3634 -0.1643
5.9596 12.2526 -0.1793
5.7329 12.0835 -0.1925
5.5142 11.9201 -0.2050
11.7898 48.5127 -1.7181
11.2422 48.3113 -1.7398
8.3681 37.6223 -1.3763
10.1672 47.9161 -1.7789
9.6395 47.7221 -1.7963
9.1180 47.5304 -1.8124
8.6025 47.3408 -1.8271
8.0928 47.1535 -1.8405
7.5887 46.9681 -1.8527
7.1162 46.9572 -1.8704
6.6211 46.7752 -1.8801
6.1310 46.5950 -1.8885
5.6459 46.4167 -1.8958
5.1656 46.2401 -1.9018
4.6900 46.0652 -1.9067
4.2033 45.7234 -1.9034
3.7381 45.5524 -1.9060
3.2949 45.6296 -1.9179
2.8971 46.4487 -1.9599
2.4977 47.5350 -2.0125
2.0797 48.6720 -2.0663
-1.0676 9.3243 -0.3828
-1.1609 9.3293 -0.3802
-11.2358 36.3579 -1.1280
-11.5846 36.2299 -1.0949
-11.9330 36.1021 -1.0609
-12.2810 35.9744 -1.0260
-12.6288 35.8468 -0.9902
-12.9765 35.7193 -0.9536
-13.3240 35.5918 -0.9160
-13.6714 35.4644 -0.8776
-14.0189 35.3369 -0.8382
-14.3664 35.2095 -0.7979
-14.7140 35.0820 -0.7567
-15.0619 34.9544 -0.7145
-15.4099 34.8264 -0.6714
-15.7581 34.6981 -0.6273
-16.1067 34.5697 -0.5823
-16.4558 34.4411 -0.5362
-16.8054 34.3124 -0.4892
-17.1555 34.1834 -0.4412
-17.5063 34.0542 -0.3922
-17.8578 33.9247 -0.3422
-18.2101 33.7950 -0.2911
-18.5632 33.6649 -0.2390
-18.9172 33.5345 -0.1858
-19.2723 33.4037 -0.1315
-19.6283 33.2726 -0.0762
-19.9855 33.1410 -0.0197
-20.3439 33.0090 0.0379
-20.7036 32.8765 0.0966
-21.0646 32.7435 0.1565
-21.4270 32.6101 0.2176
-21.7909 32.4760 0.2799
-22.1564 32.3414 0.3434
-14.1800 19.8649 0.2936
-14.4076 19.7777 0.3353
-14.6364 19.6900 0.3777
-14.8053 19.5215 0.4192
25.8379 34.1656 2.7518
26.2123 35.3560 2.7518
25.4722 35.0513 2.6355
24.7746 34.7841 2.5261
24.0111 34.4018 2.4123
23.4277 34.2578 2.3189
22.7864 34.0121 2.2217
22.1619 33.7729 2.1282
21.5536 33.5398 2.0383
20.9607 33.3126 1.9518
20.3826 33.0911 1.8685
19.8185 32.8750 1.7884
19.1996 32.5482 1.7052
6.7882 11.7633 0.5933
18.2100 32.2655 1.5658
17.6964 32.0688 1.4969
6.5997 12.2351 0.5491
6.3607 12.0672 0.5205
6.1302 11.9051 0.4932
6.2506 12.4300 0.4944
15.2904 31.1469 1.1889
14.8385 30.9738 1.1340
14.3428 30.6910 1.0771
13.9597 30.6339 1.0300
13.5337 30.4707 0.9810
13.1157 30.3106 0.9339
12.7054 30.1533 0.8885
12.3025 29.9989 0.8449
11.9066 29.8473 0.8029
11.5176 29.6982 0.7626
11.1353 29.5517 0.7238
10.7592 29.4076 0.6866
10.3894 29.2659 0.6508
10.0255 29.1265 0.6165
9.6314 28.8816 0.5815
9.2816 28.7517 0.5501
8.9659 28.7164 0.5217
8.6238 28.5853 0.4928
8.2868 28.4561 0.4651
7.9545 28.3288 0.4387
7.6269 28.2033 0.4134
7.3038 28.0795 0.3893
6.9851 27.9574 0.3663
6.6706 27.8368 0.3444
6.3601 27.7179 0.3236
6.0536 27.6004 0.3039
10.0145 47.8600 0.4966
9.4955 47.6692 0.4659
8.9826 47.4806 0.4369
4.8490 27.0580 0.2343
7.9740 47.1098 0.3839
7.4779 46.9274 0.3598
6.9872 46.7470 0.3373
6.5015 46.5684 0.3163
6.0207 46.3916 0.2969
5.5448 46.2166 0.2789
5.0632 45.9509 0.2619
4.6065 45.8717 0.2474
4.1440 45.7017 0.2338
3.6856 45.5331 0.2216
3.2515 45.6496 0.2121
2.8634 46.5405 0.2073
2.4680 47.6159 0.2042
2.0522 48.6917 0.2022
-1.0573 9.3615 0.0542
-1.1424 9.3080 0.0571
-6.5931 40.6637 0.3171
-6.9725 40.5242 0.3359
-7.3505 40.3852 0.3558
-7.7272 40.2467 0.3767
-8.1027 40.1087 0.3987
-4.9420 23.3028 0.2459
-5.1589 23.2196 0.2599
-5.3756 23.1387 0.2746
-5.6106 23.1362 0.2909
-5.8264 23.0535 0.3069
-6.0417 22.9710 0.3235
-6.2564 22.8887 0.3407
-6.4707 22.8066 0.3586
-6.6846 22.7246 0.3771
-6.8981 22.6428 0.3962
-7.1113 22.5611 0.4159
-7.3241 22.4795 0.4363
-7.5367 22.3980 0.4574
-7.7491 22.3166 0.4790
-7.9614 22.2352 0.5013
-8.1734 22.1539 0.5243
-8.3854 22.0727 0.5479
-8.5973 21.9915 0.5722
-8.8091 21.9102 0.5971
-9.0210 21.8290 0.6227
-9.2330 21.7478 0.6490
-9.4450 21.6665 0.6759
-9.6571 21.5852 0.7035
-9.8393 21.4384 0.7296
-10.0461 21.3464 0.7582
-10.2581 21.2651 0.7878
-10.5129 21.2699 0.8214
-10.7264 21.1881 0.8525
-10.9402 21.1061 0.8844
-11.1544 21.0240 0.9170
-11.3690 20.9417 0.9503
-11.5841 20.8593 0.9844
-11.7998 20.7766 1.0193
-12.0160 20.6937 1.0549
-12.2328 20.6106 1.0913
-12.4502 20.5273 1.1285
-12.6683 20.4436 1.1665
-12.8872 20.3597 1.2053
-13.1068 20.2755 1.2449
-13.3272 20.1910 1.2853
-13.5485 20.1062 1.3266
-13.7708 20.0210 1.3688
-13.9939 19.9355 1.4118
-14.2181 19.8495 1.4557
-14.4433 19.7632 1.5005
-14.6096 19.5958 1.5399
15.6930 21.1148 2.9042
15.7375 21.5968 2.9042
15.7787 22.0877 2.9042
15.8162 22.5874 2.9042
15.8500 23.0961 2.9042
15.8799 23.6139 2.9042
15.9055 24.1407 2.9042
15.9268 24.6767 2.9042
15.9434 25.2217 2.9042
15.9551 25.7758 2.9042
15.9617 26.3390 2.9042
15.9630 26.9114 2.9042
15.9586 27.4926 2.9042
15.9483 28.0828 2.9042
15.9319 28.6818 2.9042
6.7099 12.3534 1.2249
15.4785 29.1510 2.8309
15.0526 29.0080 2.7593
14.9695 29.5280 2.7518
14.9206 30.1352 2.7518
14.8641 30.7496 2.7518
14.8002 31.3720 2.7518
14.1280 30.6973 2.6398
13.7043 30.5350 2.5748
13.2885 30.3757 2.5120
12.8803 30.2193 2.4515
12.4794 30.0657 2.3931
12.0856 29.9148 2.3367
11.6986 29.7665 2.2824
11.3181 29.6208 2.2300
10.9440 29.4774 2.1795
10.5760 29.3364 2.1308
10.2138 29.1977 2.0839
9.8208 28.9532 2.0312
9.4712 28.8193 1.9878
9.1595 28.7896 1.9530
8.8191 28.6591 1.9127
8.4836 28.5306 1.8740
8.1530 28.4039 1.8367
7.8271 28.2790 1.8009
7.5056 28.1559 1.7666
7.1884 28.0343 1.7336
6.8754 27.9144 1.7020
6.5666 27.7961 1.6717
6.2616 27.6792 1.6427
5.9604 27.5638 1.6150
5.6629 27.4498 1.5884
5.3690 27.3372 1.5632
5.0785 27.2259 1.5390
4.7744 27.0196 1.5107
4.4915 26.9112 1.4890
4.2281 26.9090 1.4741
3.9503 26.8025 1.4544
3.6754 26.6972 1.4358
3.4033 26.5929 1.4183
3.1339 26.4897 1.4018
2.8673 26.3875 1.3863
2.6032 26.2863 1.3719
2.3416 26.1861 1.3583
2.0823 26.0867 1.3458
1.8255 25.9883 1.3342
1.5709 25.8907 1.3235
1.3184 25.7940 1.3137
1.0681 25.6981 1.3048
0.8199 25.6029 1.2968
0.5736 25.5086 1.2897
0.3292 25.4149 1.2835
0.0867 25.3220 1.2781
-0.1535 25.1392 1.2690
-0.3917 25.0489 1.2653
-0.6304 25.0462 1.2669
-0.8662 24.9559 1.2649
-1.1004 24.8661 1.2636
-1.3331 24.7769 1.2631
-1.5644 24.6883 1.2634
-1.7943 24.6002 1.2646
-2.0229 24.5126 1.2664
-2.2502 24.4255 1.2691
-2.4762 24.3388 1.2725
-2.7011 24.2527 1.2767
-1.1257 9.3010 0.4933
-3.1476 24.0816 1.2873
-3.3692 23.9966 1.2938
-3.5898 23.9121 1.3010
-3.8095 23.8279 1.3089
-4.0283 23.7440 1.3175
-4.2462 23.6605 1.3269
-4.4633 23.5773 1.3370
-4.6797 23.4944 1.3479
-4.8775 23.3267 1.3545
-5.0917 23.2446 1.3668
-5.3056 23.1647 1.3799
-5.5377 23.1634 1.3984
-5.7507 23.0818 1.4129
-5.9633 23.0003 1.4281
-6.1753 22.9190 1.4440
-6.3869 22.8379 1.4606
-6.5981 22.7570 1.4780
-6.8089 22.6762 1.4961
-7.0194 22.5955 1.5149
-7.2296 22.5150 1.5345
-7.4395 22.4345 1.5548
-7.6492 22.3541 1.5758
-7.8587 22.2738 1.5976
-8.0680 22.1936 1.6201
-8.2772 22.1134 1.6433
-8.4864 22.0332 1.6673
-8.6955 21.9531 1.6921
-8.9046 21.8729 1.7176
-9.1138 21.7927 1.7439
-9.3230 21.7125 1.7709
-9.5323 21.6323 1.7987
-9.7418 21.5520 1.8273
-9.9162 21.3954 1.8501
-10.1253 21.3153 1.8802
-10.3767 21.3213 1.9189
-10.5873 21.2406 1.9507
-10.7981 21.1598 1.9833
-11.0094 21.0788 2.0167
-11.2210 20.9977 2.0510
-11.4331 20.9164 2.0862
-11.6458 20.8349 2.1222
-11.8589 20.7532 2.1590
-12.0726 20.6712 2.1967
-12.2869 20.5891 2.2353
-12.5019 20.5067 2.2748
-12.7175 20.4240 2.3153
-12.9339 20.3411 2.3566
-13.1511 20.2578 2.3988
-13.3690 20.1742 2.4421
-13.5879 20.0903 2.4862
-13.8077 20.0061 2.5314
-14.0284 19.9215 2.5775
-14.2501 19.8365 2.6247
-14.9015 20.3361 2.7520
10.3360 14.1546 2.7518
10.3163 14.4075 2.7518
10.2938 14.6626 2.7518
10.2682 14.9199 2.7518
10.2396 15.1792 2.7518
10.2078 15.4405 2.7518
10.1728 15.7038 2.7518
10.6957 16.8532 2.9042
10.6516 17.1348 2.9042
10.6038 17.4182 2.9042
10.5522 17.7031 2.9042
10.4968 17.9896 2.9042
10.4374 18.2775 2.9042
10.3739 18.5666 2.9042
6.7031 12.2642 1.8888
6.6328 12.4096 1.8821
10.1583 19.4402 2.9042
10.0778 19.7329 2.9042
9.9928 20.0262 2.9042
9.9033 20.3197 2.9042
9.8091 20.6134 2.9042
9.7102 20.9070 2.9042
9.6065 21.2004 2.9042
9.4981 21.4933 2.9042
9.3847 21.7855 2.9042
9.2663 22.0768 2.9042
9.1429 22.3669 2.9042
9.0145 22.6557 2.9042
8.8809 22.9428 2.9042
8.7422 23.2281 2.9042
8.5984 23.5112 2.9042
8.4493 23.7919 2.9042
8.2950 24.0699 2.9042
8.1355 24.3449 2.9042
7.9707 24.6166 2.9042
7.8007 24.8848 2.9042
7.6255 25.1492 2.9042
7.4450 25.4093 2.9042
7.2594 25.6651 2.9042
7.0642 25.8997 2.9023
6.7770 25.7969 2.8636
6.4932 25.6951 2.8263
6.2130 25.5944 2.7905
5.9383 25.5042 2.7569
5.7230 25.6672 2.7518
5.5143 25.8718 2.7518
5.3013 26.0699 2.7518
5.0840 26.2611 2.7518
4.8626 26.4452 2.7518
4.6371 26.6220 2.7518
4.4079 26.7910 2.7518
4.1749 26.9522 2.7518
3.9384 27.1055 2.7518
3.6986 27.2513 2.7519
3.3526 26.5726 2.6700
3.0875 26.4711 2.6475
2.8250 26.3705 2.6262
2.5650 26.2708 2.6060
2.3074 26.1721 2.5870
2.0521 26.0743 2.5690
1.7991 25.9773 2.5521
1.5482 25.8812 2.5363
1.2995 25.7859 2.5216
1.0529 25.6914 2.5079
0.8082 25.5977 2.4952
0.5654 25.5046 2.4835
0.3246 25.4123 2.4729
0.0855 25.3207 2.4632
-0.1514 25.1393 2.4456
-0.3862 25.0502 2.4380
-0.6217 25.0488 2.4398
-0.8542 24.9597 2.4339
-1.0852 24.8711 2.4289
-1.3147 24.7832 2.4249
-1.5429 24.6957 2.4218
-1.7697 24.6088 2.4195
-1.9952 24.5224 2.4182
-2.2195 24.4364 2.4177
-2.4426 24.3510 2.4182
-2.6645 24.2659 2.4194
-1.1096 9.2995 0.9313
-3.1051 24.0971 2.4246
-3.3238 24.0133 2.4285
-3.5415 23.9298 2.4332
-3.7584 23.8467 2.4387
-3.9743 23.7639 2.4451
-4.1894 23.6815 2.4523
-4.4038 23.5994 2.4604
-4.6173 23.5175 2.4693
-4.8301 23.4359 2.4790
-5.0240 23.2698 2.4805
-5.2347 23.1890 2.4918
-5.4643 23.1908 2.5128
-5.6746 23.1102 2.5258
-5.8844 23.0298 2.5396
-6.0937 22.9495 2.5543
-6.3026 22.8695 2.5697
-6.5111 22.7896 2.5860
-6.7192 22.7098 2.6031
-6.9269 22.6302 2.6210
-7.1344 22.5507 2.6397
-7.3416 22.4713 2.6593
-7.7521 22.9961 2.7520
-7.9017 22.7339 2.7519
-8.0462 22.4690 2.7518
-8.1860 22.2022 2.7518
-8.3209 21.9334 2.7518
-8.4510 21.6625 2.7518
-8.5761 21.3900 2.7518
-8.6965 21.1160 2.7518
-8.8120 20.8407 2.7518
-8.9229 20.5645 2.7518
-9.0290 20.2874 2.7518
-9.1305 20.0097 2.7518
-9.2274 19.7317 2.7518
-9.3883 19.5961 2.7719
-9.5761 19.5181 2.8010
-9.7641 19.4398 2.8308
-9.9523 19.3614 2.8614
-10.1406 19.2827 2.8929
-10.2552 19.0661 2.9042
-10.3257 18.7751 2.9042
-10.3922 18.4852 2.9042
-10.4545 18.1964 2.9042
-10.5128 17.9089 2.9042
-10.5671 17.6228 2.9042
-10.6176 17.3383 2.9042
-10.6643 17.0555 2.9042
-10.7074 16.7744 2.9042
-10.7469 16.4951 2.9042
-10.7829 16.2179 2.9042
-10.8155 15.9427 2.9042
-10.8448 15.6696 2.9042
-10.8709 15.3987 2.9042
-10.8938 15.1301 2.9042
8.1721 11.3945 2.8644
7.9661 11.3259 2.8048
7.7781 11.2778 2.7518
7.7384 11.4442 2.7518
7.6967 11.6112 2.7518
7.6525 11.7786 2.7518
7.6060 11.9463 2.7518
7.5571 12.1143 2.7518
7.5058 12.2825 2.7518
7.4521 12.4508 2.7518
7.3959 12.6192 2.7518
7.3371 12.7876 2.7518
7.2759 12.9559 2.7518
6.8085 12.3897 2.5978
6.6193 12.3129 2.5491
6.5550 12.4674 2.5490
7.0048 13.6263 2.7518
6.9304 13.7928 2.7518
6.8533 13.9588 2.7518
6.7735 14.1239 2.7518
6.6910 14.2883 2.7518
6.6057 14.4518 2.7518
6.8786 15.4236 2.9042
6.7827 15.5938 2.9042
6.6839 15.7627 2.9042
6.5822 15.9302 2.9042
6.4775 16.0962 2.9042
6.3698 16.2605 2.9042
6.2593 16.4231 2.9042
6.1457 16.5837 2.9042
6.0293 16.7424 2.9042
5.9098 16.8988 2.9042
5.7875 17.0530 2.9042
5.6624 17.2049 2.9042
5.5343 17.3541 2.9042
5.4034 17.5007 2.9042
5.2697 17.6446 2.9042
5.1333 17.7855 2.9042
4.9940 17.9234 2.9042
4.8521 18.0581 2.9042
4.7075 18.1895 2.9042
4.5603 18.3175 2.9042
4.4106 18.4419 2.9042
4.2584 18.5627 2.9042
4.1037 18.6797 2.9042
3.9467 18.7928 2.9042
3.7874 18.9019 2.9042
3.6258 19.0068 2.9042
3.4621 19.1075 2.9042
3.2963 19.2038 2.9042
3.1285 19.2957 2.9042
2.9588 19.3830 2.9042
2.7873 19.4657 2.9042
2.6141 19.5436 2.9042
2.4392 19.6167 2.9042
2.2629 19.6849 2.9042
2.0850 19.7480 2.9042
1.9059 19.8061 2.9042
1.7256 19.8591 2.9042
1.5442 19.9069 2.9042
1.3618 19.9494 2.9042
1.1785 19.9867 2.9042
0.9944 20.0185 2.9042
0.8097 20.0450 2.9042
0.6245 20.0661 2.9042
0.4389 20.0817 2.9042
0.2530 20.0919 2.9042
0.0669 20.0966 2.9042
-0.1192 20.0958 2.9042
-0.3053 20.0896 2.9042
-0.4911 20.0779 2.9042
-0.6766 20.0607 2.9042
-0.8617 20.0381 2.9042
-1.0462 20.0101 2.9042
-1.2301 19.9767 2.9042
-1.4131 19.9380 2.9042
-1.5953 19.8940 2.9042
-1.7764 19.8447 2.9042
-1.9564 19.7903 2.9042
-2.1352 19.7308 2.9042
-1.0934 9.2980 1.3731
-2.4885 19.5966 2.9042
-2.6630 19.5222 2.9042
-2.8357 19.4429 2.9042
-3.0067 19.3589 2.9042
-3.1759 19.2703 2.9042
-3.3431 19.1772 2.9042
-3.5083 19.0796 2.9042
-3.6714 18.9777 2.9042
-3.8324 18.8716 2.9042
-3.9911 18.7614 2.9042
-4.1474 18.6472 2.9042
-4.3014 18.5291 2.9042
-4.4530 18.4073 2.9042
-4.6020 18.2818 2.9042
-4.7484 18.1529 2.9042
-4.8923 18.0205 2.9042
-5.0334 17.8849 2.9042
-5.1719 17.7461 2.9042
-5.3076 17.6044 2.9042
-5.4405 17.4598 2.9042
-5.5706 17.3124 2.9042
-5.6979 17.1624 2.9042
-5.8222 17.0099 2.9042
-5.9437 16.8550 2.9042
-6.0623 16.6979 2.9042
-6.1779 16.5387 2.9042
-6.2906 16.3776 2.9042
-6.4004 16.2145 2.9042
-6.5072 16.0497 2.9042
-6.6111 15.8833 2.9042
-6.7120 15.7154 2.9042
-6.8100 15.5460 2.9042
-6.9050 15.3754 2.9042
-6.9971 15.2037 2.9042
-7.0863 15.0309 2.9042
-7.1726 14.8572 2.9042
-7.2560 14.6826 2.9042
-7.3366 14.5074 2.9042
-7.4143 14.3314 2.9042
-7.4892 14.1550 2.9042
-7.5613 13.9781 2.9042
-7.6307 13.8009 2.9042
-7.6973 13.6234 2.9042
-7.7612 13.4458 2.9042
-7.8224 13.2681 2.9042
-7.8810 13.0904 2.9042
-7.9370 12.9128 2.9042
-7.9904 12.7353 2.9042
-8.0413 12.5581 2.9042
-8.0895 12.3813 2.9042
-8.1356 12.2047 2.9042
-8.1791 12.0286 2.9042
-8.2202 11.8530 2.9042
-8.2590 11.6780 2.9042
6.6232 9.4069 2.9042
6.5827 9.5322 2.9042
6.5406 9.6576 2.9042
6.4966 9.7830 2.9042
6.4509 9.9083 2.9042
6.4033 10.0334 2.9042
6.3539 10.1585 2.9042
6.3027 10.2833 2.9042
6.2497 10.4078 2.9042
6.1947 10.5321 2.9042
6.1023 10.5942 2.8873
5.9455 10.5423 2.8403
5.7916 10.4912 2.7946
5.6436 10.4463 2.7518
5.5825 10.5618 2.7518
5.5194 10.6766 2.7518
5.4548 10.7909 2.7518
5.3882 10.9043 2.7518
5.3198 11.0170 2.7518
5.2495 11.1289 2.7518
5.1774 11.2398 2.7518
5.1034 11.3498 2.7518
5.0276 11.4587 2.7518
4.9499 11.5666 2.7518
4.8703 11.6733 2.7518
4.7890 11.7788 2.7518
4.7058 11.8830 2.7518
4.6207 11.9859 2.7518
4.5339 12.0873 2.7518
4.4452 12.1873 2.7518
4.1686 12.4777 2.7518
4.3548 12.2857 2.7518
4.2626 12.3825 2.7518
4.0729 12.5711 2.7518
3.7757 12.8403 2.7518
3.9756 12.6627 2.7518
3.6734 12.9261 2.7518
3.8765 12.7525 2.7518
3.5694 13.0099 2.7518
3.4638 13.0915 2.7518
3.3567 13.1710 2.7518
3.0749 14.2116 2.9042
3.4280 13.9819 2.9042
2.9543 14.2829 2.9042
2.8323 14.3517 2.9042
3.3118 14.0610 2.9042
2.7090 14.4177 2.9042
2.5844 14.4809 2.9042
3.1941 14.1376 2.9042
2.4586 14.5412 2.9042
2.0742 14.7048 2.9042
2.3316 14.5987 2.9042
1.9440 14.7534 2.9042
2.2034 14.6533 2.9042
1.5478 14.8804 2.9042
1.8128 14.7988 2.9042
1.4141 14.9164 2.9042
1.6807 14.8412 2.9042
1.2797 14.9492 2.9042
1.0091 15.0050 2.9042
1.1447 14.9788 2.9042
0.4623 15.0771 2.9042
0.8730 15.0281 2.9042
0.3249 15.0867 2.9042
0.7365 15.0477 2.9042
0.1872 15.0930 2.9042
0.5995 15.0641 2.9042
0.0495 15.0959 2.9042
-0.0882 15.0954 2.9042
-0.6380 15.0598 2.9042
-0.7749 15.0425 2.9042
-0.2259 15.0916 2.9042
-0.9113 15.0219 2.9042
-1.1827 14.9708 2.9042
-0.3635 15.0844 2.9042
-1.0473 14.9980 2.9042
-1.3176 14.9403 2.9042
-0.5009 15.0738 2.9042
-1.0782 9.3075 1.8227
-1.1671 9.3296 1.8324
-1.4518 14.9066 2.9042
-2.2396 14.6382 2.9042
-1.9807 14.7400 2.9042
-1.5852 14.8697 2.9042
-2.3674 14.5828 2.9042
-2.1106 14.6906 2.9042
-3.2273 14.1163 2.9042
-2.7438 14.3994 2.9042
-2.4941 14.5245 2.9042
-3.3446 14.0390 2.9042
-2.8668 14.3326 2.9042
-2.6196 14.4634 2.9042
-3.4604 13.9592 2.9042
-3.5746 13.8771 2.9042
-2.9883 14.2631 2.9042
-3.6871 13.7926 2.9042
-4.1207 13.4323 2.9042
-3.1086 14.1910 2.9042
-3.7981 13.7058 2.9042
-4.2248 13.3370 2.9042
-4.3271 13.2398 2.9042
-4.5262 13.0398 2.9042
-3.9073 13.6168 2.9042
-4.4276 13.1407 2.9042
-4.6230 12.9371 2.9042
-4.0149 13.5256 2.9042
-4.9020 12.6193 2.9042
-4.9912 12.5103 2.9042
-4.7179 12.8327 2.9042
-5.2473 12.1753 2.9042
-5.0785 12.4000 2.9042
-4.8109 12.7268 2.9042
-5.3287 12.0611 2.9042
-5.1638 12.2883 2.9042
-5.8441 11.2339 2.9042
-5.4082 11.9458 2.9042
-5.5613 11.7121 2.9042
-5.9099 11.1125 2.9042
-5.4857 11.8295 2.9042
-5.6349 11.5938 2.9042
-5.9738 10.9905 2.9042
-6.0358 10.8679 2.9042
-6.0959 10.7447 2.9042
-5.7066 11.4746 2.9042
-6.3173 10.2482 2.9042
-5.7763 11.3547 2.9042
-6.1541 10.6211 2.9042
-6.0338 9.5921 2.7518
-6.2103 10.4972 2.9042
-6.0801 9.4736 2.7518
-6.1247 9.3549 2.7518
-6.2647 10.3728 2.9042
-6.1675 9.2362 2.7518
-6.2087 9.1174 2.7518
-6.2483 8.9986 2.7518
5.4714 7.9200 2.9042
5.4318 8.0155 2.9042
5.3909 8.1107 2.9042
5.3486 8.2057 2.9042
5.3050 8.3005 2.9042
5.2600 8.3950 2.9042
5.2135 8.4891 2.9042
5.1657 8.5828 2.9042
5.1165 8.6762 2.9042
5.0659 8.7691 2.9042
5.0139 8.8615 2.9042
4.9605 8.9535 2.9042
4.9057 9.0448 2.9042
4.8494 9.1356 2.9042
4.7917 9.2258 2.9042
4.7326 9.3152 2.9042
4.6721 9.4040 2.9042
4.6102 9.4920 2.9042
4.5468 9.5792 2.9042
4.4821 9.6656 2.9042
4.4159 9.7511 2.9042
4.3483 9.8357 2.9042
4.2650 9.8861 2.8944
4.1432 9.8456 2.8588
4.0233 9.8056 2.8241
3.9051 9.7662 2.7905
3.7887 9.7272 2.7578
3.7085 9.7799 2.7518
3.6354 9.8529 2.7518
3.5610 9.9246 2.7518
3.4854 9.9951 2.7518
3.4085 10.0643 2.7518
3.3305 10.1322 2.7518
3.2512 10.1987 2.7518
3.1708 10.2639 2.7518
3.0892 10.3276 2.7518
3.0065 10.3899 2.7518
2.9227 10.4506 2.7518
2.8378 10.5098 2.7518
2.7518 10.5674 2.7518
2.6648 10.6234 2.7518
2.5767 10.6777 2.7518
2.3067 10.8303 2.7518
2.4877 10.7303 2.7518
2.3977 10.7812 2.7518
2.2149 10.8777 2.7518
1.9343 11.0086 2.7518
2.1222 10.9232 2.7518
1.8391 11.0484 2.7518
1.7432 11.0863 2.7518
2.0286 10.9668 2.7518
1.6467 11.1222 2.7518
1.5494 11.1562 2.7518
1.1544 11.2715 2.7518
1.0544 11.2951 2.7518
1.4515 11.1881 2.7518
0.9539 11.3166 2.7518
1.3530 11.2179 2.7518
0.8531 11.3359 2.7518
0.7518 11.3531 2.7518
1.2540 11.2457 2.7518
0.6503 11.3682 2.7518
0.3442 11.4002 2.7518
0.5485 11.3811 2.7518
0.4465 11.3918 2.7518
0.2419 11.4065 2.7518
-0.0657 11.4122 2.7518
0.1394 11.4106 2.7518
-0.1682 11.4097 2.7518
-0.2706 11.4050 2.7518
0.0369 11.4125 2.7518
-0.3730 11.3981 2.7518
-0.4751 11.3890 2.7518
-0.8815 11.3307 2.7518
-0.5771 11.3777 2.7518
-0.9822 11.3107 2.7518
-1.0825 11.2887 2.7518
-0.6789 11.3642 2.7518
-1.1825 11.2644 2.7518
-0.7803 11.3485 2.7518
-1.0631 9.3200 2.2821
-1.6739 11.1123 2.7518
-1.1462 9.3056 2.2843
-1.4791 11.1793 2.7518
-1.7702 11.0758 2.7518
-1.5768 11.1468 2.7518
-1.8659 11.0374 2.7518
-2.0550 10.9547 2.7518
-2.1483 10.9105 2.7518
-1.9609 10.9970 2.7518
-2.2408 10.8645 2.7518
-2.4231 10.7670 2.7518
-2.3324 10.8167 2.7518
-2.7761 10.5513 2.7518
-2.5128 10.7157 2.7518
-2.8617 10.4933 2.7518
-2.6016 10.6626 2.7518
-2.9464 10.4337 2.7518
-3.0299 10.3725 2.7518
-2.6893 10.6078 2.7518
-3.1123 10.3098 2.7518
-3.4303 10.0449 2.7518
-3.7288 9.7592 2.7518
-3.1935 10.2457 2.7518
-3.5067 9.9754 2.7518
-3.5820 9.9045 2.7518
-3.8003 9.6848 2.7518
-3.2736 10.1802 2.7518
-4.0070 9.4552 2.7518
-3.6560 9.8325 2.7518
-3.8705 9.6093 2.7518
-3.3526 10.1132 2.7518
-4.2642 9.1355 2.7518
-4.0733 9.3766 2.7518
-4.3252 9.0534 2.7518
-3.9394 9.5327 2.7518
-4.1383 9.2971 2.7518
-4.5001 8.8026 2.7518
-4.3849 8.9705 2.7518
-4.7145 8.4592 2.7518
-4.5557 8.7177 2.7518
-4.2019 9.2167 2.7518
-4.4432 8.8869 2.7518
-4.7648 8.3719 2.7518
-4.9075 8.1075 2.7518
-4.8137 8.2842 2.7518
-4.6100 8.6321 2.7518
-4.9524 8.0185 2.7518
-4.8613 8.1960 2.7518
-4.6630 8.5459 2.7518
-4.9960 7.9293 2.7518
-5.0383 7.8397 2.7518
-5.0793 7.7498 2.7518
-5.1190 7.6597 2.7518
-5.1574 7.5694 2.7518
