ply
format ascii 1.0
element vertex 2057
property float32 x
property float32 y
property float32 z
end_header
-12.0616 -11.2651 0.3361
-11.4180 -11.5219 0.4626
-11.2661 -11.5907 0.4931
-11.1446 -11.6901 0.5245
-11.0295 -11.7959 0.5560
-10.9143 -11.9018 0.5871
-10.7990 -12.0078 0.6180
-10.6879 -12.1186 0.6489
-10.6034 -12.2606 0.6813
-10.5184 -12.4037 0.7136
-10.4327 -12.5477 0.7459
-10.3488 -12.6957 0.7783
-8.7288 6.0787 -3.2753
-8.8349 6.0210 -3.2648
-8.9421 5.9627 -3.2544
-9.0504 5.9039 -3.2440
-9.1598 5.8445 -3.2337
-9.2703 5.7846 -3.2235
-9.3821 5.7241 -3.2134
-9.9567 5.9383 -3.3590
-9.2105 5.3688 -3.0607
-9.6575 5.5004 -3.1612
-9.6173 5.3507 -3.1010
-9.8747 5.3653 -3.1364
-9.9337 5.2695 -3.1079
-9.9928 5.1738 -3.0797
-10.0095 5.0566 -3.0387
-9.9774 4.9163 -2.9837
-10.5226 5.0555 -3.0996
-10.3744 4.8579 -3.0101
-10.2319 4.6679 -2.9242
-10.6050 4.7117 -2.9853
-10.2923 4.4512 -2.8537
-10.9879 4.6235 -3.0006
-11.0503 4.5216 -2.9720
-9.4319 3.7511 -2.4983
-9.3533 3.6133 -2.4399
-43.4493 14.3718 -10.4904
-43.9299 14.0539 -10.4417
-44.4174 13.7311 -10.3928
-43.7698 13.0624 -10.0806
-44.4512 12.7932 -10.0762
-44.2105 12.2569 -9.8628
-44.1333 11.7721 -9.6886
-44.6419 11.4420 -9.6432
-44.7274 10.9998 -9.5057
-44.6367 10.5170 -9.3323
-46.6498 10.0363 -9.4356
-47.8257 9.8034 -9.5129
-47.7024 9.2957 -9.3296
-17.2045 2.4936 -3.0857
-26.0658 0.7318 -3.7215
-24.4919 0.4518 -3.4251
-24.8875 -0.7375 -3.1219
-25.0672 0.2212 -3.4326
-25.1632 -0.9876 -3.0850
-24.4271 -0.0194 -3.2742
-25.2869 -1.2357 -3.0286
-24.5983 -1.4389 -2.8769
-26.2577 -0.2733 -3.4440
-23.9505 -1.6317 -2.7339
-24.9083 -0.4987 -3.1956
-25.8820 -2.0129 -2.8820
-41.8731 -5.6928 -3.9685
-41.8381 -6.0968 -3.8507
-41.8711 -6.5118 -3.7394
-40.3983 -7.0776 -3.3879
-40.3822 -6.6769 -3.4964
-41.0454 -7.5968 -3.3308
-40.1448 -7.8283 -3.1489
-40.0102 -8.2004 -3.0300
-40.1970 -21.9310 0.3787
-36.5922 -20.4240 0.4507
-24.9496 -15.5477 0.6755
-23.4002 -14.8978 0.7041
-33.5366 -19.1445 0.5108
-22.0225 -14.3213 0.7295
-30.8993 -18.0359 0.5612
-20.7762 -13.7983 0.7518
-19.6460 -13.3231 0.7715
-28.6661 -17.1050 0.6052
-18.6193 -12.8914 0.7891
-26.6895 -16.2767 0.6428
-17.7110 -12.5177 0.8062
-16.6946 -12.0434 0.8129
-14.5949 -11.1876 0.8520
-15.7545 -11.5988 0.8175
-14.1824 -11.0914 0.8747
-15.0442 -11.3022 0.8292
-13.8825 -11.0757 0.9024
-13.0901 -11.0828 0.9847
-12.8595 -11.1040 1.0122
-13.5905 -11.0603 0.9292
-12.6337 -11.1253 1.0390
-13.3250 -11.0611 0.9564
-12.4409 -11.1725 1.0677
-12.0625 -11.2649 1.1232
-12.2505 -11.2190 1.0957
-11.8795 -11.3128 1.1504
-11.7229 -11.3838 1.1796
-11.5673 -11.4542 1.2083
-11.4129 -11.5242 1.2366
-11.2594 -11.5937 1.2645
-11.1384 -11.6958 1.2956
-11.0221 -11.8027 1.3271
-10.9057 -11.9097 1.3584
-10.7893 -12.0168 1.3895
-10.6799 -12.1321 1.4214
-10.5945 -12.2757 1.4565
-10.5085 -12.4203 1.4916
-10.4218 -12.5660 1.5267
-9.2782 6.6177 -2.9518
-9.5428 6.6629 -2.9858
-9.7007 6.6295 -2.9850
-9.9759 6.6719 -3.0190
-9.3955 6.1485 -2.7963
-10.2044 6.5332 -2.9869
-8.9844 5.6264 -2.5862
-9.1716 5.6170 -2.5964
-9.8046 5.8710 -2.7295
-9.5488 5.5894 -2.6141
-9.5483 5.4623 -2.5705
-9.6056 5.3691 -2.5428
-9.6631 5.2760 -2.5152
-10.1286 5.4004 -2.5921
-10.2510 5.3358 -2.5793
-10.3749 5.2704 -2.5664
-10.1471 5.0290 -2.4675
-10.6364 5.1411 -2.5425
-10.2813 4.8448 -2.4156
-9.8942 4.5436 -2.2847
-9.6693 4.3254 -2.1943
-35.5146 13.8344 -7.3764
-9.5845 4.1746 -2.1373
-38.0423 14.3908 -7.7599
-9.5019 4.0279 -2.0819
-9.4215 3.8849 -2.0281
-9.3432 3.7456 -1.9757
-38.7476 13.7958 -7.6202
-39.2705 13.5503 -7.5816
-39.5657 13.2205 -7.4974
-39.3391 12.7188 -7.3156
-44.1275 12.3875 -7.5972
-44.7807 12.1016 -7.5586
-44.3397 13.8587 -8.0904
-45.2826 11.7655 -7.4920
-44.4751 13.4259 -7.9610
-47.3231 11.8056 -7.6727
-47.5335 11.3684 -7.5505
-47.3968 10.8500 -7.3741
-43.8011 12.7577 -7.6900
-46.8353 10.2440 -7.1352
-48.3741 8.1480 -6.6037
-24.5204 0.5434 -2.2497
-24.4339 0.3063 -2.1714
-24.3861 -0.3978 -1.9582
-23.9426 0.0699 -2.0592
-24.9163 -0.6460 -1.9300
-24.9888 -0.1673 -2.0777
-25.0329 -0.8898 -1.8681
-25.5964 -1.6493 -1.6937
-25.4353 -1.1489 -1.8263
-25.7498 -1.9077 -1.6316
-25.3905 -2.1264 -1.5377
-25.1564 -1.3785 -1.7354
-25.2608 -2.3599 -1.4592
-25.1322 -2.5916 -1.3815
-40.7176 -6.5855 -1.5577
-40.7792 -6.9977 -1.4466
-40.3034 -6.1221 -1.6540
-41.0780 -8.6845 -0.9994
-41.0508 -7.4507 -1.3419
-40.8745 -9.0523 -0.8803
-40.3018 -7.7151 -1.2052
-41.1133 -8.2804 -1.1149
-41.0060 -22.2669 2.6077
-37.2550 -20.7002 2.4881
-34.0814 -19.3718 2.3859
-31.3663 -18.2335 2.2978
-29.0425 -17.2621 2.2227
-27.0059 -16.4086 2.1562
-25.2226 -15.6627 2.0980
-23.6346 -14.9970 2.0456
-22.2225 -14.4061 1.9990
-20.9500 -13.8728 1.9566
-19.7949 -13.3870 1.9175
-18.7470 -12.9464 1.8819
-17.8167 -12.5623 1.8518
-16.7935 -12.0879 1.8058
-15.8327 -11.6326 1.7601
-15.1072 -11.3285 1.7351
-14.6313 -11.1968 1.7349
-14.2051 -11.0926 1.7380
-13.9021 -11.0767 1.7541
-13.6070 -11.0612 1.7696
-13.3365 -11.0600 1.7868
-13.0993 -11.0819 1.8073
-12.8664 -11.1034 1.8272
-12.6378 -11.1244 1.8466
-12.4431 -11.1719 1.8700
-12.2510 -11.2189 1.8930
-12.0612 -11.2652 1.9155
-11.8769 -11.3140 1.9382
-11.7187 -11.3856 1.9645
-11.5617 -11.4568 1.9904
-11.4058 -11.5274 2.0161
-11.2509 -11.5976 2.0415
-11.1307 -11.7028 2.0728
-11.0132 -11.8109 2.1045
-10.8957 -11.9190 2.1361
-10.7780 -12.0271 2.1675
-10.6708 -12.1474 2.2011
-10.5844 -12.2926 2.2391
-10.4974 -12.4389 2.2772
-8.6318 6.3010 -2.2572
-8.7391 6.2468 -2.2430
-8.8474 6.1920 -2.2288
-8.9568 6.1368 -2.2145
-9.0673 6.0810 -2.2000
-9.1790 6.0246 -2.1855
-9.7020 6.2310 -2.2667
-9.7901 6.1514 -2.2442
-10.0307 6.1648 -2.2558
-9.8912 5.9451 -2.1821
-9.7441 5.7263 -2.1085
-9.7611 5.6072 -2.0715
-9.7119 5.4522 -2.0211
-9.7947 5.3723 -1.9986
-9.5281 5.1046 -1.9060
-10.1204 5.2943 -1.9844
-10.1935 5.2054 -1.9589
-10.2670 5.1163 -1.9334
-9.7269 4.7284 -1.7945
-10.3754 4.9183 -1.8750
-9.6581 4.4628 -1.7093
-9.5737 4.3104 -1.6590
-9.4915 4.1620 -1.6101
-9.4113 4.0175 -1.5624
-9.3332 3.8766 -1.5161
-36.5235 14.7535 -5.8033
-38.0417 14.9362 -5.9110
-39.5466 15.0832 -6.0074
-37.7814 13.9893 -5.6091
-38.2783 13.7504 -5.5521
-42.6400 14.8497 -6.0405
-45.9386 15.4986 -6.3537
-45.6033 14.8927 -6.1555
-46.3375 14.6353 -6.1017
-47.2582 14.4224 -6.0682
-47.5001 13.9933 -5.9449
-47.4802 13.4878 -5.7893
-47.4857 12.9928 -5.6379
-46.7457 12.3042 -5.4014
-44.4300 10.3238 -4.7157
-44.9555 9.9883 -4.6322
-45.0029 9.5429 -4.4985
-44.6810 9.0240 -4.3296
-44.3650 8.5147 -4.1639
-46.0045 8.3692 -4.1784
-46.4618 7.9896 -4.0800
-17.2112 2.4489 -1.3573
-25.5082 0.4119 -1.0507
-25.5782 0.1670 -0.9807
-24.7144 -0.0763 -0.8773
-24.5137 -0.3114 -0.8006
-25.0805 -0.5598 -0.7480
-24.8684 -0.7944 -0.6712
-25.4695 -1.0587 -0.6154
-25.1194 -1.2862 -0.5358
-25.3771 -1.5441 -0.4696
-25.2447 -1.7797 -0.3957
-25.1216 -2.0139 -0.3227
-24.9996 -2.2462 -0.2504
-33.9773 -4.3753 0.0448
-41.2209 -7.3377 0.6420
-46.1591 -15.8348 2.8948
-44.0081 -15.5743 2.8948
-42.0375 -15.3362 2.8948
-40.2248 -15.1177 2.8948
-38.5518 -14.9166 2.8948
-37.0023 -14.7309 2.8948
-35.5632 -14.5589 2.8948
-34.2225 -14.3992 2.8948
-32.9702 -14.2505 2.8948
-31.7977 -14.1116 2.8948
-30.6975 -13.9818 2.8948
-29.6626 -13.8602 2.8948
-28.6873 -13.7459 2.8948
-27.7664 -13.6384 2.8948
-25.2865 -13.3512 2.8948
-26.8953 -13.5371 2.8948
-26.0700 -13.4416 2.8948
-24.5420 -13.2658 2.8948
-20.7430 -12.2827 2.7424
-23.8331 -13.1847 2.8948
-20.1841 -12.2200 2.7424
-22.5603 -12.7699 2.8202
-19.6487 -12.1603 2.7424
-21.3271 -12.3485 2.7424
-19.1351 -12.1033 2.7424
-18.1681 -11.9969 2.7424
-18.6420 -12.0489 2.7424
-17.7121 -11.9471 2.7424
-15.9199 -11.6746 2.7206
-15.1657 -11.3530 2.6547
-17.2730 -11.8995 2.7424
-14.6648 -11.2052 2.6289
-16.8498 -11.8538 2.7424
-14.2277 -11.0953 2.6114
-16.4416 -11.8101 2.7424
-13.9195 -11.0776 2.6153
-13.6215 -11.0620 2.6193
-12.4439 -11.1717 2.6810
-13.3462 -11.0591 2.6262
-12.2499 -11.2191 2.6989
-13.1067 -11.0812 2.6387
-12.0584 -11.2659 2.7166
-12.8716 -11.1029 2.6510
-11.8603 -11.3037 2.7319
-12.6408 -11.1242 2.6630
-11.5779 -11.2564 2.7264
-11.2932 -11.2005 2.7186
-11.0090 -11.1383 2.7091
-10.7315 -11.0762 2.6994
-10.4711 -11.0254 2.6922
-10.2058 -10.9633 2.6821
-9.9599 -10.9158 2.6753
-9.7162 -10.8650 2.6676
-9.4925 -10.8310 2.6638
-9.2918 -10.8186 2.6652
-8.7135 6.5058 -1.7865
-8.8715 6.4882 -1.7799
-9.0309 6.4687 -1.7728
-9.1176 6.3955 -1.7509
-8.7018 5.9766 -1.6344
-8.8072 5.9220 -1.6176
-8.9136 5.8669 -1.6007
-9.0211 5.8111 -1.5836
-9.1298 5.7548 -1.5662
-9.2396 5.6979 -1.5487
-9.3506 5.6403 -1.5310
-9.6303 5.6808 -1.5398
-9.5739 5.5217 -1.4944
-9.6434 5.4365 -1.4691
-9.7131 5.3510 -1.4437
-9.7830 5.2653 -1.4182
-9.8531 5.1794 -1.3926
-10.1975 5.2338 -1.4047
-10.0730 5.0462 -1.3517
-10.3640 5.0660 -1.3543
-9.6471 4.5995 -1.2270
-9.5628 4.4453 -1.1833
-9.4809 4.2954 -1.1408
-9.4011 4.1493 -1.0993
-9.3232 4.0070 -1.0589
-10.7824 4.5103 -1.1887
-35.6092 14.4902 -3.8081
-37.2622 14.7424 -3.8628
-37.2264 14.3116 -3.7381
-36.8195 13.7465 -3.5785
-37.8276 13.7061 -3.5553
-38.1036 13.3894 -3.4601
-38.8068 13.2153 -3.4014
-38.8047 12.7963 -3.2796
-38.4228 12.2591 -3.1275
-40.5637 12.5108 -3.1762
-46.4989 13.8501 -3.4977
-46.8112 13.4516 -3.3779
-47.1258 13.0501 -3.2572
-47.6017 12.6879 -3.1460
-47.7598 12.2371 -3.0126
-17.2018 2.5077 -0.5292
-25.0976 -0.4708 0.4435
-25.6479 -0.7279 0.5262
-25.4929 -1.2147 0.6682
-24.9577 -1.4299 0.7254
-45.0254 -7.4125 2.7424
-42.9449 -7.4961 2.7424
-41.0405 -7.5724 2.7424
-39.2909 -7.6424 2.7424
-37.6770 -7.7068 2.7424
-38.1949 -8.1978 2.8948
-36.7319 -8.2558 2.8948
-35.3703 -8.3097 2.8948
-34.0994 -8.3599 2.8948
-32.9103 -8.4067 2.8948
-31.7950 -8.4504 2.8948
-30.7469 -8.4914 2.8948
-29.7597 -8.5299 2.8948
-28.8281 -8.5660 2.8948
-27.9474 -8.6001 2.8948
-27.1134 -8.6323 2.8948
-26.3223 -8.6627 2.8948
-25.5707 -8.6914 2.8948
-24.8557 -8.7187 2.8948
-24.1744 -8.7445 2.8948
-23.5244 -8.7691 2.8948
-22.9034 -8.7925 2.8948
-22.3096 -8.8147 2.8948
-21.7410 -8.8360 2.8948
-21.1959 -8.8562 2.8948
-20.6728 -8.8755 2.8948
-20.1703 -8.8940 2.8948
-19.6871 -8.9117 2.8948
-19.2221 -8.9286 2.8948
-18.7741 -8.9448 2.8948
-18.3422 -8.9604 2.8948
-17.9254 -8.9753 2.8948
-17.5228 -8.9897 2.8948
-17.1338 -9.0035 2.8948
-16.7574 -9.0167 2.8948
-16.3931 -9.0295 2.8948
-16.0401 -9.0417 2.8948
-15.6980 -9.0536 2.8948
-15.3662 -9.0650 2.8948
-15.0441 -9.0760 2.8948
-14.7313 -9.0866 2.8948
-14.4273 -9.0968 2.8948
-14.1316 -9.1067 2.8948
-13.8440 -9.1162 2.8948
-13.5639 -9.1255 2.8948
-13.2347 -9.0956 2.8825
-12.9409 -9.0837 2.8760
-12.6811 -9.0904 2.8755
-12.4453 -9.1097 2.8791
-12.2284 -9.1388 2.8858
-12.0060 -9.1601 2.8901
-11.7622 -9.1606 2.8880
-11.5233 -9.1603 2.8856
-11.2889 -9.1591 2.8831
-11.0593 -9.1572 2.8804
-10.8343 -9.1548 2.8776
-10.6121 -9.1503 2.8742
-10.3888 -9.1405 2.8692
-10.1790 -9.1383 2.8667
-9.9817 -9.1434 2.8665
-9.7882 -9.1483 2.8663
-9.5984 -9.1530 2.8661
-9.4088 -9.1544 2.8649
-9.2197 -9.1526 2.8628
-9.0343 -9.1509 2.8607
-8.8524 -9.1491 2.8586
-8.6738 -9.1472 2.8566
-8.4969 -9.1436 2.8541
-8.3234 -9.1403 2.8517
-8.1531 -9.1371 2.8493
-7.9858 -9.1338 2.8470
-8.4719 6.4668 -1.2581
-8.6129 6.4417 -1.2449
-8.7564 6.4160 -1.2314
-8.7821 6.3034 -1.2011
-8.8652 6.2324 -1.1786
-8.9486 6.1610 -1.1561
-9.0324 6.0893 -1.1333
-9.1166 6.0172 -1.1104
-9.2011 5.9448 -1.0872
-9.2860 5.8719 -1.0639
-9.3714 5.7987 -1.0404
-9.4572 5.7250 -1.0167
-9.5672 5.6649 -0.9952
-9.7742 5.6595 -0.9831
-9.7677 5.5295 -0.9491
-9.7613 5.4011 -0.9155
-9.7549 5.2743 -0.8823
-9.1962 4.8573 -0.8013
-10.0577 5.1880 -0.8432
-10.0792 5.0758 -0.8122
-9.5710 4.7040 -0.7403
-9.4958 4.5532 -0.7040
-9.4226 4.4062 -0.6686
-9.3511 4.2629 -0.6340
-9.2812 4.1229 -0.6001
-35.5858 15.3972 -2.1901
-36.0413 15.1819 -2.1066
-37.7552 15.4756 -2.0907
-37.9633 15.1339 -1.9862
-37.6846 14.6023 -1.8571
-38.5189 14.4992 -1.7819
-38.6127 14.1102 -1.6703
-38.3496 13.5959 -1.5443
-40.1639 13.8043 -1.4980
-40.2632 13.4055 -1.3826
-42.3466 7.5755 0.3722
-43.0609 7.2769 0.5000
-43.7972 6.9691 0.6319
-44.4074 6.6293 0.7657
-45.3516 6.3254 0.9096
-46.1615 5.9869 1.0557
-46.9987 5.6368 1.2069
-47.8648 5.2748 1.3637
-48.7613 4.8999 1.5262
-49.5119 4.4953 1.6889
-48.6227 0.1971 2.8948
-46.4019 -0.2581 2.8948
-44.3706 -0.6736 2.8948
-42.5049 -1.0543 2.8948
-25.1914 -0.8675 1.7880
-39.1947 -1.7275 2.8948
-37.7190 -2.0264 2.8948
-36.3457 -2.3038 2.8948
-33.2186 -2.4270 2.7424
-32.0833 -2.6550 2.7424
-31.0190 -2.8682 2.7424
-30.0190 -3.0678 2.7424
-29.0775 -3.2552 2.7424
-28.1892 -3.4315 2.7424
-27.9525 -3.6768 2.8028
-28.0307 -3.9627 2.8948
-27.2351 -4.1189 2.8948
-26.4795 -4.2667 2.8948
-25.7607 -4.4068 2.8948
-25.0762 -4.5397 2.8948
-24.4232 -4.6660 2.8948
-23.7997 -4.7861 2.8948
-23.2034 -4.9005 2.8948
-22.6327 -5.0095 2.8948
-22.0857 -5.1136 2.8948
-21.5610 -5.2129 2.8948
-21.0570 -5.3079 2.8948
-20.5726 -5.3988 2.8948
-20.1065 -5.4859 2.8948
-19.6576 -5.5693 2.8948
-19.2249 -5.6493 2.8948
-18.8075 -5.7261 2.8948
-18.4045 -5.7999 2.8948
-18.0151 -5.8708 2.8948
-17.6385 -5.9390 2.8948
-17.2741 -6.0047 2.8948
-16.9213 -6.0679 2.8948
-16.5794 -6.1288 2.8948
-16.2478 -6.1875 2.8948
-15.9261 -6.2442 2.8948
-15.6120 -6.2981 2.8944
-15.3069 -6.3502 2.8941
-15.0104 -6.4005 2.8938
-14.7221 -6.4491 2.8935
-14.4416 -6.4960 2.8932
-14.1685 -6.5415 2.8929
-13.9034 -6.5858 2.8928
-13.6450 -6.6287 2.8927
-13.3930 -6.6702 2.8926
-13.1471 -6.7105 2.8925
-12.9072 -6.7495 2.8924
-12.6730 -6.7873 2.8923
-12.4435 -6.8234 2.8920
-12.2130 -6.8553 2.8903
-11.9860 -6.8849 2.8882
-11.7621 -6.9123 2.8855
-11.5413 -6.9375 2.8825
-11.3236 -6.9607 2.8790
-11.1069 -6.9806 2.8745
-10.9024 -7.0044 2.8720
-10.7105 -7.0328 2.8718
-10.5223 -7.0604 2.8715
-10.3378 -7.0872 2.8713
-10.1568 -7.1132 2.8711
-9.9792 -7.1386 2.8709
-9.8048 -7.1632 2.8707
-9.6335 -7.1872 2.8705
-9.4653 -7.2106 2.8703
-9.3000 -7.2333 2.8701
-9.1376 -7.2554 2.8699
-8.9778 -7.2769 2.8697
-8.8206 -7.2979 2.8695
-8.6660 -7.3182 2.8693
-8.5139 -7.3381 2.8691
-8.3641 -7.3574 2.8689
-8.2166 -7.3762 2.8687
-8.0713 -7.3946 2.8685
-7.9282 -7.4125 2.8684
-7.7871 -7.4299 2.8682
-7.6481 -7.4469 2.8680
-7.5109 -7.4634 2.8679
-7.3757 -7.4795 2.8677
-7.2423 -7.4952 2.8675
-7.1106 -7.5105 2.8674
-6.9807 -7.5254 2.8672
-6.8524 -7.5399 2.8671
-6.7257 -7.5541 2.8669
-36.3968 28.3932 -3.3361
-36.8064 28.1404 -3.2438
-8.4071 6.2989 -0.7116
-8.5231 6.2573 -0.6920
-8.6404 6.2151 -0.6721
-8.7593 6.1723 -0.6517
-8.8796 6.1289 -0.6310
-8.9553 6.0537 -0.6068
-9.0809 6.0110 -0.5856
-8.9499 5.8003 -0.5481
-9.3094 5.9059 -0.5401
-9.3733 5.8199 -0.5140
-9.4372 5.7337 -0.4876
-9.5011 5.6474 -0.4612
-9.4755 5.5088 -0.4305
-9.6472 5.4845 -0.4085
-9.7060 5.3944 -0.3812
-9.7647 5.3043 -0.3538
-9.5596 5.0739 -0.3175
-9.4839 4.9170 -0.2866
-9.4101 4.7641 -0.2563
-9.3382 4.6151 -0.2266
-9.2681 4.4698 -0.1976
-10.1500 4.7751 -0.1867
-39.2335 17.9979 -0.6072
-39.5679 17.6921 -0.4977
-36.0878 14.9013 -0.1429
-36.7131 14.7478 -0.0408
-37.2581 14.5522 0.0643
-32.5912 11.6583 0.3317
-33.0513 11.4659 0.4289
-33.5212 11.2695 0.5285
-34.0014 11.0687 0.6308
-34.4923 10.8635 0.7357
-34.8669 10.6147 0.8403
-35.5064 10.4382 0.9540
-36.0324 10.2183 1.0676
-36.5712 9.9930 1.1845
-37.1233 9.7622 1.3046
-37.6893 9.5255 1.4282
-38.2699 9.2828 1.5554
-38.8658 9.0336 1.6864
-39.4778 8.7778 1.8213
-39.9625 8.4843 1.9534
-40.7461 8.2432 2.1036
-41.4110 7.9653 2.2516
-42.0954 7.6791 2.4044
-42.8002 7.3844 2.5623
-43.7966 7.1246 2.7424
-41.9525 6.4124 2.7424
-17.1930 2.4595 1.1713
-40.8383 5.4429 2.8948
-39.3058 4.8554 2.8948
-37.8817 4.3111 2.8948
-36.5549 3.8053 2.8948
-35.3153 3.3341 2.8948
-34.1544 2.8942 2.8948
-33.0648 2.4825 2.8948
-32.0399 2.0965 2.8948
-31.0739 1.7339 2.8948
-30.1619 1.3926 2.8948
-29.2990 1.0709 2.8948
-28.4814 0.7671 2.8948
-26.2470 0.4546 2.7424
-25.5483 0.1969 2.7424
-24.8833 -0.0475 2.7424
-24.2495 -0.2795 2.7424
-23.6445 -0.5001 2.7424
-23.0665 -0.7100 2.7424
-22.5135 -0.9100 2.7424
-21.9838 -1.1008 2.7424
-22.3479 -1.3350 2.8537
-22.1549 -1.5379 2.8948
-21.6605 -1.7137 2.8948
-21.1851 -1.8819 2.8948
-20.7275 -2.0430 2.8948
-20.2866 -2.1976 2.8948
-19.8615 -2.3459 2.8948
-19.4512 -2.4883 2.8948
-19.0550 -2.6252 2.8948
-18.6721 -2.7568 2.8948
-18.3017 -2.8834 2.8948
-17.9432 -3.0054 2.8948
-17.5960 -3.1228 2.8948
-17.2594 -3.2361 2.8948
-16.9328 -3.3453 2.8947
-16.6152 -3.4505 2.8946
-16.3068 -3.5521 2.8944
-16.0072 -3.6502 2.8943
-15.7160 -3.7451 2.8942
-15.4327 -3.8367 2.8940
-15.1571 -3.9254 2.8939
-14.8887 -4.0112 2.8938
-14.6273 -4.0943 2.8936
-14.3725 -4.1747 2.8935
-14.1241 -4.2527 2.8934
-13.8817 -4.3282 2.8933
-13.6452 -4.4015 2.8932
-13.4142 -4.4725 2.8931
-13.1886 -4.5414 2.8930
-12.9681 -4.6083 2.8929
-12.7497 -4.6722 2.8921
-12.5316 -4.7325 2.8903
-12.3157 -4.7899 2.8879
-12.1023 -4.8446 2.8850
-11.8917 -4.8968 2.8817
-11.6811 -4.9454 2.8772
-11.4915 -4.9994 2.8769
-11.3057 -5.0520 2.8766
-11.1235 -5.1032 2.8764
-10.9449 -5.1530 2.8761
-10.7696 -5.2014 2.8758
-10.5976 -5.2486 2.8756
-10.4287 -5.2945 2.8753
-10.2629 -5.3392 2.8751
-10.1000 -5.3828 2.8748
-9.9399 -5.4252 2.8746
-9.7826 -5.4666 2.8743
-9.6279 -5.5069 2.8741
-9.4757 -5.5462 2.8739
-9.3261 -5.5845 2.8737
-9.1788 -5.6218 2.8734
-9.0338 -5.6583 2.8732
-8.8911 -5.6937 2.8730
-8.7505 -5.7284 2.8728
-8.6121 -5.7622 2.8726
-8.4756 -5.7952 2.8724
-8.3412 -5.8274 2.8722
-8.2086 -5.8588 2.8720
-8.0780 -5.8894 2.8719
-7.9490 -5.9193 2.8717
-7.8219 -5.9485 2.8715
-7.6964 -5.9770 2.8713
-7.5725 -6.0049 2.8711
-7.4503 -6.0320 2.8709
-7.3296 -6.0586 2.8708
-7.2104 -6.0845 2.8706
-7.0926 -6.1098 2.8704
-6.9762 -6.1345 2.8703
-6.8613 -6.1586 2.8701
-6.7476 -6.1822 2.8699
-6.6353 -6.2052 2.8698
-6.5242 -6.2277 2.8696
-6.4143 -6.2496 2.8695
-6.3056 -6.2711 2.8693
-6.1981 -6.2920 2.8692
-6.0917 -6.3125 2.8690
-5.9864 -6.3325 2.8689
-5.8821 -6.3520 2.8688
-5.7789 -6.3710 2.8686
-35.3015 28.1367 -1.2095
-35.9084 28.0575 -1.1194
-36.3830 27.8667 -1.0228
-36.7913 27.6201 -0.9227
-36.0316 26.5101 -0.7952
-36.5740 26.3694 -0.6981
-36.9824 26.1257 -0.5964
-38.5752 26.6975 -0.5088
-8.6980 5.8968 -0.0894
-8.8144 5.8526 -0.0650
-8.9322 5.8077 -0.0402
-9.0515 5.7622 -0.0149
-9.1724 5.7160 0.0110
-9.2950 5.6690 0.0373
-9.5397 5.6932 0.0651
-9.5082 5.5513 0.0914
-9.4050 5.3706 0.1166
-9.4701 5.2879 0.1435
-9.3959 5.1288 0.1683
-9.3236 4.9738 0.1925
-9.2531 4.8228 0.2163
-9.1843 4.6756 0.2396
-10.3140 5.1267 0.2970
-27.9987 13.5843 0.8819
-28.3687 13.4297 0.9699
-28.7450 13.2723 1.0598
-29.1279 13.1122 1.1518
-29.5176 12.9493 1.2460
-29.8205 12.7432 1.3382
-30.2013 12.5656 1.4355
-30.7219 12.4387 1.5417
-31.1416 12.2633 1.6453
-31.5695 12.0843 1.7513
-32.0060 11.9018 1.8601
-32.4516 11.7155 1.9716
-32.9064 11.5254 2.0860
-33.3710 11.3311 2.2034
-33.8457 11.1326 2.3239
-34.3309 10.9298 2.4477
-34.7003 10.6832 2.5654
-35.8179 10.6536 2.7424
-34.6247 9.9395 2.7424
-33.5085 9.2734 2.7424
-33.7619 8.9972 2.8523
-33.2255 8.5150 2.8948
-32.2459 7.9364 2.8948
-31.3212 7.3920 2.8948
-30.4466 6.8791 2.8948
-29.6181 6.3950 2.8948
-28.8319 5.9374 2.8948
-28.0847 5.5042 2.8948
-27.3737 5.0936 2.8948
-26.6962 4.7038 2.8948
-26.0495 4.3334 2.8948
-25.4318 3.9811 2.8948
-17.2078 2.5253 2.0053
-24.2749 3.3254 2.8948
-23.7323 3.0200 2.8948
-23.2117 2.7282 2.8948
-21.5158 2.3202 2.7424
-21.0602 2.0672 2.7424
-20.6216 1.8248 2.7424
-20.1992 1.5925 2.7424
-19.7919 1.3696 2.7424
-19.3989 1.1556 2.7424
-19.0194 0.9500 2.7424
-18.6526 0.7523 2.7424
-18.2979 0.5621 2.7424
-18.2728 0.3857 2.7910
-18.6015 0.2138 2.8948
-18.2614 0.0343 2.8948
-17.9316 -0.1387 2.8948
-17.6117 -0.3057 2.8948
-17.3010 -0.4670 2.8948
-16.9992 -0.6227 2.8948
-16.7058 -0.7732 2.8948
-16.4205 -0.9187 2.8948
-16.1429 -1.0595 2.8948
-15.8726 -1.1957 2.8948
-15.6087 -1.3275 2.8947
-15.3514 -1.4552 2.8945
-15.1006 -1.5789 2.8944
-14.8560 -1.6988 2.8943
-14.6173 -1.8150 2.8941
-14.3843 -1.9277 2.8940
-14.1568 -2.0371 2.8939
-13.9344 -2.1433 2.8938
-13.7171 -2.2464 2.8937
-13.5046 -2.3465 2.8936
-13.2967 -2.4438 2.8935
-13.0888 -2.5375 2.8924
-12.8812 -2.6276 2.8904
-12.6748 -2.7144 2.8876
-12.4690 -2.7978 2.8840
-12.2752 -2.8804 2.8822
-12.0913 -2.9622 2.8819
-11.9110 -3.0418 2.8816
-11.7342 -3.1192 2.8812
-11.5607 -3.1947 2.8809
-11.3905 -3.2681 2.8806
-11.2233 -3.3397 2.8803
-11.0592 -3.4094 2.8800
-10.8981 -3.4774 2.8797
-10.7397 -3.5436 2.8794
-10.5840 -3.6082 2.8791
-10.4310 -3.6712 2.8788
-10.2806 -3.7326 2.8786
-10.1326 -3.7926 2.8783
-9.9869 -3.8510 2.8780
-9.8436 -3.9081 2.8778
-9.7026 -3.9638 2.8775
-9.5637 -4.0182 2.8773
-9.4269 -4.0712 2.8770
-9.2921 -4.1231 2.8768
-9.1594 -4.1737 2.8766
-9.0285 -4.2232 2.8764
-8.8995 -4.2714 2.8761
-8.7723 -4.3186 2.8759
-8.6469 -4.3647 2.8757
-8.5232 -4.4098 2.8755
-8.4011 -4.4538 2.8753
-8.2807 -4.4969 2.8751
-8.1618 -4.5389 2.8749
-8.0444 -4.5800 2.8747
-7.9285 -4.6203 2.8745
-7.8140 -4.6596 2.8743
-7.7010 -4.6980 2.8741
-7.5892 -4.7356 2.8739
-7.4788 -4.7724 2.8737
-7.3697 -4.8084 2.8736
-7.2618 -4.8436 2.8734
-7.1551 -4.8780 2.8732
-7.0497 -4.9116 2.8730
-6.9453 -4.9445 2.8729
-6.8421 -4.9767 2.8727
-6.7400 -5.0083 2.8725
-6.6389 -5.0391 2.8724
-6.5389 -5.0693 2.8722
-6.4399 -5.0988 2.8720
-6.3419 -5.1277 2.8719
-6.2448 -5.1559 2.8717
-6.1487 -5.1836 2.8716
-6.0534 -5.2106 2.8714
-5.9591 -5.2371 2.8713
-5.8656 -5.2630 2.8711
-5.7730 -5.2884 2.8710
-5.6811 -5.3131 2.8708
-5.5901 -5.3374 2.8707
-5.4999 -5.3611 2.8706
-5.4104 -5.3844 2.8704
-5.3217 -5.4071 2.8703
-5.2336 -5.4293 2.8702
-5.1463 -5.4510 2.8700
-5.0596 -5.4723 2.8699
-20.4414 16.6439 0.4897
-20.7070 16.5328 0.5508
-21.0618 16.4883 0.6156
-21.3341 16.3744 0.6793
-21.6093 16.2594 0.7442
-21.8875 16.1431 0.8104
-22.1688 16.0255 0.8778
-22.4533 15.9065 0.9466
-22.7411 15.7862 1.0168
-23.0324 15.6644 1.0883
-23.3272 15.5411 1.1613
-9.3089 6.0743 0.4869
-9.3240 5.9580 0.5111
-24.2344 15.1618 1.3892
-24.5447 15.0321 1.4683
-9.4868 5.6863 0.5912
-25.0833 14.7115 1.6255
-9.3064 5.3396 0.6262
-9.2355 5.1826 0.6443
-9.1664 5.0296 0.6621
-9.7870 5.2494 0.7311
-9.8587 5.1675 0.7608
-27.1880 13.9223 2.1652
-27.5422 13.7742 2.2613
-27.9022 13.6237 2.3595
-28.2682 13.4706 2.4600
-28.6405 13.3150 2.5629
-29.8285 13.5235 2.7426
-29.0482 12.8379 2.7424
-28.3097 12.1908 2.7424
-27.6455 11.5942 2.7462
-27.9806 11.4229 2.8485
-27.7620 11.0267 2.8948
-27.1190 10.4737 2.8948
-26.5042 9.9476 2.8948
-25.9158 9.4464 2.8948
-25.3519 8.9686 2.8948
-24.8110 8.5125 2.8948
-24.2917 8.0768 2.8948
-23.7925 7.6602 2.8948
-23.3122 7.2615 2.8948
-22.8497 6.8796 2.8948
-22.4040 6.5135 2.8948
-21.9740 6.1623 2.8948
-21.5589 5.8251 2.8948
-21.1580 5.5012 2.8948
-20.7703 5.1898 2.8948
-20.3952 4.8902 2.8948
-20.0320 4.6018 2.8948
-19.6802 4.3240 2.8948
-18.3210 3.8427 2.7424
-18.0075 3.5981 2.7424
-17.7033 3.3621 2.7424
-17.4078 3.1343 2.7424
-17.1206 2.9143 2.7424
-16.8415 2.7017 2.7424
-16.5698 2.4961 2.7424
-16.3055 2.2973 2.7424
-16.0481 2.1049 2.7424
-15.7972 1.9186 2.7424
-15.5528 1.7383 2.7424
-15.4442 1.5767 2.7656
-15.7038 1.4516 2.8555
-15.6802 1.2982 2.8948
-15.4462 1.1300 2.8948
-15.2176 0.9668 2.8948
-14.9942 0.8084 2.8948
-14.7757 0.6547 2.8947
-14.5614 0.5052 2.8946
-14.3519 0.3601 2.8945
-14.1468 0.2190 2.8944
-13.9460 0.0819 2.8943
-13.7494 -0.0515 2.8942
-13.5536 -0.1812 2.8934
-13.3547 -0.3071 2.8911
-13.1579 -0.4295 2.8884
-12.9753 -0.5487 2.8880
-12.7963 -0.6649 2.8875
-12.6206 -0.7779 2.8871
-12.4482 -0.8881 2.8867
-12.2790 -0.9954 2.8863
-12.1129 -1.1000 2.8860
-11.9497 -1.2019 2.8856
-11.7894 -1.3013 2.8852
-11.6319 -1.3981 2.8849
-11.4771 -1.4926 2.8845
-11.3249 -1.5848 2.8842
-11.1752 -1.6748 2.8839
-11.0279 -1.7625 2.8835
-10.8830 -1.8482 2.8832
-10.7404 -1.9318 2.8829
-10.6000 -2.0135 2.8826
-10.4619 -2.0933 2.8823
-10.3257 -2.1712 2.8820
-10.1916 -2.2473 2.8817
-10.0595 -2.3217 2.8814
-9.9293 -2.3943 2.8812
-9.8010 -2.4653 2.8809
-9.6744 -2.5347 2.8806
-9.5497 -2.6026 2.8804
-9.4266 -2.6690 2.8801
-9.3052 -2.7338 2.8798
-9.1854 -2.7973 2.8796
-9.0672 -2.8594 2.8794
-8.9504 -2.9202 2.8791
-8.8352 -2.9795 2.8789
-8.7214 -3.0377 2.8787
-8.6091 -3.0945 2.8784
-8.4981 -3.1502 2.8782
-8.3884 -3.2047 2.8780
-8.2800 -3.2581 2.8778
-8.1729 -3.3103 2.8776
-8.0671 -3.3614 2.8774
-7.9624 -3.4115 2.8771
-7.8589 -3.4605 2.8769
-7.7566 -3.5085 2.8767
-7.6553 -3.5555 2.8766
-7.5552 -3.6015 2.8764
-7.4561 -3.6466 2.8762
-7.3581 -3.6908 2.8760
-7.2610 -3.7340 2.8758
-7.1649 -3.7764 2.8756
-7.0698 -3.8180 2.8754
-6.9756 -3.8587 2.8753
-6.8824 -3.8985 2.8751
-6.7900 -3.9376 2.8749
-6.6985 -3.9759 2.8748
-6.6078 -4.0134 2.8746
-6.5180 -4.0501 2.8744
-6.4289 -4.0861 2.8743
-6.3407 -4.1214 2.8741
-6.2533 -4.1560 2.8739
-6.1665 -4.1899 2.8738
-6.0806 -4.2231 2.8736
-5.9953 -4.2557 2.8735
-5.9108 -4.2876 2.8733
-5.8269 -4.3188 2.8732
-5.7437 -4.3495 2.8730
-5.6612 -4.3795 2.8729
-5.5793 -4.4089 2.8727
-5.4980 -4.4378 2.8726
-5.4174 -4.4660 2.8725
-5.3373 -4.4937 2.8723
-5.2579 -4.5208 2.8722
-5.1790 -4.5474 2.8721
-5.1006 -4.5735 2.8719
-5.0228 -4.5990 2.8718
-4.9455 -4.6240 2.8717
-4.8688 -4.6485 2.8715
-4.7925 -4.6725 2.8714
-4.7168 -4.6960 2.8713
-4.6415 -4.7190 2.8712
-4.5668 -4.7416 2.8710
-4.4925 -4.7636 2.8709
-20.1648 16.7717 1.6791
-20.4148 16.6541 1.7446
-20.6778 16.5441 1.8123
-21.0298 16.5008 1.8891
-21.2993 16.3881 1.9598
-21.5718 16.2742 2.0319
-21.8471 16.1591 2.1055
-22.1256 16.0426 2.1805
-22.4072 15.9249 2.2571
-22.6921 15.8057 2.3352
-22.9804 15.6852 2.4150
-23.2723 15.5632 2.4964
-23.5677 15.4396 2.5795
-24.5679 15.7643 2.7426
-24.0939 15.1400 2.7424
-23.6394 14.5440 2.7424
-9.4327 5.6810 1.1150
-9.4985 5.5988 1.1436
-23.2474 13.4081 2.8500
-23.1958 13.0873 2.8948
-22.7927 12.5770 2.8948
-22.4024 12.0865 2.8948
-22.0244 11.6148 2.8948
-21.6580 11.1610 2.8948
-21.3026 10.7240 2.8948
-20.9578 10.3031 2.8948
-20.6229 9.8973 2.8948
-20.2976 9.5060 2.8948
-19.9813 9.1284 2.8948
-19.6737 8.7639 2.8948
-19.3743 8.4118 2.8948
-19.0829 8.0715 2.8948
-18.7990 7.7425 2.8948
-18.5223 7.4244 2.8948
-18.2525 7.1165 2.8948
-17.9894 6.8185 2.8948
-17.7325 6.5299 2.8948
-17.4818 6.2503 2.8948
-17.2370 5.9793 2.8948
-16.9977 5.7166 2.8948
-16.7639 5.4618 2.8948
-15.6647 4.9400 2.7424
-15.4528 4.7127 2.7424
-15.2455 4.4920 2.7424
-15.0425 4.2777 2.7424
-14.8438 4.0695 2.7424
-14.6491 3.8671 2.7424
-14.4583 3.6704 2.7424
-14.2714 3.4791 2.7424
-14.0881 3.2931 2.7424
-13.9083 3.1121 2.7424
-13.7319 2.9360 2.7424
-13.5588 2.7645 2.7424
-13.3889 2.5976 2.7424
-13.3438 2.4574 2.7676
-13.5413 2.3608 2.8438
-13.6133 2.2401 2.8946
-13.4441 2.0810 2.8941
-13.2778 1.9259 2.8936
-13.1144 1.7748 2.8931
-12.9538 1.6274 2.8927
-12.7958 1.4837 2.8922
-12.6405 1.3436 2.8918
-12.4877 1.2068 2.8913
-12.3374 1.0734 2.8909
-12.1895 0.9432 2.8905
-12.0438 0.8161 2.8901
-11.9005 0.6920 2.8897
-11.7593 0.5708 2.8893
-11.6202 0.4525 2.8889
-11.4832 0.3369 2.8885
-11.3482 0.2239 2.8881
-11.2151 0.1136 2.8878
-11.0839 0.0057 2.8874
-10.9546 -0.0997 2.8871
-10.8271 -0.2028 2.8867
-10.7013 -0.3036 2.8864
-10.5772 -0.4022 2.8861
-10.4547 -0.4986 2.8858
-10.3339 -0.5929 2.8854
-10.2146 -0.6852 2.8851
-10.0969 -0.7755 2.8848
-9.9806 -0.8638 2.8845
-9.8658 -0.9503 2.8842
-9.7524 -1.0349 2.8840
-9.6404 -1.1178 2.8837
-9.5297 -1.1989 2.8834
-9.4204 -1.2783 2.8831
-9.3123 -1.3561 2.8829
-9.2054 -1.4323 2.8826
-9.0998 -1.5069 2.8823
-8.9954 -1.5801 2.8821
-8.8921 -1.6517 2.8818
-8.7900 -1.7219 2.8816
-8.6890 -1.7907 2.8813
-8.5890 -1.8580 2.8811
-8.4901 -1.9241 2.8809
-8.3923 -1.9888 2.8806
-8.2954 -2.0523 2.8804
-8.1995 -2.1145 2.8802
-8.1046 -2.1755 2.8800
-8.0106 -2.2353 2.8798
-7.9176 -2.2940 2.8795
-7.8255 -2.3515 2.8793
-7.7342 -2.4079 2.8791
-7.6438 -2.4631 2.8789
-7.5542 -2.5174 2.8787
-7.4654 -2.5706 2.8785
-7.3775 -2.6228 2.8783
-7.2903 -2.6740 2.8781
-7.2040 -2.7242 2.8780
-7.1183 -2.7735 2.8778
-7.0334 -2.8218 2.8776
-6.9492 -2.8692 2.8774
-6.8658 -2.9158 2.8772
-6.7830 -2.9614 2.8771
-6.7009 -3.0062 2.8769
-6.6195 -3.0502 2.8767
-6.5387 -3.0933 2.8765
-6.4585 -3.1357 2.8764
-6.3790 -3.1772 2.8762
-6.3000 -3.2180 2.8760
-6.2217 -3.2580 2.8759
-6.1439 -3.2973 2.8757
-6.0668 -3.3358 2.8756
-5.9901 -3.3736 2.8754
-5.9141 -3.4108 2.8752
-5.8385 -3.4472 2.8751
-5.7635 -3.4830 2.8749
-5.6891 -3.5181 2.8748
-5.6151 -3.5525 2.8747
-5.5416 -3.5863 2.8745
-5.4686 -3.6195 2.8744
-5.3961 -3.6520 2.8742
-5.3240 -3.6840 2.8741
-5.2524 -3.7153 2.8739
-5.1813 -3.7461 2.8738
-5.1105 -3.7763 2.8737
-5.0403 -3.8059 2.8735
-4.9704 -3.8350 2.8734
-4.9009 -3.8635 2.8733
-4.8319 -3.8915 2.8732
-4.7632 -3.9190 2.8730
-4.6950 -3.9459 2.8729
-4.6271 -3.9723 2.8728
-4.5596 -3.9982 2.8727
-4.4924 -4.0236 2.8725
-4.4256 -4.0486 2.8724
-4.3592 -4.0730 2.8723
-4.2931 -4.0970 2.8722
-4.2273 -4.1205 2.8721
-4.1619 -4.1435 2.8720
-4.0968 -4.1661 2.8719
-4.0320 -4.1883 2.8717
-19.0471 16.1834 2.7424
-18.8216 15.6891 2.7424
-18.7335 15.3191 2.7621
-18.9615 15.2101 2.8288
-19.1782 15.0897 2.8948
-18.9565 14.6286 2.8948
-18.7385 14.1812 2.8948
-18.5242 13.7469 2.8948
-18.3136 13.3254 2.8948
-18.1064 12.9161 2.8948
-17.9026 12.5185 2.8948
-17.7022 12.1322 2.8948
-17.5050 11.7568 2.8948
-17.3110 11.3919 2.8948
-17.1200 11.0371 2.8948
-16.9321 10.6920 2.8948
-16.7471 10.3563 2.8948
-9.4165 5.7015 1.6456
-9.4816 5.6199 1.6751
-16.2087 9.4025 2.8948
-16.0347 9.1012 2.8948
-15.8632 8.8078 2.8948
-15.6942 8.5221 2.8948
-15.5276 8.2437 2.8948
-15.3635 7.9724 2.8948
-15.2017 7.7080 2.8948
-15.0421 7.4502 2.8948
-14.8848 7.1989 2.8948
-14.7297 6.9538 2.8948
-14.5767 6.7147 2.8948
-14.4257 6.4815 2.8948
-13.5252 5.9246 2.7424
-13.3860 5.7142 2.7424
-13.2486 5.5088 2.7424
-13.1131 5.3083 2.7424
-12.9792 5.1125 2.7424
-12.8471 4.9213 2.7424
-12.7167 4.7345 2.7424
-12.5879 4.5521 2.7424
-12.4607 4.3738 2.7424
-12.3350 4.1996 2.7424
-12.2109 4.0293 2.7424
-12.0883 3.8629 2.7424
-11.9672 3.7001 2.7424
-11.8475 3.5410 2.7424
-11.7292 3.3854 2.7424
-11.6122 3.2332 2.7424
-11.7052 3.1403 2.7921
-11.8622 3.0626 2.8580
-11.8949 2.9514 2.8946
-11.7753 2.8038 2.8942
-11.6570 2.6593 2.8937
-11.5401 2.5180 2.8933
-11.4244 2.3796 2.8929
-11.3101 2.2442 2.8925
-11.1971 2.1117 2.8921
-11.0852 1.9819 2.8917
-10.9746 1.8548 2.8914
-10.8652 1.7304 2.8910
-10.7569 1.6085 2.8906
-10.6498 1.4891 2.8903
-10.5438 1.3721 2.8899
-10.4389 1.2576 2.8896
-10.3350 1.1453 2.8892
-10.2323 1.0353 2.8889
-10.1305 0.9274 2.8886
-10.0297 0.8217 2.8882
-9.9300 0.7181 2.8879
-9.8312 0.6166 2.8876
-9.7333 0.5170 2.8873
-9.6365 0.4194 2.8870
-9.5404 0.3236 2.8867
-9.4454 0.2297 2.8864
-9.3512 0.1377 2.8861
-9.2578 0.0473 2.8859
-9.1653 -0.0413 2.8856
-9.0736 -0.1282 2.8853
-8.9828 -0.2135 2.8850
-8.8927 -0.2971 2.8848
-8.8035 -0.3792 2.8845
-8.7150 -0.4598 2.8843
-8.6272 -0.5389 2.8840
-8.5403 -0.6165 2.8838
-8.4540 -0.6927 2.8835
-8.3684 -0.7675 2.8833
-8.2836 -0.8409 2.8830
-8.1994 -0.9129 2.8828
-8.1160 -0.9837 2.8826
-8.0332 -1.0531 2.8823
-7.9510 -1.1213 2.8821
-7.8695 -1.1883 2.8819
-7.7886 -1.2541 2.8817
-7.7084 -1.3187 2.8815
-7.6287 -1.3821 2.8813
-7.5497 -1.4444 2.8811
-7.4712 -1.5056 2.8808
-7.3933 -1.5658 2.8806
-7.3160 -1.6248 2.8804
-7.2393 -1.6828 2.8802
-7.1631 -1.7398 2.8801
-7.0874 -1.7958 2.8799
-7.0122 -1.8508 2.8797
-6.9376 -1.9048 2.8795
-6.8635 -1.9579 2.8793
-6.7898 -2.0101 2.8791
-6.7167 -2.0613 2.8789
-6.6441 -2.1117 2.8788
-6.5719 -2.1612 2.8786
-6.5002 -2.2098 2.8784
-6.4290 -2.2576 2.8783
-6.3582 -2.3046 2.8781
-6.2879 -2.3507 2.8779
-6.2180 -2.3961 2.8778
-6.1485 -2.4407 2.8776
-6.0794 -2.4845 2.8774
-6.0108 -2.5275 2.8773
-5.9426 -2.5699 2.8771
-5.8747 -2.6114 2.8770
-5.8073 -2.6523 2.8768
-5.7402 -2.6924 2.8767
-5.6735 -2.7319 2.8765
-5.6072 -2.7707 2.8764
-5.5413 -2.8088 2.8762
-5.4757 -2.8463 2.8761
-5.4105 -2.8831 2.8759
-5.3456 -2.9192 2.8758
-5.2811 -2.9548 2.8756
-5.2169 -2.9897 2.8755
-5.1531 -3.0241 2.8754
-5.0895 -3.0578 2.8752
-5.0263 -3.0909 2.8751
-4.9634 -3.1235 2.8750
-4.9008 -3.1555 2.8748
-4.8386 -3.1869 2.8747
-4.7766 -3.2178 2.8746
-4.7149 -3.2482 2.8745
-4.6535 -3.2780 2.8743
-4.5924 -3.3073 2.8742
-4.5315 -3.3360 2.8741
-4.4710 -3.3643 2.8740
-4.4107 -3.3920 2.8739
-4.3506 -3.4193 2.8737
-4.2909 -3.4460 2.8736
-4.2313 -3.4723 2.8735
-4.1721 -3.4981 2.8734
-4.1130 -3.5234 2.8733
-4.0543 -3.5483 2.8732
-3.9957 -3.5727 2.8731
-3.9374 -3.5967 2.8730
-3.8793 -3.6202 2.8729
-3.8214 -3.6433 2.8727
-3.7638 -3.6659 2.8726
-3.7064 -3.6881 2.8725
-3.6491 -3.7099 2.8724
-14.0248 12.1746 2.8948
-13.9405 11.8753 2.8948
-13.8557 11.5818 2.8948
-13.7704 11.2941 2.8948
-13.6847 11.0120 2.8948
-13.5986 10.7354 2.8948
-13.5121 10.4642 2.8948
-13.4254 10.1982 2.8948
-13.3384 9.9375 2.8948
-13.2512 9.6818 2.8948
-13.1639 9.4310 2.8948
-13.0764 9.1851 2.8948
-12.9888 8.9440 2.8948
-12.9011 8.7075 2.8948
-12.8135 8.4756 2.8948
-12.7258 8.2481 2.8948
-12.6381 8.0250 2.8948
-12.5505 7.8062 2.8948
-9.3987 5.7250 2.1830
-9.4631 5.6439 2.2135
-9.5277 5.5627 2.2445
-11.5586 6.6047 2.7424
-11.4762 6.4163 2.7424
-11.3939 6.2315 2.7424
-11.3118 6.0502 2.7424
-11.2298 5.8723 2.7424
-11.1481 5.6977 2.7424
-11.0666 5.5264 2.7424
-10.9853 5.3583 2.7424
-10.9043 5.1933 2.7424
-10.8235 5.0314 2.7424
-10.7430 4.8724 2.7424
-10.6628 4.7164 2.7424
-10.5828 4.5632 2.7424
-10.5032 4.4129 2.7424
-10.4238 4.2653 2.7424
-10.3447 4.1204 2.7424
-10.2660 3.9781 2.7424
-10.1874 3.8385 2.7424
-10.2502 3.7527 2.7806
-10.3771 3.6893 2.8368
-10.5063 3.6247 2.8945
-10.4246 3.4875 2.8944
-10.3422 3.3524 2.8940
-10.2602 3.2197 2.8937
-10.1786 3.0894 2.8933
-10.0974 2.9615 2.8930
-10.0167 2.8358 2.8926
-9.9363 2.7124 2.8923
-9.8563 2.5912 2.8919
-9.7767 2.4721 2.8916
-9.6976 2.3552 2.8913
-9.6188 2.2403 2.8910
-9.5405 2.1274 2.8906
-9.4625 2.0164 2.8903
-9.3850 1.9075 2.8900
-9.3078 1.8004 2.8897
-9.2311 1.6952 2.8894
-9.1547 1.5917 2.8891
-9.0788 1.4901 2.8888
-9.0032 1.3903 2.8885
-8.6313 0.9159 2.8872
-8.9280 1.2921 2.8883
-8.5581 0.8258 2.8869
-8.8533 1.1956 2.8880
-8.4853 0.7373 2.8867
-8.7789 1.1008 2.8877
-8.4128 0.6502 2.8864
-8.7049 1.0076 2.8874
-8.3407 0.5646 2.8861
-8.2690 0.4805 2.8859
-7.9160 0.0802 2.8847
-8.1977 0.3977 2.8857
-7.8465 0.0041 2.8845
-8.1267 0.3163 2.8854
-7.7773 -0.0708 2.8842
-8.0561 0.2363 2.8852
-7.7085 -0.1444 2.8840
-7.9859 0.1576 2.8849
-7.6400 -0.2168 2.8838
-7.5719 -0.2881 2.8836
-7.2363 -0.6271 2.8825
-7.5041 -0.3581 2.8834
-7.1702 -0.6917 2.8823
-7.4367 -0.4270 2.8832
-7.1045 -0.7552 2.8821
-7.3696 -0.4948 2.8830
-7.0390 -0.8176 2.8819
-7.3028 -0.5615 2.8827
-6.9738 -0.8791 2.8818
-6.9090 -0.9396 2.8816
-6.5894 -1.2276 2.8806
-6.8445 -0.9991 2.8814
-6.5264 -1.2825 2.8805
-6.4637 -1.3365 2.8803
-6.7803 -1.0576 2.8812
-6.4012 -1.3896 2.8801
-6.7163 -1.1152 2.8810
-6.3390 -1.4419 2.8800
-6.6527 -1.1719 2.8808
-6.2772 -1.4934 2.8798
-5.9719 -1.7386 2.8790
-6.2156 -1.5440 2.8796
-5.9117 -1.7853 2.8788
-6.1543 -1.5938 2.8795
-5.8517 -1.8312 2.8787
-6.0932 -1.6428 2.8793
-5.7920 -1.8765 2.8785
-6.0325 -1.6911 2.8791
-5.7325 -1.9210 2.8784
-5.6733 -1.9648 2.8782
-5.3808 -2.1736 2.8775
-5.6143 -2.0079 2.8780
-5.3231 -2.2134 2.8773
-5.5556 -2.0504 2.8779
-5.2655 -2.2525 2.8772
-5.4971 -2.0921 2.8778
-5.2082 -2.2910 2.8770
-5.4389 -2.1332 2.8776
-5.1511 -2.3289 2.8769
-5.0942 -2.3662 2.8768
-4.8131 -2.5438 2.8761
-5.0376 -2.4029 2.8766
-4.7575 -2.5776 2.8760
-4.9812 -2.4390 2.8765
-4.7021 -2.6109 2.8759
-4.9250 -2.4745 2.8764
-4.6470 -2.6436 2.8757
-4.8689 -2.5094 2.8762
-4.5920 -2.6758 2.8756
-4.5372 -2.7074 2.8755
-4.2660 -2.8580 2.8749
-4.4825 -2.7385 2.8754
-4.2123 -2.8866 2.8748
-4.4281 -2.7692 2.8752
-4.3739 -2.7993 2.8751
-4.1588 -2.9148 2.8747
-4.3198 -2.8289 2.8750
-4.1054 -2.9424 2.8746
-3.9993 -2.9964 2.8743
-4.0523 -2.9696 2.8744
-3.7367 -3.1233 2.8738
-3.9465 -3.0227 2.8742
-3.6847 -3.1474 2.8737
-3.8938 -3.0485 2.8741
-3.6328 -3.1711 2.8736
-3.8413 -3.0739 2.8740
-3.7889 -3.0988 2.8739
-3.5811 -3.1943 2.8735
-3.5295 -3.2171 2.8734
-3.4781 -3.2395 2.8733
-3.4267 -3.2615 2.8732
-3.3756 -3.2831 2.8731
-3.3246 -3.3044 2.8730
-10.6856 9.4794 2.8948
-10.6560 9.2786 2.8948
-10.6250 9.0805 2.8948
-10.5928 8.8851 2.8948
-10.5594 8.6923 2.8948
-10.5249 8.5020 2.8948
-10.4893 8.3144 2.8948
-10.4527 8.1293 2.8948
-9.8667 7.5284 2.7424
-9.8301 7.3578 2.7424
-9.7926 7.1896 2.7424
-9.7543 7.0237 2.7424
-9.7152 6.8602 2.7424
-9.6754 6.6989 2.7424
-9.6347 6.5400 2.7424
-9.5934 6.3832 2.7424
-9.5514 6.2287 2.7424
-9.5088 6.0764 2.7424
-9.4656 5.9262 2.7424
-9.3785 5.7517 2.7298
-9.3774 5.6324 2.7424
-9.3325 5.4886 2.7424
-9.2871 5.3469 2.7424
-9.2413 5.2072 2.7424
-9.1950 5.0695 2.7424
-9.1482 4.9338 2.7424
-9.1011 4.8001 2.7424
-9.0535 4.6684 2.7424
-9.0056 4.5385 2.7424
-8.9574 4.4106 2.7424
-8.9484 4.3035 2.7545
-9.0531 4.2509 2.8022
-9.1594 4.1976 2.8509
-9.2481 4.1348 2.8947
-9.1947 4.0088 2.8944
-9.1410 3.8848 2.8941
-9.0871 3.7625 2.8938
-9.0330 3.6421 2.8935
-8.9787 3.5235 2.8932
-8.9242 3.4066 2.8929
-8.8697 3.2915 2.8926
-8.8149 3.1781 2.8923
-8.7601 3.0663 2.8920
-8.7051 2.9562 2.8917
-8.6500 2.8478 2.8914
-8.5949 2.7409 2.8911
-8.5396 2.6357 2.8908
-8.4843 2.5320 2.8906
-8.4290 2.4299 2.8903
-8.3735 2.3292 2.8900
-8.3181 2.2301 2.8897
-8.2626 2.1324 2.8895
-8.2071 2.0362 2.8892
-8.1516 1.9414 2.8890
-8.0960 1.8480 2.8887
-8.0405 1.7559 2.8885
-7.9850 1.6653 2.8882
-7.9294 1.5760 2.8880
-7.8740 1.4879 2.8877
-7.8185 1.4012 2.8875
-7.7631 1.3158 2.8873
-7.7077 1.2316 2.8870
-7.6523 1.1487 2.8868
-7.5970 1.0670 2.8866
-7.5418 0.9865 2.8863
-7.4866 0.9072 2.8861
-7.4315 0.8290 2.8859
-7.3764 0.7520 2.8857
-7.3214 0.6761 2.8855
-7.2665 0.6013 2.8852
-7.2116 0.5277 2.8850
-7.1569 0.4551 2.8848
-7.1022 0.3836 2.8846
-7.0476 0.3131 2.8844
-6.9931 0.2436 2.8842
-6.9387 0.1752 2.8840
-6.8844 0.1078 2.8838
-6.8302 0.0413 2.8836
-6.7761 -0.0242 2.8834
-6.7221 -0.0887 2.8832
-6.6682 -0.1523 2.8831
-6.6144 -0.2149 2.8829
-6.5607 -0.2766 2.8827
-6.5071 -0.3375 2.8825
-6.4537 -0.3974 2.8823
-6.4003 -0.4565 2.8822
-6.3471 -0.5147 2.8820
-6.2939 -0.5721 2.8818
-6.2409 -0.6286 2.8816
-6.1880 -0.6843 2.8815
-6.1353 -0.7392 2.8813
-6.0826 -0.7933 2.8811
-6.0301 -0.8466 2.8810
-5.9776 -0.8991 2.8808
-5.9253 -0.9508 2.8806
-5.8732 -1.0018 2.8805
-5.6141 -1.2459 2.8797
-5.8211 -1.0521 2.8803
-5.5627 -1.2925 2.8796
-5.7692 -1.1016 2.8802
-5.5113 -1.3385 2.8794
-5.7174 -1.1504 2.8800
-5.4601 -1.3838 2.8793
-5.6657 -1.1985 2.8799
-5.4090 -1.4285 2.8791
-5.3581 -1.4725 2.8790
-5.1051 -1.6829 2.8783
-5.3072 -1.5158 2.8788
-5.0549 -1.7232 2.8781
-5.2565 -1.5586 2.8787
-5.0048 -1.7628 2.8780
-5.2059 -1.6006 2.8786
-4.9548 -1.8019 2.8779
-5.1555 -1.6421 2.8784
-4.9049 -1.8403 2.8777
-4.8551 -1.8782 2.8776
-4.6081 -2.0593 2.8770
-4.8055 -1.9155 2.8775
-4.5591 -2.0939 2.8769
-4.7560 -1.9523 2.8774
-4.5101 -2.1280 2.8767
-4.7066 -1.9885 2.8772
-4.4613 -2.1615 2.8766
-4.6573 -2.0242 2.8771
-4.4126 -2.1946 2.8765
-4.3640 -2.2271 2.8764
-4.1226 -2.3824 2.8758
-4.3155 -2.2591 2.8763
-4.0747 -2.4120 2.8757
-4.2671 -2.2907 2.8761
-4.0268 -2.4412 2.8756
-3.9791 -2.4699 2.8755
-4.2188 -2.3217 2.8760
-3.9314 -2.4981 2.8754
-4.1707 -2.3523 2.8759
-3.8839 -2.5259 2.8753
-3.6478 -2.6583 2.8747
-3.8365 -2.5533 2.8752
-3.6008 -2.6835 2.8746
-3.7892 -2.5802 2.8751
-3.5540 -2.7083 2.8745
-3.7419 -2.6067 2.8750
-3.5072 -2.7327 2.8745
-3.6948 -2.6327 2.8748
-3.4606 -2.7566 2.8744
-3.4140 -2.7802 2.8743
-3.3675 -2.8034 2.8742
-3.3212 -2.8261 2.8741
-3.2749 -2.8485 2.8740
-3.2287 -2.8705 2.8739
-3.1826 -2.8921 2.8738
-3.1365 -2.9134 2.8737
-3.0906 -2.9342 2.8736
-3.0447 -2.9547 2.8735
-8.1165 7.3607 2.7424
-8.1107 7.2214 2.7424
-8.1036 7.0835 2.7424
-8.0954 6.9468 2.7424
-8.0860 6.8114 2.7424
-8.0755 6.6773 2.7424
-8.0639 6.5445 2.7424
-8.0512 6.4130 2.7424
-8.0375 6.2828 2.7424
-8.0228 6.1539 2.7424
-8.0071 6.0263 2.7424
-7.9904 5.9000 2.7424
-7.9729 5.7750 2.7424
-7.9544 5.6514 2.7424
-7.9350 5.5290 2.7424
-7.9148 5.4079 2.7424
-7.8938 5.2882 2.7424
-7.8720 5.1697 2.7424
-7.8494 5.0526 2.7424
-7.8261 4.9367 2.7424
-7.8020 4.8221 2.7424
-7.8582 4.7578 2.7709
-7.9477 4.7129 2.8117
-8.0382 4.6674 2.8533
-8.1268 4.6196 2.8948
-8.0972 4.5049 2.8945
-8.0669 4.3915 2.8942
-8.0361 4.2794 2.8940
-8.0046 4.1687 2.8937
-7.9726 4.0593 2.8934
-7.9401 3.9511 2.8931
-7.9071 3.8443 2.8929
-7.8735 3.7387 2.8926
-7.8395 3.6344 2.8924
-7.8050 3.5314 2.8921
-7.7701 3.4296 2.8919
-7.7347 3.3291 2.8916
-7.6989 3.2297 2.8914
-7.6627 3.1316 2.8911
-7.6261 3.0347 2.8909
-7.5892 2.9390 2.8906
-7.5519 2.8445 2.8904
-7.5142 2.7511 2.8901
-7.4763 2.6589 2.8899
-7.4380 2.5678 2.8897
-7.3994 2.4779 2.8894
-7.3605 2.3891 2.8892
-7.3213 2.3014 2.8890
-7.2819 2.2148 2.8888
-7.2422 2.1294 2.8885
-7.2023 2.0449 2.8883
-7.1621 1.9616 2.8881
-7.1217 1.8793 2.8879
-7.0811 1.7980 2.8877
-7.0403 1.7178 2.8875
-6.9993 1.6386 2.8873
-6.9581 1.5604 2.8870
-6.9167 1.4832 2.8868
-6.8752 1.4070 2.8866
-6.8335 1.3318 2.8864
-6.7917 1.2575 2.8862
-6.7497 1.1842 2.8860
-6.7075 1.1118 2.8858
-6.6653 1.0404 2.8857
-6.6229 0.9698 2.8855
-6.5804 0.9002 2.8853
-6.5378 0.8315 2.8851
-6.4951 0.7637 2.8849
-6.4522 0.6967 2.8847
-6.4093 0.6307 2.8845
-6.3664 0.5654 2.8843
-6.3233 0.5011 2.8842
-6.2801 0.4375 2.8840
-6.2369 0.3748 2.8838
-6.1937 0.3129 2.8836
-6.1503 0.2519 2.8835
-6.1070 0.1916 2.8833
-6.0635 0.1321 2.8831
-6.0200 0.0734 2.8830
-5.9765 0.0154 2.8828
-5.9330 -0.0418 2.8826
-5.8894 -0.0982 2.8825
-5.8457 -0.1539 2.8823
-5.8021 -0.2088 2.8821
-5.7584 -0.2631 2.8820
-5.7147 -0.3166 2.8818
-5.6711 -0.3694 2.8817
-5.6273 -0.4215 2.8815
-5.5836 -0.4729 2.8814
-5.5399 -0.5236 2.8812
-5.4961 -0.5736 2.8811
-5.4524 -0.6230 2.8809
-5.4087 -0.6718 2.8808
-5.3649 -0.7198 2.8806
-5.3212 -0.7673 2.8805
-5.2775 -0.8140 2.8803
-5.0592 -1.0387 2.8796
-5.2338 -0.8602 2.8802
-5.0155 -1.0818 2.8795
-5.1901 -0.9057 2.8801
-4.9719 -1.1244 2.8794
-5.1465 -0.9507 2.8799
-4.9284 -1.1663 2.8792
-5.1028 -0.9950 2.8798
-4.8848 -1.2077 2.8791
-4.8413 -1.2485 2.8790
-4.6242 -1.4444 2.8783
-4.7978 -1.2888 2.8789
-4.5809 -1.4819 2.8782
-4.7544 -1.3285 2.8787
-4.5376 -1.5189 2.8781
-4.7109 -1.3677 2.8786
-4.4943 -1.5555 2.8780
-4.6676 -1.4063 2.8785
-4.4511 -1.5915 2.8779
-4.4079 -1.6270 2.8777
-4.1927 -1.7970 2.8772
-4.3648 -1.6620 2.8776
-4.1497 -1.8296 2.8770
-4.3217 -1.6965 2.8775
-4.1069 -1.8617 2.8769
-4.2787 -1.7305 2.8774
-4.0640 -1.8934 2.8768
-4.2356 -1.7640 2.8773
-4.0212 -1.9246 2.8767
-3.9785 -1.9553 2.8766
-3.7654 -2.1023 2.8761
-3.9358 -1.9856 2.8765
-3.7229 -2.1304 2.8760
-3.8931 -2.0154 2.8764
-3.6805 -2.1581 2.8759
-3.8505 -2.0448 2.8763
-3.6381 -2.1854 2.8758
-3.8079 -2.0738 2.8762
-3.5957 -2.2122 2.8757
-3.5534 -2.2387 2.8756
-3.3427 -2.3649 2.8751
-3.5112 -2.2647 2.8755
-3.3006 -2.3890 2.8750
-3.4690 -2.2904 2.8754
-3.2587 -2.4127 2.8749
-3.4268 -2.3156 2.8753
-3.2168 -2.4360 2.8748
-3.3847 -2.3405 2.8752
-3.1749 -2.4589 2.8747
-3.1330 -2.4815 2.8746
-3.0913 -2.5037 2.8746
-3.0495 -2.5255 2.8745
-3.0078 -2.5469 2.8744
-2.9662 -2.5680 2.8743
-2.9246 -2.5888 2.8742
-2.8830 -2.6092 2.8741
-2.8415 -2.6292 2.8740
-2.8000 -2.6489 2.8740
-6.7251 6.2377 2.7424
-6.7300 6.1299 2.7424
-6.7337 6.0228 2.7424
-6.7364 5.9165 2.7424
-6.7380 5.8108 2.7424
-6.7386 5.7058 2.7424
-6.7382 5.6016 2.7424
-6.7368 5.4982 2.7424
-6.7344 5.3954 2.7424
-6.7310 5.2935 2.7424
-6.7627 5.2198 2.7570
-6.8400 5.1813 2.7906
-6.9180 5.1424 2.8250
-6.9966 5.1031 2.8600
-7.0735 5.0616 2.8948
-7.0639 4.9585 2.8945
-7.0535 4.8562 2.8943
-7.0422 4.7549 2.8941
-7.0301 4.6544 2.8938
-7.0172 4.5548 2.8936
-7.0036 4.4560 2.8934
-6.9892 4.3582 2.8932
-6.9741 4.2612 2.8929
-6.9582 4.1651 2.8927
-6.9417 4.0698 2.8925
-6.9244 3.9755 2.8923
-6.9066 3.8820 2.8921
-6.8880 3.7895 2.8918
-6.8688 3.6978 2.8916
-6.8491 3.6070 2.8914
-6.8287 3.5170 2.8912
-6.8077 3.4280 2.8910
-6.7862 3.3398 2.8908
-6.7642 3.2525 2.8906
-6.7415 3.1660 2.8903
-6.7184 3.0804 2.8901
-6.6948 2.9957 2.8899
-6.6706 2.9119 2.8897
-6.6460 2.8289 2.8895
-6.6210 2.7467 2.8893
-6.5954 2.6654 2.8891
-6.5695 2.5850 2.8889
-6.5430 2.5054 2.8887
-6.5162 2.4266 2.8885
-6.4890 2.3486 2.8883
-6.4614 2.2715 2.8881
-6.4334 2.1952 2.8880
-6.4050 2.1197 2.8878
-6.3763 2.0451 2.8876
-6.3472 1.9712 2.8874
-6.3178 1.8982 2.8872
-6.2880 1.8259 2.8870
-6.2580 1.7544 2.8868
-6.2276 1.6837 2.8867
-6.1969 1.6138 2.8865
-6.1660 1.5447 2.8863
-6.1347 1.4763 2.8861
-6.1032 1.4087 2.8859
-6.0714 1.3419 2.8858
-6.0394 1.2758 2.8856
-6.0071 1.2104 2.8854
-5.9746 1.1458 2.8852
-5.9419 1.0819 2.8851
-5.9089 1.0187 2.8849
-5.8757 0.9563 2.8847
-5.8423 0.8946 2.8846
-5.8087 0.8335 2.8844
-5.7749 0.7732 2.8843
-5.7409 0.7136 2.8841
-5.7068 0.6547 2.8839
-5.6724 0.5964 2.8838
-5.6379 0.5389 2.8836
-5.6032 0.4820 2.8835
-5.5684 0.4257 2.8833
-5.5334 0.3701 2.8832
-5.4983 0.3152 2.8830
-5.4630 0.2610 2.8829
-5.4276 0.2073 2.8827
-5.3921 0.1543 2.8826
-5.3564 0.1020 2.8824
-5.3207 0.0502 2.8823
-5.2847 -0.0009 2.8821
-5.2487 -0.0514 2.8820
-5.2126 -0.1013 2.8818
-5.1764 -0.1506 2.8817
-5.1401 -0.1993 2.8816
-5.1037 -0.2474 2.8814
-5.0672 -0.2949 2.8813
-5.0306 -0.3419 2.8812
-4.9939 -0.3883 2.8810
-4.9572 -0.4341 2.8809
-4.9203 -0.4793 2.8807
-4.8834 -0.5240 2.8806
-4.8465 -0.5681 2.8805
-4.8094 -0.6117 2.8803
-4.7723 -0.6548 2.8802
-4.7352 -0.6973 2.8801
-4.6980 -0.7393 2.8800
-4.6607 -0.7807 2.8798
-4.5860 -0.8621 2.8796
-4.6234 -0.8217 2.8797
-4.5486 -0.9020 2.8795
-4.5112 -0.9414 2.8793
-4.3986 -1.0566 2.8790
-4.4737 -0.9803 2.8792
-4.3610 -1.0941 2.8789
-4.4361 -1.0187 2.8791
-4.3233 -1.1310 2.8787
-4.2103 -1.2390 2.8784
-4.2857 -1.1675 2.8786
-4.1725 -1.2741 2.8783
-4.2480 -1.2035 2.8785
-4.0214 -1.4097 2.8778
-4.1348 -1.3087 2.8782
-3.8321 -1.5694 2.8773
-3.9835 -1.4426 2.8777
-4.0970 -1.3428 2.8781
-3.7942 -1.6001 2.8772
-3.9457 -1.4749 2.8776
-4.0592 -1.3765 2.8780
-3.7563 -1.6303 2.8771
-3.9078 -1.5068 2.8775
-3.7184 -1.6601 2.8770
-3.6426 -1.7185 2.8768
-3.8700 -1.5383 2.8774
-3.6047 -1.7471 2.8767
-3.6805 -1.6895 2.8769
-3.4531 -1.8575 2.8763
-3.5668 -1.7753 2.8766
-3.2636 -1.9868 2.8759
-3.4152 -1.8841 2.8762
-3.5289 -1.8031 2.8765
-3.2257 -2.0115 2.8758
-3.3773 -1.9104 2.8761
-3.1879 -2.0359 2.8757
-3.4910 -1.8305 2.8764
-3.3394 -1.9362 2.8760
-3.1500 -2.0599 2.8756
-3.0743 -2.1068 2.8754
-3.3015 -1.9617 2.8759
-3.1121 -2.0835 2.8755
-3.0365 -2.1298 2.8753
-2.8852 -2.2180 2.8750
-2.9986 -2.1523 2.8752
-2.8474 -2.2392 2.8749
-2.9608 -2.1746 2.8752
-2.8097 -2.2600 2.8748
-2.9230 -2.1964 2.8751
-2.7719 -2.2805 2.8747
-2.7342 -2.3007 2.8747
-2.6964 -2.3206 2.8746
-2.6587 -2.3401 2.8745
-2.6210 -2.3593 2.8744
-2.5833 -2.3782 2.8744
-5.8773 5.5785 2.8277
-5.9467 5.5442 2.8561
-6.0166 5.5097 2.8850
-6.0455 5.4376 2.8947
-6.0529 5.3471 2.8945
-6.0593 5.2570 2.8943
-6.0647 5.1674 2.8941
-6.0693 5.0783 2.8939
-6.0729 4.9896 2.8937
-6.0757 4.9014 2.8935
-6.0776 4.8137 2.8933
-6.0744 4.3829 2.8924
-6.0516 3.9658 2.8915
-6.0786 4.7265 2.8931
-6.0713 4.2984 2.8922
-6.0448 3.8841 2.8913
-6.0788 4.6398 2.8929
-6.0675 4.2144 2.8920
-6.0373 3.8030 2.8911
-6.0781 4.5536 2.8928
-6.0629 4.1310 2.8918
-6.0292 3.7224 2.8909
-6.0109 3.5631 2.8905
-6.0766 4.4680 2.8926
-6.0576 4.0481 2.8916
-6.0204 3.6425 2.8907
-6.0008 3.4844 2.8904
-5.8829 2.8030 2.8888
-5.9542 3.1754 2.8896
-5.7987 2.4461 2.8879
-5.9900 3.4062 2.8902
-5.8671 2.7304 2.8886
-5.9410 3.0997 2.8895
-5.7804 2.3765 2.8878
-5.9787 3.3287 2.8900
-5.8507 2.6584 2.8884
-5.9273 3.0246 2.8893
-5.7616 2.3076 2.8876
-5.9667 3.2518 2.8898
-5.8338 2.5870 2.8883
-5.9131 2.9501 2.8891
-5.7028 2.1046 2.8871
-5.8165 2.5162 2.8881
-5.5966 1.7785 2.8863
-5.7424 2.2393 2.8874
-5.8982 2.8763 2.8889
-5.6823 2.0382 2.8869
-5.4812 1.4675 2.8855
-5.5742 1.7151 2.8861
-5.7228 2.1717 2.8873
-5.3577 1.1714 2.8847
-5.6615 1.9723 2.8868
-5.5514 1.6523 2.8860
-5.4571 1.4071 2.8853
-5.2271 0.8898 2.8840
-5.3321 1.1139 2.8846
-5.6402 1.9071 2.8866
-5.5284 1.5901 2.8858
-5.2002 0.8352 2.8839
-5.4327 1.3473 2.8852
-5.6186 1.8425 2.8864
-5.3063 1.0571 2.8844
-5.5049 1.5285 2.8857
-5.4080 1.2881 2.8850
-5.1730 0.7812 2.8837
-5.0902 0.6224 2.8833
-5.2801 1.0007 2.8843
-5.3830 1.2295 2.8849
-4.9479 0.3688 2.8826
-5.1457 0.7277 2.8836
-5.0622 0.5706 2.8832
-5.2537 0.9450 2.8842
-4.8007 0.1284 2.8820
-4.9188 0.3196 2.8825
-5.1181 0.6748 2.8834
-5.0339 0.5193 2.8830
-4.6495 -0.0992 2.8813
-4.7708 0.0819 2.8818
-4.8895 0.2710 2.8824
-4.4947 -0.3143 2.8807
-5.0054 0.4686 2.8829
-4.6188 -0.1432 2.8812
-4.7407 0.0358 2.8817
-4.8601 0.2230 2.8822
-4.4633 -0.3559 2.8806
-4.9767 0.4184 2.8828
-4.5879 -0.1867 2.8811
-4.7104 -0.0097 2.8816
-4.8305 0.1754 2.8821
-4.4318 -0.3970 2.8805
-4.3367 -0.5175 2.8801
-4.5570 -0.2297 2.8809
-4.6800 -0.0547 2.8815
-4.1762 -0.7091 2.8795
-4.4002 -0.4376 2.8803
-4.3048 -0.5567 2.8800
