ply
format ascii 1.0
element vertex 2162
property float32 x
property float32 y
property float32 z
end_header
11.5098 -17.8511 1.4147
12.0936 -17.9725 1.3746
11.7625 -16.4173 1.1827
12.2862 -17.8778 1.3416
11.5287 -15.7628 1.1109
12.0131 -17.1186 1.2593
11.3099 -15.1503 1.0434
10.9129 -14.0374 0.9196
11.1067 -14.5785 0.9799
10.7305 -13.5280 0.8626
10.2416 -12.1627 0.7081
10.5584 -13.0473 0.8085
10.1056 -11.7664 0.6621
10.3957 -12.5929 0.7571
9.9670 -11.3788 0.6174
9.7095 -10.6587 0.5337
9.8351 -11.0100 0.5747
9.5897 -10.3236 0.4943
9.2610 -9.4043 0.3850
9.4752 -10.0035 0.4565
9.1605 -9.1233 0.3511
9.3658 -9.6974 0.4201
9.0727 -8.8622 0.3187
8.8897 -8.3526 0.2563
8.9794 -8.6024 0.2870
8.8033 -8.1122 0.2265
8.7202 -7.8808 0.1977
8.5627 -7.4423 0.1424
8.6400 -7.6576 0.1696
8.4880 -7.2345 0.1159
8.2785 -6.6513 0.0404
8.4158 -7.0336 0.0901
8.2131 -6.4692 0.0165
8.3461 -6.8393 0.0649
8.1497 -6.2927 -0.0069
8.0175 -5.9472 -0.0521
8.0969 -6.1281 -0.0298
7.9407 -5.7724 -0.0737
7.6848 -5.2538 -0.1350
7.8568 -5.5964 -0.0948
7.6173 -5.1007 -0.1546
7.7693 -5.4220 -0.1152
7.5661 -4.9616 -0.1740
7.4675 -4.6940 -0.2120
7.5162 -4.8260 -0.1932
7.4201 -4.5652 -0.2305
7.4021 -4.2650 -0.2888
7.3976 -4.1683 -0.3081
7.4111 -4.4620 -0.2499
7.3932 -4.0728 -0.3273
7.4066 -4.3629 -0.2694
7.3889 -3.9784 -0.3464
7.3846 -3.8852 -0.3655
7.4650 -3.5688 -0.4469
7.3893 -3.7975 -0.3850
7.4902 -3.4930 -0.4678
7.4146 -3.7211 -0.4055
7.5152 -3.4174 -0.4887
7.4399 -3.6449 -0.4262
7.5402 -3.3419 -0.5097
7.5651 -3.2666 -0.5309
7.6952 -2.9785 -0.6191
7.5900 -3.1914 -0.5521
7.7354 -2.9091 -0.6422
7.6153 -3.1166 -0.5735
7.7756 -2.8396 -0.6655
7.6552 -3.0476 -0.5962
7.8160 -2.7698 -0.6890
8.0253 -2.4184 -0.8108
7.8565 -2.6998 -0.7128
8.0785 -2.3503 -0.8371
7.8972 -2.6295 -0.7368
8.1322 -2.2817 -0.8638
7.9381 -2.5589 -0.7611
8.1863 -2.2126 -0.8908
7.9791 -2.4881 -0.7856
8.2409 -2.1429 -0.9181
8.4639 -1.8579 -1.0316
8.2959 -2.0725 -0.9459
8.5316 -1.7872 -1.0624
8.3514 -2.0016 -0.9741
8.6045 -1.7165 -1.0942
8.4074 -1.9301 -1.0026
8.6784 -1.6450 -1.1267
8.7533 -1.5724 -1.1597
9.0993 -1.2764 -1.3035
8.8293 -1.4988 -1.1934
9.2228 -1.2035 -1.3463
8.9064 -1.4241 -1.2278
9.3494 -1.1289 -1.3903
8.9846 -1.3483 -1.2628
9.4793 -1.0523 -1.4357
9.6189 -0.9743 -1.4834
10.7204 -0.6707 -1.7731
9.8461 -0.9018 -1.5457
11.0412 -0.5841 -1.8575
10.0839 -0.8259 -1.6112
11.3074 -0.4890 -1.9346
10.3712 -0.7491 -1.6861
11.5866 -0.3893 -2.0156
11.8799 -0.2845 -2.1009
12.1885 -0.1743 -2.1909
13.2192 0.1939 -2.4931
12.5135 -0.0582 -2.2860
13.6338 0.3318 -2.6120
12.8566 0.0643 -2.3865
14.0448 0.4777 -2.7330
14.9477 0.7983 -2.9997
14.4818 0.6329 -2.8620
15.4453 0.9750 -3.1471
15.9783 1.1643 -3.3054
17.1425 1.5841 -3.6539
16.5301 1.3658 -3.4712
17.8038 1.8198 -3.8515
20.1607 2.6571 -4.5573
18.5201 2.0751 -4.0660
21.0963 2.9898 -4.8384
19.3072 2.3537 -4.3013
22.1534 3.3602 -5.1546
24.5382 4.2135 -5.8752
23.2826 3.7642 -5.4955
6.5887 -14.3462 2.1145
7.3500 -14.4518 2.0898
6.7748 -14.3709 2.1086
6.9636 -14.3966 2.1025
7.5478 -14.4812 2.0832
7.1553 -14.4236 2.0962
7.7477 -14.5099 2.0761
7.9484 -14.5351 2.0682
8.1524 -14.5615 2.0600
8.3598 -14.5892 2.0516
8.9999 -14.6731 2.0241
8.5708 -14.6181 2.0430
9.2181 -14.6991 2.0138
8.7854 -14.6483 2.0342
9.1332 -14.2474 1.9381
9.5008 -14.1928 1.9020
9.2780 -14.1619 1.9124
9.7281 -14.2251 1.8913
10.4387 -14.3311 1.8573
9.9600 -14.2589 1.8803
10.6859 -14.3697 1.8454
10.1968 -14.2942 1.8690
10.9378 -14.4087 1.8329
10.7598 -13.6074 1.6965
10.9461 -14.1275 1.7795
10.5842 -13.1171 1.6181
10.4184 -12.6542 1.5438
10.1130 -11.8012 1.4063
10.2616 -12.2162 1.4733
9.9789 -11.4154 1.3435
9.5963 -10.3452 1.1690
9.8451 -11.0411 1.2827
9.4804 -10.0209 1.1158
9.7178 -10.6848 1.2246
9.3696 -9.7110 1.0647
9.1621 -9.1304 0.9686
9.2636 -9.4145 1.0157
9.0730 -8.8661 0.9241
8.8011 -8.1090 0.7972
8.9788 -8.6037 0.8802
8.7172 -7.8755 0.7577
8.8882 -8.3515 0.8380
8.6364 -7.6505 0.7196
8.4833 -7.2241 0.6468
8.5585 -7.4335 0.6826
8.2066 -6.4537 0.5137
8.4106 -7.0218 0.6121
8.3404 -6.8262 0.5783
8.1429 -6.2762 0.4827
8.2724 -6.6369 0.5455
8.0890 -6.1101 0.4529
7.9321 -5.7527 0.3928
8.0092 -5.9284 0.4224
7.6097 -5.0800 0.2811
7.8458 -5.5746 0.3635
7.5583 -4.9403 0.2559
7.7580 -5.3996 0.3350
7.5082 -4.8043 0.2313
7.6733 -5.2308 0.3073
7.4594 -4.6718 0.2072
7.4149 -4.5446 0.1837
7.3967 -4.1485 0.0957
7.4103 -4.4436 0.1614
7.3923 -4.0525 0.0741
7.4057 -4.3439 0.1393
7.3880 -3.9578 0.0527
7.4012 -4.2456 0.1174
7.3837 -3.8641 0.0314
7.3952 -3.7797 0.0103
7.4966 -3.4734 -0.0744
7.4207 -3.7028 -0.0108
7.5218 -3.3974 -0.0957
7.4461 -3.6261 -0.0320
7.5469 -3.3215 -0.1171
7.4714 -3.5497 -0.0532
7.5720 -3.2458 -0.1386
7.5970 -3.1703 -0.1601
7.7475 -2.8881 -0.2485
7.6268 -3.0968 -0.1817
7.7880 -2.8181 -0.2711
7.6669 -3.0274 -0.2038
7.8287 -2.7479 -0.2938
7.7072 -2.9579 -0.2261
7.8694 -2.6775 -0.3168
8.0967 -2.3271 -0.4358
7.9103 -2.6068 -0.3400
8.1507 -2.2581 -0.4608
7.9514 -2.5358 -0.3633
8.2052 -2.1885 -0.4861
7.9927 -2.4646 -0.3869
8.2601 -2.1183 -0.5117
8.0431 -2.3957 -0.4111
8.3155 -2.0475 -0.5377
8.5582 -1.7614 -0.6461
8.3714 -1.9761 -0.5639
8.6317 -1.6902 -0.6752
8.4278 -1.9041 -0.5906
8.7062 -1.6180 -0.7047
8.4857 -1.8316 -0.6176
8.7817 -1.5449 -0.7347
8.8583 -1.4707 -0.7653
9.2713 -1.1749 -0.9027
8.9360 -1.3954 -0.7964
9.3994 -1.0994 -0.9412
9.0245 -1.3205 -0.8291
9.5308 -1.0219 -0.9807
9.1464 -1.2486 -0.8654
9.7065 -0.9463 -1.0258
9.9381 -0.8724 -1.0779
10.1806 -0.7950 -1.1327
11.1463 -0.5470 -1.3343
10.5063 -0.7187 -1.1984
11.4177 -0.4501 -1.3993
10.8542 -0.6375 -1.2687
11.7026 -0.3483 -1.4675
12.0020 -0.2414 -1.5395
12.3171 -0.1288 -1.6153
12.6493 -0.0102 -1.6955
13.7926 0.3887 -1.9697
13.0000 0.1150 -1.7803
14.2133 0.5381 -2.0717
13.3964 0.2480 -1.8737
14.6611 0.6971 -2.1806
15.6492 1.0480 -2.4214
15.1387 0.8667 -2.2969
16.1788 1.2410 -2.5523
18.0741 1.9166 -3.0177
16.7634 1.4494 -2.6956
18.8124 2.1797 -3.1995
17.3933 1.6739 -2.8503
19.6246 2.4672 -3.3991
21.4744 3.1250 -3.8556
20.5064 2.7808 -3.6166
22.5585 3.5073 -4.1226
26.4807 4.9136 -5.0982
23.7293 3.9263 -4.4132
28.2104 5.5198 -5.5248
25.0025 4.3876 -4.7315
30.1069 6.1966 -5.9968
5.4595 -11.7132 2.3430
5.6117 -11.7282 2.3409
5.7659 -11.7439 2.3388
5.9221 -11.7601 2.3366
6.0805 -11.7769 2.3343
6.2411 -11.7943 2.3320
6.4041 -11.8124 2.3296
6.5695 -11.8311 2.3271
6.7374 -11.8505 2.3246
6.9080 -11.8706 2.3220
7.0813 -11.8914 2.3193
7.2285 -11.8654 2.3073
7.4366 -11.9352 2.3137
7.6210 -11.9615 2.3115
7.8097 -11.9903 2.3094
7.9902 -12.0022 2.3038
8.1720 -12.0125 2.2977
8.2774 -11.9090 2.2697
8.1737 -11.5120 2.1858
8.3568 -11.5237 2.1796
8.5442 -11.5374 2.1735
8.7350 -11.5517 2.1673
8.9293 -11.5667 2.1609
9.1275 -11.5825 2.1543
9.3296 -11.5989 2.1476
9.5357 -11.6161 2.1408
9.7461 -11.6341 2.1337
9.9607 -11.6525 2.1264
9.9928 -11.4572 2.0800
9.8569 -11.0771 2.0002
9.7277 -10.7155 1.9242
9.6045 -10.3710 1.8517
9.4871 -10.0424 1.7824
9.3749 -9.7285 1.7161
9.2676 -9.4284 1.6526
9.1649 -9.1410 1.5917
9.0745 -8.8734 1.5345
8.9793 -8.6082 1.4781
8.8878 -8.3535 1.4238
8.7999 -8.1086 1.3715
8.7153 -7.8730 1.3211
8.6338 -7.6460 1.2725
8.5552 -7.4272 1.2255
8.4795 -7.2162 1.1800
8.4063 -7.0123 1.1361
8.3355 -6.8154 1.0935
8.2671 -6.6249 1.0522
8.2009 -6.4405 1.0122
8.1368 -6.2619 0.9733
8.0821 -6.0944 0.9364
8.0019 -5.9117 0.8975
7.9244 -5.7352 0.8597
7.8360 -5.5551 0.8218
7.7479 -5.3794 0.7848
7.6629 -5.2099 0.7491
7.6027 -5.0610 0.7166
7.5511 -4.9208 0.6856
7.5008 -4.7843 0.6553
7.4518 -4.6513 0.6258
7.4141 -4.5279 0.5977
7.4095 -4.4264 0.5727
7.4049 -4.3262 0.5479
7.4003 -4.2274 0.5234
7.3959 -4.1298 0.4991
7.3914 -4.0335 0.4751
7.3871 -3.9383 0.4512
7.3828 -3.8443 0.4276
7.4008 -3.7628 0.4055
7.4264 -3.6854 0.3837
7.4520 -3.6083 0.3620
7.5281 -3.3784 0.2967
7.4774 -3.5315 0.3402
7.5534 -3.3021 0.2749
7.5028 -3.4548 0.3185
7.5786 -3.2260 0.2531
7.6377 -3.0779 0.2097
7.6037 -3.1501 0.2313
7.6781 -3.0081 0.1881
7.7999 -2.7976 0.1227
7.7186 -2.9381 0.1665
7.8408 -2.7270 0.1006
7.7592 -2.8680 0.1446
7.8818 -2.6561 0.0784
7.9643 -2.5137 0.0335
7.9229 -2.5850 0.0560
8.0066 -2.4423 0.0108
8.1685 -2.2353 -0.0587
8.0602 -2.3738 -0.0121
8.2234 -2.1653 -0.0823
8.1141 -2.3048 -0.0353
8.2786 -2.0946 -0.1062
8.3906 -1.9516 -0.1549
8.3344 -2.0234 -0.1304
8.4473 -1.8791 -0.1796
8.6579 -1.6648 -0.2569
8.5108 -1.8073 -0.2048
8.5839 -1.7365 -0.2306
8.7330 -1.5921 -0.2835
8.9645 -1.3678 -0.3662
8.8091 -1.5184 -0.3106
8.8862 -1.4436 -0.3381
9.0687 -1.2944 -0.3958
9.4478 -1.0709 -0.4916
9.1920 -1.2217 -0.4268
9.5806 -0.9925 -0.5253
9.3183 -1.1473 -0.4588
9.7919 -0.9191 -0.5644
10.2942 -0.7664 -0.6512
10.0278 -0.8438 -0.6061
10.6389 -0.6889 -0.7030
11.5255 -0.4120 -0.8594
10.9768 -0.6046 -0.7563
11.8159 -0.3083 -0.9147
11.2488 -0.5108 -0.8069
12.1213 -0.1993 -0.9729
12.7819 0.0367 -1.0991
12.4428 -0.0844 -1.0343
13.1402 0.1646 -1.1677
14.3782 0.5972 -1.4028
13.5428 0.3005 -1.2426
14.8364 0.7599 -1.4908
13.9478 0.4443 -1.3202
15.3256 0.9337 -1.5850
16.3920 1.3174 -1.7921
15.8489 1.1195 -1.6858
16.9922 1.5314 -1.9083
19.1054 2.2833 -2.3179
17.6394 1.7621 -2.0337
19.9368 2.5790 -2.4794
18.3396 2.0117 -2.1696
20.8468 2.9026 -2.6563
22.9578 3.6522 -3.0670
21.8649 3.2610 -2.8533
24.1703 4.0863 -3.3043
28.8326 5.7444 -4.2149
25.5086 4.5680 -3.5672
30.7894 6.4466 -4.5995
27.0471 5.1155 -3.8678
33.0747 7.2621 -5.0477
38.7516 9.3042 -6.1671
35.7192 8.2085 -5.5674
4.6618 -9.8539 2.5014
4.7876 -9.8575 2.5004
4.9148 -9.8612 2.4994
5.0434 -9.8650 2.4984
5.1738 -9.8698 2.4975
5.3070 -9.8772 2.4973
5.4418 -9.8848 2.4970
5.5784 -9.8926 2.4967
5.7167 -9.9006 2.4963
5.8569 -9.9088 2.4960
5.9987 -9.9168 2.4955
6.1404 -9.9217 2.4942
6.2841 -9.9268 2.4929
6.4298 -9.9321 2.4915
6.5519 -9.8990 2.4804
6.7273 -9.9433 2.4886
6.8794 -9.9492 2.4872
7.0338 -9.9554 2.4856
7.1871 -9.9568 2.4829
7.3398 -9.9546 2.4791
7.4947 -9.9524 2.4752
7.5183 -9.7766 2.4282
7.4601 -9.5008 2.3563
7.6148 -9.4991 2.3525
7.7730 -9.4986 2.3488
7.9338 -9.4983 2.3451
8.0973 -9.4981 2.3413
8.2636 -9.4980 2.3374
8.4329 -9.4980 2.3334
8.6051 -9.4982 2.3294
8.7806 -9.4986 2.3253
8.9593 -9.4990 2.3211
9.1415 -9.4997 2.3168
9.2725 -9.4447 2.2988
9.1685 -9.1538 2.2234
9.0768 -8.8828 2.1530
8.9805 -8.6147 2.0835
8.8881 -8.3574 2.0167
8.7994 -8.1101 1.9525
8.7140 -7.8722 1.8907
8.6318 -7.6433 1.8311
8.5526 -7.4226 1.7737
8.4762 -7.2098 1.7183
8.4024 -7.0044 1.6647
8.3312 -6.8060 1.6130
8.2623 -6.6141 1.5629
8.1957 -6.4285 1.5144
8.1312 -6.2488 1.4674
8.0758 -6.0800 1.4231
7.9951 -5.8963 1.3754
7.9172 -5.7189 1.3293
7.8268 -5.5368 1.2822
7.7383 -5.3603 1.2366
7.6530 -5.1903 1.1926
7.5961 -5.0431 1.1541
7.5443 -4.9023 1.1170
7.4938 -4.7653 1.0809
7.4446 -4.6318 1.0458
7.4134 -4.5119 1.0137
7.4087 -4.4099 0.9858
7.4041 -4.3093 0.9582
7.3995 -4.2100 0.9309
7.3950 -4.1119 0.9040
7.3906 -4.0152 0.8774
7.3862 -3.9196 0.8510
7.3819 -3.8252 0.8250
7.4062 -3.7464 0.8023
7.4320 -3.6686 0.7799
7.4577 -3.5911 0.7575
7.4833 -3.5138 0.7351
7.5088 -3.4368 0.7128
7.5342 -3.3599 0.6904
7.5596 -3.2833 0.6682
7.5849 -3.2068 0.6459
7.6102 -3.1305 0.6237
7.6484 -3.0595 0.6024
7.6890 -2.9892 0.5813
7.7297 -2.9189 0.5602
7.7706 -2.8483 0.5389
7.8115 -2.7775 0.5175
7.8526 -2.7065 0.4961
7.8939 -2.6353 0.4745
7.9352 -2.5638 0.4528
7.9768 -2.4920 0.4310
8.0230 -2.4213 0.4093
8.0769 -2.3524 0.3879
8.1312 -2.2830 0.3662
8.1859 -2.2131 0.3444
8.2411 -2.1426 0.3223
8.2967 -2.0715 0.3000
8.3528 -1.9998 0.2776
8.4094 -1.9276 0.2548
8.4665 -1.8546 0.2319
8.5354 -1.7834 0.2090
8.6091 -1.7121 0.1859
8.6836 -1.6399 0.1624
8.7592 -1.5667 0.1386
8.8359 -1.4924 0.1144
8.9136 -1.4171 0.0898
8.9925 -1.3408 0.0649
9.1122 -1.2688 0.0397
9.2367 -1.1953 0.0139
9.3644 -1.1200 -0.0126
9.4953 -1.0428 -0.0398
9.6470 -0.9653 -0.0679
9.8765 -0.8921 -0.0976
10.1167 -0.8155 -0.1287
10.4178 -0.7386 -0.1621
10.7712 -0.6593 -0.1982
11.0816 -0.5710 -0.2353
11.3503 -0.4750 -0.2733
11.6321 -0.3744 -0.3131
11.9282 -0.2687 -0.3550
12.2395 -0.1575 -0.3992
12.5675 -0.0404 -0.4457
12.9135 0.0831 -0.4948
13.2793 0.2137 -0.5468
13.6881 0.3526 -0.6028
14.1018 0.4995 -0.6615
14.5418 0.6558 -0.7239
15.0106 0.8224 -0.7905
15.5113 1.0002 -0.8617
16.0474 1.1906 -0.9380
16.6042 1.3935 -1.0187
17.2199 1.6130 -1.1067
17.8846 1.8499 -1.2017
18.6043 2.1065 -1.3047
19.3922 2.3860 -1.4171
20.2486 2.6906 -1.5395
21.1871 3.0244 -1.6738
22.2282 3.3930 -1.8223
23.3574 3.7974 -1.9849
24.6081 4.2460 -2.1653
26.0174 4.7494 -2.3680
27.6535 5.3258 -2.6010
29.4597 5.9708 -2.8610
31.5126 6.7061 -3.1573
33.8894 7.5567 -3.5002
36.7214 8.5637 -3.9070
39.9222 9.7204 -4.3726
43.9957 11.1667 -4.9574
4.0734 -8.4814 2.6218
4.1805 -8.4782 2.6213
4.2886 -8.4749 2.6209
4.3976 -8.4715 2.6204
4.5076 -8.4680 2.6200
4.6187 -8.4645 2.6195
4.7308 -8.4610 2.6191
4.8433 -8.4560 2.6182
4.9564 -8.4502 2.6171
5.0707 -8.4444 2.6160
5.1861 -8.4384 2.6149
5.3028 -8.4324 2.6138
5.4206 -8.4263 2.6126
5.5397 -8.4200 2.6115
5.6602 -8.4137 2.6103
5.7820 -8.4073 2.6092
5.9052 -8.4007 2.6080
6.0085 -8.3642 2.5975
6.1562 -8.3873 2.6056
6.2840 -8.3804 2.6044
6.4134 -8.3734 2.6032
6.5443 -8.3659 2.6019
6.6744 -8.3553 2.5996
6.8063 -8.3445 2.5973
6.9399 -8.3335 2.5949
6.9412 -8.1648 2.5435
6.8840 -7.9327 2.4722
7.0067 -7.9104 2.4664
7.1426 -7.9007 2.4645
7.2807 -7.8911 2.4627
7.4208 -7.8813 2.4609
7.5632 -7.8714 2.4590
7.7070 -7.8603 2.4568
7.8530 -7.8490 2.4546
8.0014 -7.8375 2.4523
8.1523 -7.8257 2.4500
8.3057 -7.8137 2.4477
8.4618 -7.8015 2.4453
8.6207 -7.7889 2.4429
8.6300 -7.6412 2.3981
8.5501 -7.4186 2.3298
8.4731 -7.2041 2.2640
8.3988 -6.9970 2.2005
8.3271 -6.7971 2.1391
8.2577 -6.6039 2.0799
8.1907 -6.4171 2.0226
8.1257 -6.2362 1.9672
8.0697 -6.0661 1.9151
7.9885 -5.8814 1.8583
7.9102 -5.7030 1.8035
7.8179 -5.5189 1.7469
7.7290 -5.3418 1.6924
7.6434 -5.1711 1.6399
7.5897 -5.0256 1.5954
7.5376 -4.8841 1.5521
7.4869 -4.7465 1.5100
7.4376 -4.6126 1.4691
7.4127 -4.4961 1.4336
7.4080 -4.3936 1.4026
7.4033 -4.2925 1.3721
7.3987 -4.1927 1.3419
7.3942 -4.0942 1.3122
7.3898 -3.9970 1.2828
7.3854 -3.9010 1.2538
7.3856 -3.8086 1.2260
7.4116 -3.7301 1.2027
7.4375 -3.6519 1.1794
7.4634 -3.5740 1.1562
7.4891 -3.4963 1.1331
7.5147 -3.4188 1.1101
7.5403 -3.3416 1.0872
7.5658 -3.2645 1.0643
7.5913 -3.1876 1.0415
7.6182 -3.1116 1.0190
7.6590 -3.0411 0.9983
7.6999 -2.9705 0.9776
7.7408 -2.8997 0.9568
7.7819 -2.8288 0.9360
7.8231 -2.7576 0.9151
7.8644 -2.6862 0.8942
7.9059 -2.6145 0.8733
7.9475 -2.5426 0.8522
7.9892 -2.4705 0.8311
8.0393 -2.4005 0.8108
8.0935 -2.3311 0.7907
8.1482 -2.2613 0.7704
8.2033 -2.1909 0.7501
8.2588 -2.1200 0.7295
8.3147 -2.0485 0.7089
8.3712 -1.9764 0.6880
8.4281 -1.9037 0.6670
8.4868 -1.8306 0.6459
8.5600 -1.7597 0.6257
8.6341 -1.6879 0.6052
8.7092 -1.6151 0.5844
8.7854 -1.5413 0.5633
8.8626 -1.4665 0.5420
8.9409 -1.3907 0.5204
9.0328 -1.3156 0.4992
9.1557 -1.2432 0.4792
9.2815 -1.1689 0.4586
9.4105 -1.0928 0.4376
9.5429 -1.0148 0.4160
9.7280 -0.9395 0.3960
9.9615 -0.8650 0.3767
10.2061 -0.7869 0.3565
10.5430 -0.7105 0.3380
10.8889 -0.6282 0.3178
11.1789 -0.5367 0.2942
11.4525 -0.4390 0.2686
11.7395 -0.3365 0.2418
12.0412 -0.2288 0.2137
12.3586 -0.1155 0.1840
12.6930 0.0039 0.1528
11.9758 0.1193 0.1101
12.6496 0.2482 0.0802
13.8344 0.4051 0.0484
14.2572 0.5552 0.0092
14.7069 0.7150 -0.0324
15.1865 0.8854 -0.0768
15.6990 1.0674 -0.1242
16.2322 1.2613 -0.1747
16.8188 1.4704 -0.2292
17.4504 1.6956 -0.2877
18.1328 1.9389 -0.3510
18.8725 2.2026 -0.4195
19.6831 2.4902 -0.4942
20.5652 2.8039 -0.5757
21.5330 3.1482 -0.6651
22.5975 3.5273 -0.7635
23.7642 3.9452 -0.8720
25.0640 4.4105 -0.9928
26.5378 4.9350 -1.1288
28.2219 5.5312 -1.2833
30.1029 6.2031 -1.4575
32.2565 6.9731 -1.6572
34.7595 7.8674 -1.8891
37.7456 8.9286 -2.1640
41.1499 10.1560 -2.4825
45.5147 11.7026 -2.8828
3.6033 -7.3887 2.7054
3.6950 -7.3792 2.7044
3.7873 -7.3695 2.7035
3.8802 -7.3596 2.7025
3.9738 -7.3495 2.7015
4.0680 -7.3392 2.7006
4.1629 -7.3287 2.6996
4.2585 -7.3180 2.6987
4.3549 -7.3071 2.6977
4.4520 -7.2959 2.6967
4.5498 -7.2845 2.6958
4.6485 -7.2729 2.6948
4.7480 -7.2611 2.6938
4.8484 -7.2490 2.6929
4.9496 -7.2366 2.6919
5.0517 -7.2240 2.6909
5.1548 -7.2112 2.6900
5.2589 -7.1981 2.6890
5.3640 -7.1847 2.6880
5.4701 -7.1710 2.6871
5.5593 -7.1340 2.6774
5.6856 -7.1428 2.6851
5.7950 -7.1283 2.6841
5.9056 -7.1134 2.6832
6.0174 -7.0983 2.6822
6.1301 -7.0824 2.6810
6.2437 -7.0657 2.6797
6.3586 -7.0487 2.6784
6.4748 -7.0314 2.6771
6.4859 -6.9003 2.6325
6.4314 -6.7036 2.5628
6.5040 -6.6421 2.5447
6.6209 -6.6248 2.5437
6.7398 -6.6076 2.5429
6.8602 -6.5899 2.5419
6.9818 -6.5714 2.5409
7.1051 -6.5526 2.5398
7.2302 -6.5333 2.5388
7.3570 -6.5135 2.5377
7.4858 -6.4933 2.5366
7.6164 -6.4727 2.5356
7.7491 -6.4515 2.5345
7.8838 -6.4299 2.5334
8.0207 -6.4078 2.5323
8.1598 -6.3851 2.5312
8.1201 -6.2232 2.4749
8.0634 -6.0518 2.4147
7.9818 -5.8660 2.3485
7.9015 -5.6855 2.2843
7.8087 -5.5007 2.2180
7.7195 -5.3227 2.1543
7.6368 -5.1536 2.0939
7.5830 -5.0076 2.0426
7.5307 -4.8656 1.9929
7.4799 -4.7274 1.9445
7.4303 -4.5929 1.8975
7.4119 -4.4800 1.8593
7.4072 -4.3769 1.8251
7.4025 -4.2753 1.7914
7.3979 -4.1751 1.7582
7.3934 -4.0761 1.7255
7.3889 -3.9785 1.6933
7.3845 -3.8821 1.6615
7.3910 -3.7925 1.6326
7.4171 -3.7135 1.6083
7.4432 -3.6349 1.5841
7.4691 -3.5565 1.5601
7.4950 -3.4784 1.5362
7.5208 -3.4005 1.5124
7.5465 -3.3229 1.4887
7.5721 -3.2454 1.4652
7.5977 -3.1682 1.4417
7.6288 -3.0934 1.4194
7.6698 -3.0225 1.3990
7.7109 -2.9515 1.3786
7.7521 -2.8803 1.3582
7.7934 -2.8089 1.3378
7.8348 -2.7373 1.3174
7.8764 -2.6655 1.2969
7.9181 -2.5935 1.2765
7.9599 -2.5212 1.2560
8.0019 -2.4486 1.2355
8.0559 -2.3793 1.2168
8.1105 -2.3095 1.1980
8.1655 -2.2393 1.1792
8.2209 -2.1684 1.1602
8.2767 -2.0971 1.1412
8.3330 -2.0251 1.1220
8.3898 -1.9526 1.1028
8.4471 -1.8794 1.0834
8.5111 -1.8070 1.0647
8.5849 -1.7356 1.0470
8.6596 -1.6632 1.0291
8.7352 -1.5899 1.0110
8.8119 -1.5156 0.9927
8.8897 -1.4403 0.9743
8.9685 -1.3639 0.9556
9.0757 -1.2903 0.9395
9.1998 -1.2171 0.9246
9.3270 -1.1421 0.9094
9.4574 -1.0652 0.8939
9.5912 -0.9863 0.8781
9.8109 -0.9130 0.8692
10.0486 -0.8372 0.8606
10.3241 -0.7596 0.8539
10.6720 -0.6815 0.8515
11.0080 -0.5962 0.8463
11.2784 -0.5016 0.8343
11.5570 -0.4021 0.8215
11.8495 -0.2977 0.8081
12.1569 -0.1880 0.7942
12.4805 -0.0725 0.7795
12.8217 0.0493 0.7641
12.1908 0.1646 0.6917
12.1460 0.2813 0.6546
12.1116 0.3974 0.6183
13.3188 0.5657 0.6421
13.9508 0.7275 0.6331
14.2705 0.8823 0.6072
14.9614 1.0700 0.5943
11.9186 0.9680 0.4397
11.9084 1.0829 0.4057
11.8705 1.1950 0.3709
11.8049 1.3035 0.3356
11.9157 1.4322 0.3051
12.4745 1.6216 0.2842
13.0900 1.8302 0.2613
13.7714 2.0611 0.2360
14.5440 2.3204 0.2081
24.1858 4.0983 0.2776
25.5488 4.5833 0.2209
27.0798 5.1282 0.1573
28.8144 5.7453 0.0855
30.7755 6.4459 0.0037
33.0366 7.2531 -0.0902
35.6753 8.1943 -0.1994
38.7594 9.2977 -0.3277
42.4940 10.6288 -0.4814
47.1076 12.2676 -0.6693
3.2125 -6.4851 2.7582
3.2929 -6.4736 2.7574
3.3737 -6.4618 2.7566
3.4550 -6.4498 2.7558
3.5367 -6.4376 2.7550
3.6189 -6.4250 2.7542
3.7015 -6.4122 2.7535
3.7847 -6.3991 2.7527
3.8683 -6.3857 2.7520
3.9525 -6.3721 2.7512
4.0373 -6.3581 2.7505
4.1226 -6.3438 2.7497
4.2084 -6.3293 2.7490
4.2949 -6.3144 2.7482
4.3820 -6.2992 2.7475
4.4697 -6.2837 2.7468
4.5581 -6.2679 2.7461
4.6471 -6.2517 2.7453
4.7368 -6.2352 2.7446
4.8273 -6.2183 2.7439
4.9185 -6.2011 2.7432
5.0104 -6.1835 2.7425
5.1031 -6.1656 2.7418
5.1816 -6.1296 2.7332
5.2909 -6.1285 2.7404
5.3861 -6.1094 2.7397
5.4822 -6.0900 2.7391
5.5791 -6.0700 2.7384
5.6770 -6.0497 2.7377
5.7759 -6.0289 2.7370
5.8757 -6.0077 2.7364
5.9765 -5.9861 2.7357
6.0784 -5.9640 2.7350
6.1161 -5.8787 2.7055
6.0728 -5.7182 2.6413
6.0771 -5.6056 2.5990
6.1783 -5.5827 2.5984
6.2810 -5.5597 2.5980
6.3851 -5.5364 2.5976
6.4904 -5.5125 2.5973
6.5970 -5.4881 2.5969
6.7050 -5.4631 2.5966
6.8143 -5.4376 2.5963
6.9250 -5.4115 2.5960
7.0372 -5.3849 2.5957
7.1509 -5.3576 2.5954
7.2661 -5.3297 2.5951
7.3829 -5.3011 2.5948
7.5013 -5.2719 2.5945
7.6215 -5.2420 2.5942
7.6300 -5.1352 2.5560
7.5760 -4.9885 2.4977
7.5235 -4.8459 2.4412
7.4724 -4.7072 2.3863
7.4227 -4.5722 2.3331
7.4112 -4.4630 2.2927
7.4064 -4.3594 2.2550
7.4017 -4.2573 2.2180
7.3971 -4.1566 2.1816
7.3925 -4.0572 2.1458
7.3880 -3.9592 2.1106
7.3836 -3.8623 2.0759
7.3966 -3.7756 2.0465
7.4229 -3.6962 2.0211
7.4490 -3.6171 1.9959
7.4751 -3.5383 1.9709
7.5012 -3.4598 1.9461
7.5271 -3.3815 1.9214
7.5529 -3.3035 1.8970
7.5787 -3.2256 1.8726
7.6044 -3.1480 1.8485
7.6397 -3.0744 1.8267
7.6810 -3.0031 1.8065
7.7223 -2.9317 1.7863
7.7638 -2.8601 1.7662
7.8053 -2.7883 1.7461
7.8470 -2.7163 1.7261
7.8888 -2.6441 1.7061
7.9307 -2.5717 1.6861
7.9727 -2.4990 1.6661
8.0184 -2.4271 1.6469
8.0730 -2.3574 1.6294
8.1279 -2.2872 1.6119
8.1833 -2.2165 1.5944
8.2391 -2.1452 1.5768
8.2952 -2.0734 1.5592
8.3519 -2.0010 1.5416
8.4090 -1.9280 1.5239
8.4666 -1.8544 1.5061
8.5363 -1.7826 1.4903
8.6106 -1.7106 1.4751
8.6858 -1.6378 1.4598
8.7620 -1.5639 1.4443
8.8393 -1.4891 1.4288
8.9176 -1.4132 1.4131
8.9976 -1.3364 1.3974
9.1201 -1.2641 1.3879
9.2456 -1.1901 1.3783
9.3741 -1.1143 1.3685
9.5059 -1.0366 1.3586
9.6660 -0.9593 1.3520
9.8973 -0.8855 1.3543
10.1393 -0.8082 1.3569
10.4505 -0.7313 1.3673
10.8041 -0.6510 1.3813
11.1113 -0.5617 1.3877
11.3820 -0.4651 1.3880
11.6658 -0.3638 1.3884
11.9639 -0.2574 1.3889
12.2774 -0.1455 1.3896
12.6075 -0.0276 1.3905
12.2157 0.0912 1.3121
12.2839 0.2102 1.2842
12.1605 0.3255 1.2366
12.1427 0.4423 1.2002
12.1035 0.5578 1.1620
12.0646 0.6726 1.1241
12.0259 0.7868 1.0866
11.9874 0.9003 1.0494
11.9491 1.0133 1.0125
11.9110 1.1258 0.9760
11.8240 1.2325 0.9359
11.7911 1.3440 0.9004
15.1284 1.8722 1.1132
15.0562 2.0106 1.0661
21.2365 3.0443 1.4449
22.2582 3.4097 1.4529
23.3827 3.8127 1.4616
24.6310 4.2600 1.4716
26.0621 4.7664 1.4853
27.6537 5.3330 1.4997
29.4440 5.9728 1.5157
31.5015 6.7065 1.5347
33.8780 7.5540 1.5571
36.6668 8.5472 1.5842
39.9261 9.7132 1.6149
43.9364 11.1380 1.6558
2.8882 -5.7378 2.7941
2.9597 -5.7255 2.7935
3.0314 -5.7130 2.7930
3.1035 -5.7001 2.7925
3.1759 -5.6870 2.7919
3.2486 -5.6735 2.7914
3.3217 -5.6598 2.7909
3.3951 -5.6457 2.7904
3.4690 -5.6314 2.7899
3.5432 -5.6167 2.7894
3.6177 -5.6017 2.7889
3.6927 -5.5863 2.7885
3.7681 -5.5707 2.7880
3.8439 -5.5546 2.7876
3.9202 -5.5383 2.7871
3.9969 -5.5216 2.7867
4.0741 -5.5045 2.7862
4.1518 -5.4871 2.7858
4.2300 -5.4693 2.7854
4.3086 -5.4511 2.7850
4.3878 -5.4326 2.7846
4.4675 -5.4136 2.7842
4.5478 -5.3943 2.7838
4.6287 -5.3745 2.7834
4.7101 -5.3544 2.7830
4.7921 -5.3338 2.7827
4.8747 -5.3128 2.7823
4.9580 -5.2914 2.7820
5.0419 -5.2695 2.7816
5.1265 -5.2472 2.7813
5.2119 -5.2246 2.7811
5.2979 -5.2014 2.7808
5.3846 -5.1777 2.7805
5.4723 -5.1537 2.7803
5.5610 -5.1295 2.7803
5.6506 -5.1049 2.7804
5.7411 -5.0797 2.7804
5.8282 -5.0504 2.7785
5.8088 -4.9295 2.7262
5.7921 -4.8135 2.6764
5.8099 -4.7281 2.6435
5.9008 -4.7020 2.6439
5.9925 -4.6753 2.6443
6.0852 -4.6480 2.6446
6.1790 -4.6201 2.6450
6.2737 -4.5916 2.6455
6.3695 -4.5625 2.6459
6.4664 -4.5328 2.6464
6.5645 -4.5024 2.6468
6.6638 -4.4715 2.6474
6.7663 -4.4411 2.6488
6.8702 -4.4100 2.6501
6.9755 -4.3783 2.6516
7.0821 -4.3458 2.6531
7.1903 -4.3126 2.6546
7.3000 -4.2786 2.6562
7.4008 -4.2379 2.6541
7.3962 -4.1367 2.6143
7.3916 -4.0369 2.5752
7.3871 -3.9384 2.5367
7.3826 -3.8412 2.4989
7.4025 -3.7576 2.4698
7.4290 -3.6777 2.4433
7.4553 -3.5982 2.4169
7.4816 -3.5190 2.3908
7.5077 -3.4400 2.3649
7.5338 -3.3613 2.3393
7.5598 -3.2828 2.3139
7.5857 -3.2046 2.2887
7.6115 -3.1266 2.2637
7.6513 -3.0544 2.2430
7.6928 -2.9826 2.2228
7.7344 -2.9108 2.2028
7.7761 -2.8388 2.1829
7.8179 -2.7665 2.1631
7.8598 -2.6941 2.1433
7.9018 -2.6215 2.1236
7.9440 -2.5487 2.1040
7.9863 -2.4756 2.0845
8.0362 -2.4045 2.0670
8.0911 -2.3343 2.0507
8.1464 -2.2637 2.0344
8.2021 -2.1925 2.0182
8.2582 -2.1208 2.0019
8.3147 -2.0485 1.9857
8.3717 -1.9757 1.9695
8.4292 -1.9022 1.9533
8.4889 -1.8285 1.9375
8.5628 -1.7569 1.9248
8.6376 -1.6845 1.9121
8.7134 -1.6111 1.8993
8.7902 -1.5367 1.8865
8.8680 -1.4613 1.8737
8.9469 -1.3848 1.8609
9.0429 -1.3096 1.8513
9.1668 -1.2366 1.8469
9.2936 -1.1618 1.8426
9.4236 -1.0851 1.8384
9.5569 -1.0065 1.8341
9.7530 -0.9315 1.8412
9.9887 -0.8563 1.8546
10.2421 -0.7781 1.8700
10.5851 -0.7010 1.9001
10.9287 -0.6175 1.9285
11.2156 -0.5249 1.9452
11.4915 -0.4264 1.9586
11.7809 -0.3231 1.9728
12.0850 -0.2146 1.9879
12.4049 -0.1004 2.0039
12.7420 0.0199 2.0211
12.2003 0.1368 1.8997
12.1554 0.2536 1.8575
12.1667 0.3712 1.8242
12.1275 0.4871 1.7836
12.0885 0.6022 1.7435
12.0497 0.7167 1.7038
12.0111 0.8305 1.6644
11.9727 0.9438 1.6255
11.9345 1.0564 1.5870
11.8780 1.1667 1.5465
15.2276 1.6437 1.9404
11.7770 1.3859 1.4683
19.7530 2.5172 2.4084
15.1420 2.0777 1.8048
21.6052 3.1762 2.5162
22.6513 3.5526 2.5764
23.8155 3.9699 2.6443
25.1441 4.4400 2.7239
26.1299 4.8732 2.7603
26.8122 5.2672 2.7603
27.5291 5.6830 2.7603
28.2838 6.1224 2.7603
29.0795 6.5874 2.7603
29.9196 7.0802 2.7603
30.8081 7.6034 2.7603
31.7497 8.1597 2.7603
32.7494 8.7524 2.7603
34.0481 9.4504 2.7795
36.8762 10.6175 2.9127
38.1548 11.3832 2.9127
39.5247 12.2061 2.9127
40.9961 13.0927 2.9127
42.5812 14.0506 2.9127
44.2941 15.0886 2.9127
46.1512 16.2172 2.9127
2.6194 -5.1182 2.8231
2.6834 -5.1056 2.8227
2.7478 -5.0926 2.8222
2.8124 -5.0793 2.8218
2.8771 -5.0657 2.8215
2.9421 -5.0518 2.8211
3.0074 -5.0376 2.8207
3.0730 -5.0231 2.8203
3.1388 -5.0082 2.8200
3.2049 -4.9930 2.8196
3.2713 -4.9774 2.8193
3.3379 -4.9616 2.8190
3.4049 -4.9453 2.8187
3.4722 -4.9288 2.8184
3.5398 -4.9118 2.8181
3.6077 -4.8945 2.8178
3.6759 -4.8769 2.8175
3.7445 -4.8589 2.8172
3.8135 -4.8405 2.8170
3.8828 -4.8217 2.8167
3.9525 -4.8026 2.8165
4.0225 -4.7830 2.8163
4.0930 -4.7631 2.8160
4.1638 -4.7427 2.8158
4.2351 -4.7220 2.8156
4.3068 -4.7008 2.8154
4.3789 -4.6792 2.8153
4.4515 -4.6571 2.8151
4.5245 -4.6347 2.8150
4.5980 -4.6117 2.8148
4.6719 -4.5884 2.8147
4.7464 -4.5645 2.8146
4.8213 -4.5402 2.8144
4.8968 -4.5154 2.8144
4.9728 -4.4901 2.8143
5.0494 -4.4644 2.8142
5.1265 -4.4381 2.8141
5.2041 -4.4113 2.8141
5.2828 -4.3843 2.8143
5.3632 -4.3577 2.8150
5.4442 -4.3304 2.8158
5.5258 -4.3027 2.8166
5.6086 -4.2746 2.8176
5.6898 -4.2442 2.8175
5.6910 -4.1544 2.7780
5.6955 -4.0683 2.7409
5.7008 -3.9841 2.7049
5.7304 -3.9177 2.6810
5.8140 -3.8878 2.6823
5.8985 -3.8575 2.6838
5.9839 -3.8264 2.6852
6.0702 -3.7946 2.6867
6.1574 -3.7622 2.6882
6.2464 -3.7296 2.6901
6.3393 -3.6980 2.6933
6.4303 -3.6639 2.6953
6.5223 -3.6291 2.6973
6.6154 -3.5934 2.6993
6.7096 -3.5570 2.7014
6.8048 -3.5197 2.7035
6.9013 -3.4816 2.7056
7.0046 -3.4455 2.7100
7.1098 -3.4086 2.7147
7.2142 -3.3697 2.7185
7.3171 -3.3285 2.7213
7.4213 -3.2864 2.7242
7.5333 -3.2459 2.7294
7.5932 -3.1819 2.7154
7.6222 -3.1047 2.6905
7.6639 -3.0327 2.6703
7.7056 -2.9605 2.6502
7.7475 -2.8882 2.6303
7.7894 -2.8158 2.6105
7.8314 -2.7431 2.5908
7.8736 -2.6703 2.5713
7.9159 -2.5973 2.5519
7.9583 -2.5240 2.5326
8.0008 -2.4505 2.5135
8.0552 -2.3802 2.4980
8.1104 -2.3096 2.4829
8.1661 -2.2385 2.4678
8.2221 -2.1668 2.4528
8.2786 -2.0946 2.4379
8.3356 -2.0219 2.4230
8.3929 -1.9486 2.4082
8.4508 -1.8747 2.3935
8.5166 -1.8017 2.3809
8.5910 -1.7296 2.3706
8.6664 -1.6565 2.3604
8.7428 -1.5825 2.3502
8.8202 -1.5076 2.3401
8.8987 -1.4316 2.3300
8.9782 -1.3546 2.3200
9.0914 -1.2811 2.3184
9.2167 -1.2072 2.3193
9.3450 -1.1315 2.3204
9.4765 -1.0539 2.3218
9.6170 -0.9749 2.3248
9.8467 -0.9016 2.3485
10.0870 -0.8249 2.3734
10.3785 -0.7474 2.4090
10.7310 -0.6683 2.4571
11.0592 -0.5812 2.4977
11.3278 -0.4853 2.5233
11.6093 -0.3849 2.5503
11.9047 -0.2794 2.5790
12.2153 -0.1686 2.6094
12.5422 -0.0520 2.6416
12.2238 0.0674 2.5382
12.1949 0.1849 2.4962
13.6411 0.3384 2.7523
13.2467 0.4564 2.6342
14.0848 0.6212 2.7603
14.2938 0.7683 2.7603
11.9838 0.7598 2.2801
11.9455 0.8728 2.2390
11.9402 0.9879 2.2045
11.9192 1.1016 2.1674
11.8318 1.2083 2.1187
11.7994 1.3195 2.0804
11.8663 1.4424 2.0596
15.0672 1.9784 2.5742
16.4167 2.3159 2.7603
16.6840 2.5170 2.7603
16.9586 2.7249 2.7603
17.2410 2.9400 2.7603
17.5314 3.1626 2.7603
17.8304 3.3931 2.7603
18.1382 3.6319 2.7603
18.4554 3.8795 2.7603
19.5034 4.2950 2.8662
20.1755 4.6458 2.9127
20.5430 4.9378 2.9127
20.9226 5.2411 2.9127
21.3151 5.5565 2.9127
21.7212 5.8847 2.9127
22.1415 6.2263 2.9127
22.5771 6.5822 2.9127
23.0287 6.9533 2.9127
23.4974 7.3405 2.9127
23.9842 7.7448 2.9127
24.4904 8.1674 2.9127
25.0171 8.6095 2.9127
25.5658 9.0724 2.9127
26.1379 9.5575 2.9127
26.7351 10.0664 2.9127
27.3593 10.6009 2.9127
28.0124 11.1628 2.9127
2.3925 -4.5955 2.8476
2.4505 -4.5827 2.8473
2.5086 -4.5696 2.8469
2.5670 -4.5562 2.8466
2.6255 -4.5425 2.8463
2.6841 -4.5284 2.8460
2.7430 -4.5141 2.8457
2.8021 -4.4994 2.8455
2.8613 -4.4844 2.8452
2.9207 -4.4690 2.8450
2.9804 -4.4533 2.8447
3.0402 -4.4373 2.8445
3.1003 -4.4210 2.8443
3.1606 -4.4042 2.8440
3.2211 -4.3872 2.8439
3.2819 -4.3698 2.8437
3.3429 -4.3520 2.8435
3.4041 -4.3339 2.8433
3.4656 -4.3154 2.8432
3.5274 -4.2965 2.8430
3.5894 -4.2772 2.8429
3.6517 -4.2576 2.8428
3.7142 -4.2375 2.8427
3.7771 -4.2171 2.8426
3.8402 -4.1963 2.8425
3.9037 -4.1750 2.8424
3.9674 -4.1534 2.8424
4.0315 -4.1313 2.8423
4.0959 -4.1088 2.8423
4.1606 -4.0859 2.8423
4.2256 -4.0625 2.8423
4.2910 -4.0387 2.8423
4.3568 -4.0144 2.8423
4.4229 -3.9897 2.8423
4.4893 -3.9645 2.8424
4.5562 -3.9389 2.8424
4.6234 -3.9127 2.8425
4.6910 -3.8861 2.8426
4.7591 -3.8589 2.8427
4.8275 -3.8313 2.8428
4.8964 -3.8031 2.8429
4.9657 -3.7744 2.8431
5.0354 -3.7452 2.8432
5.1056 -3.7154 2.8434
5.1763 -3.6851 2.8436
5.2474 -3.6542 2.8438
5.3213 -3.6243 2.8452
5.3955 -3.5936 2.8466
5.4703 -3.5624 2.8479
5.5463 -3.5308 2.8496
5.6229 -3.4986 2.8513
5.6998 -3.4657 2.8529
5.7153 -3.3951 2.8239
5.7306 -3.3251 2.7952
5.7457 -3.2556 2.7670
5.7629 -3.1878 2.7401
5.7898 -3.1259 2.7183
5.8621 -3.0880 2.7178
5.9410 -3.0527 2.7201
6.0204 -3.0164 2.7224
6.1005 -2.9794 2.7246
6.1814 -2.9416 2.7269
6.2631 -2.9030 2.7292
6.3485 -2.8648 2.7328
6.4317 -2.8245 2.7351
6.5159 -2.7834 2.7375
6.6006 -2.7412 2.7398
6.6855 -2.6979 2.7418
6.7714 -2.6537 2.7440
6.8625 -2.6102 2.7478
6.9499 -2.5640 2.7499
7.0377 -2.5167 2.7518
7.1250 -2.4678 2.7531
7.2132 -2.4179 2.7545
7.3016 -2.3668 2.7556
7.3907 -2.3146 2.7567
7.4803 -2.2611 2.7576
7.5710 -2.2067 2.7587
7.6631 -2.1512 2.7598
7.7539 -2.0940 2.7602
7.8445 -2.0353 2.7603
7.9360 -1.9755 2.7603
8.0285 -1.9144 2.7603
8.1218 -1.8522 2.7603
8.2162 -1.7887 2.7603
8.3115 -1.7239 2.7603
8.4078 -1.6578 2.7603
8.5052 -1.5903 2.7603
8.6036 -1.5214 2.7603
8.7031 -1.4512 2.7603
8.8037 -1.3795 2.7603
8.9055 -1.3062 2.7603
9.0085 -1.2315 2.7603
9.1126 -1.1552 2.7603
9.2180 -1.0773 2.7603
9.3246 -0.9977 2.7603
9.4325 -0.9164 2.7603
9.5417 -0.8334 2.7603
9.6523 -0.7486 2.7603
9.7642 -0.6619 2.7603
9.8776 -0.5734 2.7603
9.9925 -0.4829 2.7603
10.1089 -0.3904 2.7603
10.2268 -0.2958 2.7603
10.3463 -0.1991 2.7603
10.4674 -0.1003 2.7603
10.5902 0.0008 2.7603
10.7147 0.1042 2.7603
10.8409 0.2100 2.7603
10.9690 0.3183 2.7603
11.0990 0.4291 2.7603
11.2308 0.5425 2.7603
11.3646 0.6585 2.7603
11.5005 0.7774 2.7603
11.6384 0.8991 2.7603
11.7786 1.0237 2.7603
11.9209 1.1514 2.7603
12.0655 1.2823 2.7603
11.7835 1.3666 2.6633
12.3618 1.5538 2.7603
12.5137 1.6948 2.7603
12.6887 1.8423 2.7647
13.1884 2.0438 2.8384
13.7021 2.2577 2.9127
13.8738 2.4224 2.9127
14.0485 2.5914 2.9127
14.2266 2.7650 2.9127
14.4078 2.9431 2.9127
14.5925 3.1262 2.9127
14.7808 3.3142 2.9127
14.9726 3.5075 2.9127
15.1683 3.7062 2.9127
15.3679 3.9104 2.9127
15.5715 4.1205 2.9127
15.7794 4.3367 2.9127
15.9916 4.5592 2.9127
16.2084 4.7882 2.9127
16.4298 5.0241 2.9127
16.6562 5.2671 2.9127
16.8876 5.5175 2.9127
17.1243 5.7756 2.9127
17.3665 6.0417 2.9127
17.6144 6.3163 2.9127
17.8683 6.5997 2.9127
18.1284 6.8922 2.9127
18.3950 7.1943 2.9127
18.6683 7.5065 2.9127
18.9486 7.8291 2.9127
2.1975 -4.1463 2.8684
2.2503 -4.1336 2.8681
2.3033 -4.1206 2.8679
2.3564 -4.1072 2.8676
2.4096 -4.0936 2.8674
2.4629 -4.0797 2.8672
2.5164 -4.0654 2.8670
2.5700 -4.0509 2.8668
2.6237 -4.0360 2.8666
2.6776 -4.0207 2.8664
2.7316 -4.0052 2.8663
2.7858 -3.9893 2.8661
2.8401 -3.9731 2.8660
2.8946 -3.9566 2.8659
2.9493 -3.9397 2.8658
3.0041 -3.9224 2.8657
3.0591 -3.9048 2.8656
3.1143 -3.8869 2.8655
3.1696 -3.8686 2.8654
3.2252 -3.8499 2.8654
3.2809 -3.8309 2.8653
3.3368 -3.8115 2.8653
3.3929 -3.7917 2.8653
3.4492 -3.7715 2.8653
3.5058 -3.7510 2.8653
3.5625 -3.7300 2.8653
3.6194 -3.7087 2.8654
3.6766 -3.6870 2.8654
3.7340 -3.6648 2.8655
3.7916 -3.6423 2.8656
3.8495 -3.6193 2.8657
3.9076 -3.5959 2.8658
3.9659 -3.5721 2.8659
4.0245 -3.5478 2.8661
4.0834 -3.5231 2.8662
4.1425 -3.4980 2.8664
4.2019 -3.4724 2.8666
4.2616 -3.4463 2.8668
4.3215 -3.4198 2.8670
4.3817 -3.3928 2.8672
4.4422 -3.3653 2.8675
4.5031 -3.3373 2.8677
4.5642 -3.3088 2.8680
4.6256 -3.2799 2.8683
4.6873 -3.2504 2.8686
4.7494 -3.2204 2.8689
4.8118 -3.1898 2.8693
4.8745 -3.1587 2.8696
4.9376 -3.1271 2.8700
5.0010 -3.0949 2.8704
5.0648 -3.0621 2.8709
5.1290 -3.0288 2.8713
5.1935 -2.9949 2.8718
5.2584 -2.9604 2.8722
5.3237 -2.9252 2.8727
5.3911 -2.8904 2.8742
5.4596 -2.8553 2.8760
5.5285 -2.8195 2.8778
5.5981 -2.7831 2.8797
5.6687 -2.7462 2.8819
5.7394 -2.7084 2.8839
5.8103 -2.6698 2.8858
5.8762 -2.6279 2.8850
5.8998 -2.5668 2.8635
5.9244 -2.5063 2.8428
5.9509 -2.4467 2.8233
5.9774 -2.3871 2.8040
6.0038 -2.3276 2.7849
6.0321 -2.2688 2.7669
6.0692 -2.2132 2.7531
6.1300 -2.1657 2.7501
6.2016 -2.1212 2.7518
6.2727 -2.0754 2.7530
6.3443 -2.0288 2.7542
6.4160 -1.9812 2.7552
6.4881 -1.9327 2.7562
6.5606 -1.8832 2.7571
6.6331 -1.8327 2.7579
6.7062 -1.7812 2.7586
6.7801 -1.7289 2.7595
6.8532 -1.6753 2.7598
6.9267 -1.6206 2.7601
7.0004 -1.5650 2.7603
7.0742 -1.5082 2.7603
7.1486 -1.4504 2.7603
7.2235 -1.3916 2.7603
7.2989 -1.3317 2.7603
7.3749 -1.2707 2.7603
7.4515 -1.2086 2.7603
7.5286 -1.1454 2.7603
7.6063 -1.0810 2.7603
7.6847 -1.0155 2.7603
7.7636 -0.9487 2.7603
7.8432 -0.8808 2.7603
7.9234 -0.8116 2.7603
8.0042 -0.7411 2.7603
8.0857 -0.6693 2.7603
8.1678 -0.5961 2.7603
8.2506 -0.5216 2.7603
8.3342 -0.4457 2.7603
8.4184 -0.3683 2.7603
8.5033 -0.2895 2.7603
8.5890 -0.2092 2.7603
8.6754 -0.1274 2.7603
8.7626 -0.0440 2.7603
8.8506 0.0411 2.7603
8.9393 0.1277 2.7603
9.0288 0.2160 2.7603
9.1192 0.3061 2.7603
9.2103 0.3979 2.7603
9.3023 0.4915 2.7603
9.3952 0.5869 2.7603
9.4890 0.6843 2.7603
9.6960 0.7928 2.7926
10.0052 0.9147 2.8532
10.3155 1.0427 2.9127
10.4183 1.1540 2.9127
10.5222 1.2674 2.9127
10.6271 1.3833 2.9127
10.7331 1.5014 2.9127
10.8401 1.6220 2.9127
10.9482 1.7452 2.9127
11.0575 1.8708 2.9127
11.1680 1.9992 2.9127
11.2796 2.1302 2.9127
11.3924 2.2640 2.9127
11.5064 2.4007 2.9127
11.6217 2.5402 2.9127
11.7382 2.6828 2.9127
11.8561 2.8285 2.9127
11.9752 2.9774 2.9127
12.0958 3.1296 2.9127
12.2177 3.2851 2.9127
12.3410 3.4440 2.9127
12.4658 3.6066 2.9127
12.5921 3.7727 2.9127
12.7198 3.9427 2.9127
12.8491 4.1165 2.9127
12.9800 4.2943 2.9127
13.1125 4.4762 2.9127
13.2466 4.6624 2.9127
13.3824 4.8529 2.9127
13.5199 5.0479 2.9127
13.6592 5.2475 2.9127
13.8002 5.4519 2.9127
13.9432 5.6613 2.9127
14.0879 5.8756 2.9127
14.2346 6.0953 2.9127
2.0254 -3.7509 2.8836
2.0739 -3.7387 2.8836
2.1225 -3.7262 2.8835
2.1712 -3.7133 2.8835
2.2200 -3.7001 2.8835
2.2688 -3.6867 2.8835
2.3177 -3.6728 2.8835
2.3668 -3.6587 2.8835
2.4159 -3.6442 2.8835
2.4651 -3.6294 2.8835
2.5144 -3.6143 2.8835
2.5638 -3.5988 2.8835
2.6133 -3.5830 2.8835
2.6629 -3.5669 2.8835
2.7126 -3.5504 2.8835
2.7624 -3.5335 2.8834
2.8123 -3.5163 2.8834
2.8624 -3.4988 2.8834
2.9125 -3.4808 2.8834
2.9628 -3.4625 2.8834
3.0132 -3.4439 2.8834
3.0636 -3.4249 2.8834
3.1143 -3.4055 2.8834
3.1650 -3.3857 2.8834
3.2159 -3.3656 2.8835
3.2669 -3.3450 2.8835
3.3180 -3.3241 2.8835
3.3693 -3.3028 2.8835
3.4207 -3.2810 2.8835
3.4722 -3.2589 2.8835
3.5239 -3.2364 2.8835
3.5757 -3.2134 2.8835
3.6276 -3.1901 2.8835
3.6797 -3.1663 2.8835
3.7320 -3.1421 2.8835
3.7844 -3.1174 2.8835
3.8370 -3.0923 2.8836
3.8897 -3.0668 2.8836
3.9426 -3.0408 2.8836
3.9956 -3.0144 2.8836
4.0488 -2.9875 2.8836
4.1022 -2.9602 2.8836
4.1557 -2.9323 2.8836
4.2094 -2.9040 2.8837
4.2633 -2.8752 2.8837
4.3173 -2.8460 2.8837
4.3716 -2.8162 2.8837
4.4260 -2.7859 2.8838
4.4806 -2.7552 2.8838
4.5353 -2.7239 2.8838
4.5903 -2.6920 2.8838
4.6455 -2.6597 2.8839
4.7009 -2.6268 2.8839
4.7564 -2.5934 2.8839
4.8122 -2.5594 2.8839
4.8681 -2.5249 2.8840
4.9243 -2.4897 2.8840
4.9807 -2.4541 2.8840
5.0373 -2.4178 2.8841
5.0941 -2.3809 2.8841
5.1511 -2.3435 2.8841
5.2083 -2.3054 2.8842
5.2658 -2.2667 2.8842
5.3309 -2.2305 2.8883
5.3950 -2.1929 2.8916
5.4582 -2.1541 2.8943
5.5217 -2.1146 2.8969
5.5850 -2.0741 2.8993
5.6473 -2.0324 2.9009
5.7092 -1.9897 2.9022
5.7716 -1.9463 2.9036
5.8339 -1.9021 2.9048
5.8963 -1.8570 2.9060
5.9590 -1.8111 2.9071
6.0216 -1.7643 2.9080
6.0845 -1.7168 2.9089
6.1474 -1.6683 2.9097
6.2104 -1.6190 2.9103
6.2737 -1.5688 2.9110
6.3373 -1.5178 2.9117
6.3956 -1.4647 2.9098
6.4329 -1.4062 2.8984
6.4703 -1.3473 2.8872
6.5081 -1.2881 2.8762
6.5509 -1.2294 2.8675
6.5940 -1.1702 2.8589
6.6375 -1.1105 2.8506
6.6813 -1.0503 2.8424
6.7268 -0.9898 2.8349
6.7779 -0.9294 2.8299
6.8296 -0.8683 2.8250
6.8818 -0.8065 2.8203
6.9346 -0.7440 2.8158
6.9943 -0.6814 2.8141
7.0565 -0.6180 2.8133
7.1195 -0.5536 2.8127
7.1835 -0.4883 2.8123
7.2567 -0.4224 2.8154
7.3328 -0.3554 2.8195
7.4103 -0.2872 2.8239
7.4939 -0.2177 2.8304
7.5876 -0.1469 2.8404
7.6834 -0.0745 2.8509
7.7880 -0.0003 2.8644
7.9063 0.0760 2.8825
8.0282 0.1546 2.9015
8.1297 0.2349 2.9127
8.2005 0.3159 2.9127
8.2717 0.3983 2.9127
8.3433 0.4821 2.9127
8.4152 0.5673 2.9127
8.4875 0.6539 2.9127
8.5602 0.7420 2.9127
8.6332 0.8317 2.9127
8.8544 1.1098 2.9127
8.7065 0.9228 2.9127
8.9288 1.2057 2.9127
8.7803 1.0155 2.9127
9.0037 1.3033 2.9127
9.1545 1.5035 2.9127
9.0789 1.4025 2.9127
9.2304 1.6062 2.9127
9.4606 1.9253 2.9127
9.5380 2.0354 2.9127
9.3067 1.7107 2.9127
9.6158 2.1475 2.9127
9.3835 1.8171 2.9127
9.6940 2.2615 2.9127
9.7727 2.3776 2.9127
10.0908 2.8628 2.9127
9.8516 2.4957 2.9127
10.1712 2.9896 2.9127
9.9310 2.6159 2.9127
10.2520 3.1187 2.9127
10.0107 2.7383 2.9127
10.3333 3.2502 2.9127
10.4148 3.3840 2.9127
10.4967 3.5202 2.9127
10.7447 3.9441 2.9127
10.5790 3.6590 2.9127
10.8280 4.0907 2.9127
10.6617 3.8003 2.9127
10.9117 4.2399 2.9127
10.9957 4.3919 2.9127
11.0800 4.5467 2.9127
11.1647 4.7044 2.9127
11.2497 4.8651 2.9127
11.3350 5.0288 2.9127
1.8658 -3.3880 2.8845
1.9102 -3.3761 2.8845
1.9546 -3.3638 2.8845
1.9991 -3.3513 2.8845
2.0437 -3.3385 2.8845
2.0883 -3.3253 2.8845
2.1329 -3.3118 2.8845
2.1776 -3.2981 2.8845
2.2224 -3.2840 2.8845
2.2672 -3.2696 2.8845
2.3121 -3.2548 2.8844
2.3571 -3.2398 2.8844
2.4021 -3.2244 2.8844
2.4472 -3.2087 2.8844
2.4923 -3.1927 2.8844
2.5375 -3.1763 2.8844
2.5828 -3.1596 2.8844
2.6282 -3.1425 2.8844
2.6736 -3.1252 2.8844
2.7191 -3.1074 2.8844
2.7646 -3.0894 2.8844
2.8103 -3.0709 2.8844
2.8560 -3.0521 2.8845
2.9018 -3.0330 2.8845
2.9476 -3.0135 2.8845
2.9936 -2.9937 2.8845
3.0396 -2.9734 2.8845
3.0857 -2.9528 2.8845
3.1319 -2.9319 2.8845
3.1781 -2.9105 2.8845
3.2245 -2.8888 2.8845
3.2709 -2.8667 2.8845
3.3174 -2.8442 2.8845
3.3640 -2.8213 2.8846
3.4107 -2.7980 2.8846
3.4575 -2.7743 2.8846
3.5044 -2.7502 2.8846
3.5514 -2.7257 2.8846
3.5984 -2.7008 2.8846
3.6456 -2.6755 2.8846
3.6928 -2.6497 2.8847
3.7402 -2.6235 2.8847
3.7876 -2.5969 2.8847
3.8352 -2.5699 2.8847
3.8828 -2.5424 2.8847
3.9305 -2.5145 2.8848
3.9784 -2.4860 2.8848
4.0263 -2.4572 2.8848
4.0744 -2.4279 2.8848
4.1225 -2.3981 2.8849
4.1708 -2.3679 2.8849
4.2191 -2.3371 2.8849
4.2676 -2.3059 2.8850
4.3161 -2.2742 2.8850
4.3648 -2.2420 2.8850
4.4136 -2.2093 2.8851
4.4625 -2.1761 2.8851
4.5115 -2.1424 2.8851
4.5606 -2.1081 2.8852
4.6099 -2.0734 2.8852
4.6592 -2.0381 2.8852
4.7087 -2.0022 2.8853
4.7582 -1.9658 2.8853
4.8079 -1.9289 2.8854
4.8577 -1.8914 2.8854
4.9076 -1.8533 2.8854
4.9577 -1.8146 2.8855
5.0078 -1.7754 2.8855
5.0614 -1.7367 2.8875
5.1171 -1.6980 2.8905
5.1727 -1.6585 2.8934
5.2277 -1.6180 2.8957
5.2828 -1.5768 2.8981
5.3376 -1.5348 2.9002
5.3921 -1.4919 2.9020
5.4468 -1.4483 2.9038
5.5011 -1.4039 2.9054
5.5554 -1.3587 2.9068
5.6094 -1.3127 2.9080
5.6635 -1.2659 2.9091
5.7171 -1.2182 2.9099
5.7706 -1.1698 2.9106
5.8243 -1.1206 2.9114
5.8778 -1.0706 2.9119
5.9308 -1.0197 2.9121
5.9839 -0.9680 2.9124
6.0371 -0.9156 2.9126
6.0900 -0.8624 2.9127
6.1430 -0.8083 2.9127
6.1961 -0.7535 2.9127
6.2492 -0.6978 2.9127
6.3025 -0.6413 2.9127
6.3559 -0.5840 2.9127
6.4095 -0.5259 2.9127
6.4631 -0.4669 2.9127
6.5168 -0.4070 2.9127
6.5706 -0.3462 2.9127
6.6246 -0.2846 2.9127
6.6786 -0.2220 2.9127
6.7327 -0.1585 2.9127
6.7869 -0.0941 2.9127
6.8413 -0.0287 2.9127
6.8957 0.0376 2.9127
6.9502 0.1050 2.9127
7.0047 0.1733 2.9127
7.0594 0.2426 2.9127
7.1142 0.3129 2.9127
7.1690 0.3843 2.9127
7.2239 0.4568 2.9127
7.2789 0.5303 2.9127
7.3339 0.6049 2.9127
7.3891 0.6806 2.9127
7.4442 0.7574 2.9127
7.4995 0.8353 2.9127
7.5547 0.9144 2.9127
7.6101 0.9947 2.9127
7.6654 1.0762 2.9127
7.7208 1.1589 2.9127
7.7763 1.2428 2.9127
7.8318 1.3280 2.9127
8.1093 1.7731 2.9127
8.1648 1.8661 2.9127
7.8873 1.4144 2.9127
8.2203 1.9606 2.9127
7.9428 1.5021 2.9127
8.2758 2.0564 2.9127
7.9983 1.5911 2.9127
8.3312 2.1537 2.9127
8.3866 2.2524 2.9127
8.0538 1.6814 2.9127
8.4420 2.3526 2.9127
8.5524 2.5575 2.9127
8.4972 2.4543 2.9127
8.6076 2.6622 2.9127
8.7723 2.9859 2.9127
8.6626 2.7685 2.9127
8.8270 3.0970 2.9127
8.7175 2.8764 2.9127
8.8816 3.2098 2.9127
8.9902 3.4405 2.9127
8.9360 3.3243 2.9127
9.0443 3.5584 2.9127
9.2053 3.9229 2.9127
9.0982 3.6781 2.9127
9.1518 3.7996 2.9127
9.2585 4.0480 2.9127
9.3114 4.1750 2.9127
9.3641 4.3039 2.9127
1.7247 -3.0671 2.8854
1.7655 -3.0555 2.8853
1.8063 -3.0437 2.8853
1.8471 -3.0315 2.8853
1.8880 -3.0191 2.8853
1.9289 -3.0063 2.8853
1.9698 -2.9933 2.8853
2.0108 -2.9799 2.8853
2.0518 -2.9663 2.8853
2.0928 -2.9523 2.8853
2.1339 -2.9380 2.8853
2.1750 -2.9235 2.8853
2.2161 -2.9086 2.8853
2.2573 -2.8934 2.8853
2.2985 -2.8779 2.8853
2.3398 -2.8621 2.8853
2.3810 -2.8460 2.8853
2.4224 -2.8295 2.8853
2.4637 -2.8127 2.8853
2.5051 -2.7956 2.8853
2.5465 -2.7782 2.8853
2.5880 -2.7605 2.8853
2.6295 -2.7424 2.8853
2.6711 -2.7239 2.8853
2.7127 -2.7052 2.8854
2.7543 -2.6861 2.8854
2.7960 -2.6666 2.8854
2.8377 -2.6468 2.8854
2.8795 -2.6267 2.8854
2.9212 -2.6062 2.8854
2.9631 -2.5853 2.8854
3.0050 -2.5641 2.8854
3.0469 -2.5426 2.8854
3.0889 -2.5206 2.8855
3.2151 -2.4526 2.8855
3.1309 -2.4983 2.8855
3.2572 -2.4292 2.8855
3.1730 -2.4756 2.8855
3.2994 -2.4054 2.8855
3.3839 -2.3566 2.8856
3.3417 -2.3812 2.8856
3.4263 -2.3316 2.8856
3.5535 -2.2543 2.8857
3.4686 -2.3062 2.8856
3.5960 -2.2277 2.8857
3.5110 -2.2805 2.8856
3.7238 -2.1455 2.8858
3.6386 -2.2007 2.8857
3.7665 -2.1172 2.8858
3.6812 -2.1733 2.8857
3.8092 -2.0885 2.8858
3.8948 -2.0299 2.8859
3.8520 -2.0594 2.8859
3.9377 -1.9999 2.8859
4.0665 -1.9072 2.8860
3.9806 -1.9694 2.8860
4.1096 -1.8754 2.8861
4.0235 -1.9385 2.8860
4.1526 -1.8431 2.8861
4.2389 -1.7771 2.8862
4.1958 -1.8104 2.8861
4.2821 -1.7434 2.8862
4.3254 -1.7092 2.8863
4.4119 -1.6394 2.8863
4.3686 -1.6746 2.8863
4.4553 -1.6037 2.8864
4.5856 -1.4936 2.8865
4.4987 -1.5675 2.8864
4.6291 -1.4558 2.8866
4.5421 -1.5308 2.8865
4.7597 -1.3394 2.8867
4.9466 -1.1793 2.8941
4.6726 -1.4176 2.8866
4.8034 -1.2995 2.8868
4.9940 -1.1378 2.8962
4.7162 -1.3787 2.8867
5.0415 -1.0957 2.8984
4.8501 -1.2598 2.8887
5.1356 -1.0093 2.9020
5.0889 -1.0529 2.9004
4.8983 -1.2199 2.8914
5.1825 -0.9650 2.9036
5.3218 -0.8280 2.9077
5.5041 -0.6354 2.9110
5.2292 -0.9201 2.9052
5.3677 -0.7809 2.9087
5.5495 -0.5854 2.9116
5.2755 -0.8744 2.9065
5.4135 -0.7331 2.9097
5.5943 -0.5348 2.9120
5.6832 -0.4313 2.9124
5.4588 -0.6846 2.9103
5.6388 -0.4834 2.9122
5.7277 -0.3785 2.9126
5.8598 -0.2158 2.9127
5.7718 -0.3250 2.9127
6.0354 0.0115 2.9127
5.9038 -0.1601 2.9127
5.8158 -0.2707 2.9127
6.0792 0.0703 2.9127
5.9477 -0.1036 2.9127
6.2103 0.2512 2.9127
6.1230 0.1298 2.9127
5.9916 -0.0464 2.9127
6.2539 0.3130 2.9127
6.1667 0.1900 2.9127
6.3842 0.5036 2.9127
6.2974 0.3757 2.9127
6.4274 0.5688 2.9127
6.5567 0.7696 2.9127
6.3408 0.4392 2.9127
6.4706 0.6349 2.9127
6.5995 0.8383 2.9127
6.7275 1.0497 2.9127
6.5137 0.7018 2.9127
6.6423 0.9078 2.9127
6.7698 1.1220 2.9127
6.8960 1.3447 2.9127
6.6849 0.9783 2.9127
6.8120 1.1953 2.9127
6.9378 1.4208 2.9127
7.0620 1.6551 2.9127
6.8541 1.2695 2.9127
6.9794 1.4979 2.9127
7.1030 1.7353 2.9127
7.2247 1.9818 2.9127
7.0208 1.5760 2.9127
7.1438 1.8164 2.9127
7.2648 2.0661 2.9127
7.3836 2.3254 2.9127
7.1844 1.8986 2.9127
7.3047 2.1515 2.9127
7.4227 2.4141 2.9127
7.5380 2.6867 2.9127
7.3443 2.2379 2.9127
7.4614 2.5038 2.9127
7.5758 2.7799 2.9127
7.6869 3.0664 2.9127
7.4998 2.5947 2.9127
7.6132 2.8742 2.9127
7.7233 3.1641 2.9127
7.8297 3.4651 2.9127
7.6502 2.9697 2.9127
7.7591 3.2633 2.9127
7.8643 3.5679 2.9127
7.7946 3.3636 2.9127
7.8984 3.6719 2.9127
7.9320 3.7771 2.9127
1.5985 -2.7802 2.8861
1.6361 -2.7690 2.8861
1.6737 -2.7575 2.8861
1.7113 -2.7458 2.8861
1.7490 -2.7338 2.8861
1.7866 -2.7215 2.8861
1.8243 -2.7089 2.8861
1.8619 -2.6960 2.8861
1.8996 -2.6828 2.8861
1.9373 -2.6694 2.8861
1.9750 -2.6556 2.8861
2.0127 -2.6416 2.8861
2.0505 -2.6273 2.8861
2.0882 -2.6126 2.8861
2.1260 -2.5977 2.8861
2.1637 -2.5825 2.8861
2.2015 -2.5670 2.8861
2.2393 -2.5512 2.8861
2.2772 -2.5350 2.8861
2.3150 -2.5186 2.8861
2.3528 -2.5018 2.8861
2.3907 -2.4848 2.8861
2.4285 -2.4674 2.8861
2.4664 -2.4498 2.8861
2.5043 -2.4318 2.8861
2.5422 -2.4134 2.8861
2.5801 -2.3948 2.8862
2.6181 -2.3758 2.8862
2.6560 -2.3565 2.8862
2.6940 -2.3369 2.8862
2.7319 -2.3170 2.8862
2.7699 -2.2967 2.8862
2.8079 -2.2761 2.8862
2.8459 -2.2551 2.8863
2.8839 -2.2338 2.8863
2.9220 -2.2122 2.8863
2.9600 -2.1902 2.8863
2.9980 -2.1679 2.8863
3.0361 -2.1452 2.8863
3.0741 -2.1221 2.8864
3.1122 -2.0987 2.8864
3.1503 -2.0750 2.8864
3.1884 -2.0508 2.8864
3.2265 -2.0263 2.8865
3.2646 -2.0015 2.8865
3.3026 -1.9762 2.8865
3.3407 -1.9506 2.8865
3.3788 -1.9246 2.8866
3.4170 -1.8983 2.8866
3.4551 -1.8715 2.8866
3.4932 -1.8444 2.8866
3.5313 -1.8168 2.8867
3.5694 -1.7889 2.8867
3.7218 -1.6731 2.8868
3.6075 -1.7605 2.8867
3.7599 -1.6431 2.8869
3.6456 -1.7318 2.8868
3.7980 -1.6127 2.8869
3.6837 -1.7026 2.8868
3.8361 -1.5819 2.8869
3.8742 -1.5507 2.8870
4.0263 -1.4214 2.8871
3.9122 -1.5190 2.8870
4.0643 -1.3880 2.8872
3.9503 -1.4869 2.8871
4.1023 -1.3541 2.8872
3.9883 -1.4544 2.8871
4.1403 -1.3198 2.8873
4.1782 -1.2850 2.8873
4.3297 -1.1411 2.8875
4.2161 -1.2497 2.8874
4.3675 -1.1040 2.8876
4.2540 -1.2140 2.8874
4.4053 -1.0664 2.8876
4.2919 -1.1778 2.8875
4.4430 -1.0283 2.8877
4.4807 -0.9896 2.8877
4.6321 -0.8303 2.8886
4.5184 -0.9505 2.8878
4.6735 -0.7898 2.8911
4.5560 -0.9109 2.8879
4.7149 -0.7487 2.8935
4.5936 -0.8708 2.8879
4.7558 -0.7069 2.8957
4.7963 -0.6645 2.8977
4.9562 -0.4886 2.9043
4.8369 -0.6215 2.8996
4.9956 -0.4430 2.9056
4.8769 -0.5778 2.9013
5.0346 -0.3968 2.9068
4.9166 -0.5335 2.9028
5.0735 -0.3500 2.9079
5.1119 -0.3026 2.9088
5.2631 -0.1066 2.9115
5.1503 -0.2545 2.9097
5.3004 -0.0560 2.9120
5.3370 -0.0049 2.9122
5.1880 -0.2058 2.9103
5.3735 0.0470 2.9123
5.2256 -0.1565 2.9109
5.4099 0.0994 2.9125
5.5530 0.3155 2.9127
5.4461 0.1525 2.9127
5.5883 0.3712 2.9127
5.4818 0.2062 2.9127
5.6205 0.4323 2.9127
5.5175 0.2605 2.9127
5.6585 0.4845 2.9127
5.6934 0.5421 2.9127
5.8311 0.7795 2.9127
5.7281 0.6004 2.9127
5.9656 1.0282 2.9127
5.7626 0.6595 2.9127
5.8650 0.8406 2.9127
5.9986 1.0921 2.9127
5.7969 0.7191 2.9127
6.0964 1.2885 2.9127
5.8987 0.9024 2.9127
6.0315 1.1568 2.9127
6.2231 1.5606 2.9127
6.1285 1.3553 2.9127
6.3452 1.8452 2.9127
5.9323 0.9650 2.9127
6.0641 1.2223 2.9127
6.2541 1.6306 2.9127
6.1603 1.4230 2.9127
6.3749 1.9183 2.9127
6.4619 2.1425 2.9127
6.2848 1.7014 2.9127
6.5727 2.4527 2.9127
6.1919 1.4914 2.9127
6.4042 1.9922 2.9127
6.3151 1.7729 2.9127
6.4902 2.2188 2.9127
6.5993 2.5324 2.9127
6.6767 2.7764 2.9127
6.4333 2.0669 2.9127
6.7733 3.1136 2.9127
6.6256 2.6129 2.9127
6.5181 2.2959 2.9127
6.7016 2.8594 2.9127
6.7961 3.2000 2.9127
6.6514 2.6942 2.9127
6.5456 2.3739 2.9127
6.7260 2.9433 2.9127
6.8184 3.2874 2.9127
6.7499 3.0280 2.9127
6.8402 3.3755 2.9127
1.4846 -2.5210 2.8868
1.5193 -2.5103 2.8868
1.5540 -2.4992 2.8868
1.5888 -2.4879 2.8868
1.6235 -2.4763 2.8868
1.7624 -2.4274 2.8868
1.7971 -2.4144 2.8868
1.6582 -2.4645 2.8868
1.8319 -2.4012 2.8868
1.6930 -2.4524 2.8868
1.8666 -2.3877 2.8868
1.9013 -2.3740 2.8868
2.0401 -2.3161 2.8868
1.7277 -2.4400 2.8868
1.9360 -2.3599 2.8868
2.0748 -2.3010 2.8868
2.1789 -2.2537 2.8868
1.9707 -2.3456 2.8868
2.1095 -2.2855 2.8868
2.2136 -2.2374 2.8868
2.4560 -2.1148 2.8869
2.0054 -2.3310 2.8868
2.1442 -2.2698 2.8868
