ply
format ascii 1.0
element vertex 1923
property float32 x
property float32 y
property float32 z
end_header
7.6656 -2.8463 -0.6450
7.8819 -2.5039 -0.7647
7.7085 -2.7784 -0.6684
7.9258 -2.4344 -0.7894
7.7516 -2.7102 -0.6921
7.9699 -2.3646 -0.8144
7.7948 -2.6418 -0.7160
8.0142 -2.2944 -0.8397
7.8382 -2.5730 -0.7402
8.0588 -2.2238 -0.8653
8.1150 -2.1558 -0.8925
8.4100 -1.8076 -1.0352
8.1729 -2.0875 -0.9202
8.4708 -1.7358 -1.0650
8.2313 -2.0186 -0.9483
8.5323 -1.6632 -1.0954
8.2903 -1.9490 -0.9768
8.6024 -1.5914 -1.1273
8.3498 -1.8786 -1.0057
8.6820 -1.5201 -1.1610
8.7628 -1.4476 -1.1953
9.2354 -1.0731 -1.3852
8.8449 -1.3741 -1.2303
9.3748 -0.9980 -1.4319
8.9283 -1.2993 -1.2660
9.5182 -0.9208 -1.4802
9.0131 -1.2233 -1.3025
9.6658 -0.8412 -1.5301
9.0999 -1.1461 -1.3399
9.8914 -0.7650 -1.5935
10.1693 -0.6880 -1.6668
10.5113 -0.6095 -1.7526
11.9432 -0.2309 -2.1287
10.9425 -0.5287 -1.8557
12.2996 -0.1190 -2.2281
12.6779 -0.0002 -2.3339
11.2891 -0.4364 -1.9468
13.0806 0.1263 -2.4468
11.6070 -0.3365 -2.0351
13.5426 0.2618 -2.5735
14.0059 0.4064 -2.7036
14.5027 0.5614 -2.8434
16.8867 1.3111 -3.5191
15.0367 0.7281 -2.9939
17.6177 1.5402 -3.7269
15.6124 0.9078 -3.1565
18.4169 1.7906 -3.9543
16.2352 1.1021 -3.3326
21.3550 2.7078 -4.7920
19.3029 2.0665 -4.2063
22.5880 3.0882 -5.1429
20.2756 2.3705 -4.4838
23.9257 3.5092 -5.5268
25.3915 3.9778 -5.9504
8.6708 11.8630 -6.4034
8.7604 11.4645 -6.2291
8.5969 12.0294 -6.4727
8.7162 11.6620 -6.3154
8.2697 11.8369 -6.3496
8.4455 12.9562 -6.8894
8.2362 12.0618 -6.4509
8.4790 12.7076 -6.7764
7.7705 12.2051 -6.4721
7.3232 12.6760 -6.6527
7.9808 12.8380 -6.7894
7.3269 13.0044 -6.8086
7.8468 12.9307 -6.8205
7.1055 12.9364 -6.7571
7.6775 12.9644 -6.8209
6.9838 13.0472 -6.7995
6.4452 12.6945 -6.5869
6.7890 13.0202 -6.7705
6.4078 12.9674 -6.7146
7.7218 -2.7574 -0.2780
7.7651 -2.6888 -0.3008
7.8086 -2.6199 -0.3237
7.8523 -2.5507 -0.3469
7.8962 -2.4812 -0.3703
7.9403 -2.4114 -0.3939
7.9847 -2.3411 -0.4178
8.0293 -2.2705 -0.4419
8.0773 -2.2004 -0.4664
8.1351 -2.1322 -0.4918
8.1933 -2.0634 -0.5175
8.2521 -1.9940 -0.5436
8.3115 -1.9239 -0.5701
8.3715 -1.8531 -0.5969
8.4321 -1.7816 -0.6241
8.4933 -1.7093 -0.6518
8.5551 -1.6362 -0.6798
8.6319 -1.5650 -0.7094
8.7121 -1.4931 -0.7398
8.7936 -1.4200 -0.7708
8.8764 -1.3459 -0.8023
8.9605 -1.2705 -0.8346
9.0460 -1.1939 -0.8674
9.1516 -1.1182 -0.9028
9.2889 -1.0443 -0.9421
9.4300 -0.9683 -0.9826
9.5752 -0.8900 -1.0244
9.7294 -0.8099 -1.0680
9.9986 -0.7353 -1.1256
10.2829 -0.6566 -1.1866
10.6794 -0.5785 -1.2625
11.0960 -0.4938 -1.3432
11.4140 -0.3976 -1.4142
11.7392 -0.2955 -1.4881
12.0834 -0.1874 -1.5665
12.4484 -0.0728 -1.6497
12.8362 0.0490 -1.7384
13.2492 0.1787 -1.8330
13.7206 0.3179 -1.9384
14.1964 0.4664 -2.0475
14.7069 0.6257 -2.1648
15.2563 0.7972 -2.2912
15.8492 0.9822 -2.4278
16.4705 1.1811 -2.5728
17.1635 1.3983 -2.7332
17.9190 1.6350 -2.9083
18.7460 1.8942 -3.1003
19.6644 2.1802 -3.3132
20.6742 2.4958 -3.5480
21.7969 2.8467 -3.8093
23.0679 3.2414 -4.1046
24.4637 3.6808 -4.4312
26.0190 4.1744 -4.7967
27.9185 4.7589 -5.2376
30.0245 5.4198 -5.7311
24.7167 17.5114 -9.3890
23.7005 17.9045 -9.4321
23.1392 17.8547 -9.3538
23.4988 18.5187 -9.6495
9.4131 12.2718 -5.8213
8.3341 11.1051 -5.2533
8.3883 11.4260 -5.3906
8.6155 11.9988 -5.6460
7.9215 12.3633 -5.7475
8.5357 12.1566 -5.7057
8.6786 12.6420 -5.9188
7.8842 12.5972 -5.8432
8.5176 12.6932 -5.9284
7.8307 12.8124 -5.9302
8.2670 12.6062 -5.8739
7.7130 12.9267 -5.9704
7.2684 12.7930 -5.8848
7.4603 12.8111 -5.9049
7.0792 12.7753 -5.8653
6.6910 13.3949 -6.1055
6.8928 12.7582 -5.8464
6.5074 13.3841 -6.0903
6.7629 12.8439 -5.8749
6.5379 12.7453 -5.8194
7.7781 -2.6683 0.0900
7.8218 -2.5990 0.0679
7.8658 -2.5294 0.0456
7.9099 -2.4595 0.0232
7.9543 -2.3892 0.0006
7.9990 -2.3186 -0.0221
8.0438 -2.2475 -0.0451
8.0962 -2.1781 -0.0684
8.1543 -2.1095 -0.0919
8.2130 -2.0402 -0.1158
8.2722 -1.9704 -0.1399
8.3319 -1.8998 -0.1643
8.3923 -1.8285 -0.1891
8.4533 -1.7565 -0.2142
8.5149 -1.6838 -0.2396
8.5807 -1.6109 -0.2655
8.6603 -1.5395 -0.2922
8.7412 -1.4670 -0.3194
8.8233 -1.3934 -0.3470
8.9067 -1.3186 -0.3752
8.9915 -1.2427 -0.4040
9.0777 -1.1654 -0.4333
9.2018 -1.0912 -0.4650
9.3407 -1.0164 -0.4982
9.4835 -0.9395 -0.5324
9.6305 -0.8603 -0.5677
9.8285 -0.7824 -0.6070
10.1035 -0.7062 -0.6525
10.4156 -0.6271 -0.7021
10.8454 -0.5479 -0.7617
11.2219 -0.4584 -0.8200
11.5363 -0.3597 -0.8757
11.8686 -0.2553 -0.9348
12.2206 -0.1448 -0.9975
12.5941 -0.0275 -1.0640
12.9913 0.0972 -1.1350
13.4145 0.2301 -1.2106
13.8951 0.3728 -1.2943
14.3832 0.5252 -1.3815
14.9075 0.6889 -1.4754
15.4721 0.8651 -1.5766
16.0821 1.0555 -1.6861
16.7218 1.2603 -1.8027
17.4362 1.4842 -1.9315
19.0708 1.9965 -2.2268
18.2160 1.7286 -2.0723
20.0217 2.2926 -2.3982
24.9719 3.8472 -3.2970
21.0688 2.6199 -2.5876
26.6455 4.3708 -3.6008
22.2534 2.9869 -2.8010
28.6168 4.9805 -3.9568
23.5439 3.3933 -3.0357
30.8042 5.6707 -4.3562
33.4020 6.4859 -4.8296
36.4904 7.4553 -5.3927
40.0660 8.5936 -6.0501
39.9069 22.6943 -10.6969
24.2508 16.8560 -7.5611
23.7738 17.9914 -7.9271
24.3645 17.3021 -7.7250
23.3158 18.0190 -7.9064
24.4284 17.7213 -7.8762
22.8120 18.0020 -7.8671
24.3851 18.0688 -7.9954
9.4377 12.2555 -4.9961
9.2981 12.3375 -5.0193
8.4761 12.0103 -4.8581
8.3280 11.2931 -4.5854
8.3101 12.0398 -4.8612
8.3822 11.6180 -4.7083
8.2220 12.1826 -4.9102
7.9520 12.6200 -5.0610
8.1330 12.3269 -4.9598
7.9386 12.8967 -5.1637
8.0431 12.4728 -5.0101
7.7244 12.8490 -5.1367
7.3544 13.1563 -5.2366
7.5825 12.9183 -5.1567
7.1605 13.1323 -5.2199
7.4407 12.9877 -5.1768
7.0581 13.2756 -5.2698
6.5489 13.3196 -5.2673
6.6276 12.7898 -5.0703
6.4122 12.7006 -5.0286
15.4903 35.1959 -13.8553
15.0755 35.2635 -13.8674
14.6172 35.2214 -13.8368
14.1636 35.1797 -13.8068
13.6814 35.0532 -13.7442
12.0186 31.7874 -12.4522
7.8347 -2.5786 0.4605
7.8789 -2.5086 0.4391
7.9234 -2.4382 0.4176
7.9680 -2.3676 0.3960
8.0129 -2.2965 0.3742
8.0580 -2.2251 0.3523
8.1146 -2.1563 0.3307
8.1731 -2.0872 0.3089
8.2322 -2.0176 0.2869
8.2918 -1.9472 0.2646
8.3519 -1.8762 0.2422
8.4127 -1.8045 0.2194
8.4740 -1.7320 0.1964
8.5361 -1.6588 0.1731
8.6079 -1.5865 0.1497
8.6882 -1.5145 0.1261
8.7697 -1.4415 0.1020
8.8524 -1.3673 0.0776
8.9365 -1.2920 0.0528
9.0219 -1.2154 0.0275
9.1144 -1.1383 0.0017
9.2511 -1.0646 -0.0246
9.3916 -0.9890 -0.0517
9.5362 -0.9111 -0.0797
9.6849 -0.8309 -0.1085
9.9269 -0.7552 -0.1394
10.2077 -0.6774 -0.1724
10.5689 -0.5989 -0.2085
10.9960 -0.5165 -0.2482
11.3366 -0.4228 -0.2881
11.6576 -0.3220 -0.3295
11.9972 -0.2154 -0.3733
12.3570 -0.1024 -0.4197
12.7391 0.0175 -0.4690
13.1456 0.1452 -0.5216
13.6017 0.2818 -0.5786
14.0687 0.4275 -0.6389
14.5693 0.5838 -0.7035
15.1073 0.7518 -0.7730
15.6873 0.9329 -0.8480
16.3145 1.1286 -0.9291
16.9727 1.3393 -1.0159
17.7088 1.5701 -1.1116
18.5133 1.8222 -1.2162
19.4020 2.0996 -1.3315
20.3803 2.4054 -1.4586
21.4654 2.7446 -1.5997
22.6824 3.1240 -1.7577
24.0233 3.5464 -1.9331
25.5306 4.0223 -2.1308
27.2806 4.5698 -2.3589
29.3253 5.2054 -2.6243
31.6352 5.9329 -2.9271
34.3590 6.7899 -3.2841
37.6779 7.8270 -3.7169
41.5168 9.0465 -4.2238
46.6299 10.6368 -4.8889
40.6373 22.1472 -8.2473
40.5031 22.5976 -8.3847
40.5227 23.1387 -8.5556
39.9309 23.3295 -8.5973
25.0303 16.7050 -6.0474
24.9582 17.0196 -6.1451
24.4752 17.0512 -6.1408
24.4131 17.3733 -6.2414
24.0581 17.4862 -6.2670
24.3730 18.0912 -6.4689
23.7600 18.0087 -6.4250
23.2378 17.9831 -6.4020
23.3552 18.4522 -6.5552
22.8400 18.4213 -6.5309
16.2633 14.5294 -5.1033
9.4586 12.2338 -4.1938
8.6631 11.4462 -3.9198
8.2620 11.1529 -3.8156
8.7217 12.5682 -4.2876
8.3111 11.4642 -3.9182
8.6358 12.7229 -4.3365
8.3623 11.7886 -4.0253
8.0450 12.1202 -4.1275
7.9793 12.8715 -4.3726
7.9973 12.3232 -4.1931
7.7467 12.7906 -4.3417
7.9487 12.5304 -4.2601
7.4961 12.6718 -4.2982
7.1489 12.9930 -4.3977
7.3077 12.6513 -4.2881
7.3215 13.6411 -4.6140
6.9004 12.2382 -4.1451
7.1264 13.6162 -4.6026
6.5920 13.6161 -4.5941
6.3639 12.4741 -4.2139
6.1467 12.3654 -4.1746
14.7875 33.1573 -11.1685
14.3511 33.1065 -11.1455
13.9197 33.0561 -11.1229
13.3809 32.7319 -11.0084
12.9997 32.7768 -11.0183
12.5332 32.5950 -10.9521
12.1833 32.7064 -10.9847
7.8920 -2.4878 0.8352
7.9367 -2.4171 0.8145
7.9816 -2.3460 0.7938
8.0267 -2.2746 0.7730
8.0747 -2.2035 0.7523
8.1330 -2.1346 0.7324
8.1919 -2.0651 0.7124
8.2513 -1.9950 0.6921
8.3113 -1.9242 0.6717
8.3718 -1.8527 0.6511
8.4330 -1.7805 0.6304
8.4947 -1.7076 0.6094
8.5571 -1.6339 0.5882
8.6351 -1.5621 0.5677
8.7159 -1.4896 0.5471
8.7981 -1.4160 0.5262
8.8814 -1.3413 0.5050
8.9662 -1.2654 0.4835
9.0522 -1.1882 0.4616
9.1622 -1.1125 0.4405
9.3005 -1.0381 0.4200
9.4426 -0.9615 0.3990
9.5888 -0.8827 0.3774
9.7546 -0.8029 0.3558
10.0261 -0.7277 0.3368
10.3128 -0.6483 0.3168
10.7249 -0.5701 0.2986
11.1383 -0.4841 0.2782
11.4523 -0.3869 0.2532
11.7800 -0.2840 0.2268
12.1270 -0.1751 0.1988
12.4948 -0.0597 0.1692
12.1777 0.0596 0.1302
12.1496 0.1769 0.0952
13.7659 0.3335 0.0686
14.2444 0.4829 0.0304
14.7576 0.6431 -0.0106
15.3097 0.8155 -0.0547
15.9054 1.0015 -0.1023
16.5317 1.2015 -0.1535
17.2275 1.4196 -0.2093
17.9860 1.6574 -0.2700
18.8158 1.9175 -0.3365
19.7340 2.2041 -0.4096
20.7460 2.5205 -0.4903
21.8705 2.8721 -0.5800
23.1209 3.2642 -0.6800
24.5143 3.7032 -0.7921
26.1051 4.2024 -0.9194
27.9608 4.7793 -1.0662
30.0567 5.4376 -1.2341
32.4968 6.2048 -1.4296
35.3883 7.1129 -1.6610
38.9222 8.2165 -1.9419
43.0994 9.5357 -2.2782
48.4467 11.2128 -2.7053
41.3795 21.6030 -5.8055
41.2734 22.0668 -5.9406
40.0775 21.9371 -5.9158
40.3138 22.5851 -6.1005
40.4213 23.1715 -6.2687
40.3190 23.6441 -6.4062
39.1481 23.4796 -6.3708
24.6037 16.1120 -4.3947
24.6675 16.5050 -4.5073
23.5779 16.1165 -4.4062
24.6569 17.2153 -4.7118
24.3775 17.3826 -4.7627
24.2177 17.6341 -4.8366
24.1426 17.9494 -4.9279
23.6298 17.9358 -4.9289
22.9106 17.7522 -4.8830
23.0253 18.2111 -5.0137
23.1405 18.6803 -5.1473
15.9770 15.4693 -4.2910
8.5201 11.2101 -3.1337
8.5088 11.4348 -3.1978
8.4969 11.6651 -3.2634
8.5608 12.0080 -3.3607
8.6428 12.3884 -3.4684
7.9789 11.6892 -3.2738
8.0230 12.0157 -3.3664
8.2257 12.5961 -3.5303
8.0300 12.5756 -3.5257
7.9761 12.7776 -3.5835
7.9516 13.0338 -3.6565
7.7740 13.0416 -3.6598
7.5377 12.9454 -3.6338
6.8631 12.0701 -3.3891
7.2789 13.1131 -3.6830
7.1224 13.1478 -3.6937
6.6401 12.5645 -3.5308
6.2881 12.2008 -3.4294
6.2038 12.3480 -3.4717
6.8925 14.0788 -3.9592
6.7524 14.1608 -3.9832
6.6120 14.2429 -4.0072
17.4659 39.7541 -11.1894
16.0591 37.6032 -10.5861
13.2031 31.8236 -8.9608
12.6195 31.3294 -8.8233
12.2249 31.2810 -8.8113
11.8186 31.1910 -8.7875
11.3846 31.0128 -8.7388
7.9503 -2.3956 1.2158
7.9954 -2.3242 1.1959
8.0408 -2.2523 1.1760
8.0930 -2.1819 1.1570
8.1517 -2.1126 1.1387
8.2109 -2.0426 1.1203
8.2707 -1.9720 1.1018
8.3311 -1.9008 1.0832
8.3920 -1.8289 1.0645
8.4535 -1.7562 1.0456
8.5157 -1.6828 1.0266
8.5823 -1.6094 1.0079
8.6626 -1.5374 0.9905
8.7441 -1.4644 0.9729
8.8268 -1.3902 0.9551
8.9109 -1.3149 0.9371
8.9962 -1.2384 0.9189
9.0830 -1.1607 0.9004
9.2109 -1.0863 0.8855
9.3507 -1.0110 0.8710
9.4945 -0.9336 0.8562
9.6424 -0.8539 0.8411
9.8508 -0.7762 0.8303
10.1280 -0.6995 0.8239
10.4525 -0.6203 0.8198
10.8864 -0.5404 0.8222
11.2542 -0.4495 0.8173
11.5709 -0.3501 0.8068
11.9057 -0.2451 0.7959
12.2602 -0.1338 0.7843
12.6362 -0.0157 0.7721
13.0360 0.1098 0.7593
12.3508 0.2234 0.6841
12.3105 0.3416 0.6468
13.4089 0.5018 0.6664
13.8926 0.6544 0.6510
14.4060 0.8180 0.6342
15.0643 1.0015 0.6205
12.1429 0.9251 0.4658
12.1365 1.0426 0.4312
12.1025 1.1575 0.3958
12.0410 1.2691 0.3598
12.0236 1.3848 0.3253
12.1670 1.5205 0.2948
12.9070 1.7397 0.2763
13.7451 1.9880 0.2553
14.5019 2.2407 0.2284
26.7067 4.3909 0.3450
28.6280 4.9913 0.2887
30.8274 5.6822 0.2233
33.4070 6.4920 0.1471
36.4876 7.4573 0.0568
40.1441 8.6096 -0.0521
44.7843 10.0586 -0.1860
41.1750 21.5982 -3.5477
39.9447 21.4530 -3.5745
40.4785 22.2522 -3.7581
40.6017 22.8398 -3.9070
40.2974 23.1906 -4.0155
39.9698 23.5260 -4.1208
39.3400 23.6773 -4.1931
24.8255 16.3016 -3.0017
24.8076 16.6410 -3.0909
24.8673 17.0380 -3.1910
23.7467 16.6158 -3.1368
24.3077 17.3674 -3.3038
24.2986 17.7250 -3.3965
24.0884 17.9382 -3.4616
23.7064 18.0200 -3.5009
24.1908 18.7678 -3.6698
23.8529 18.8860 -3.7160
23.4680 18.9617 -3.7533
23.1942 19.1227 -3.8071
22.9221 19.2827 -3.8603
15.9855 15.4654 -3.2023
9.1514 11.5045 -2.4916
9.1110 11.6930 -2.5394
9.0699 11.8848 -2.5880
8.4536 11.3114 -2.4695
8.4417 11.5359 -2.5248
8.4294 11.7659 -2.5814
8.3045 11.8420 -2.6042
8.2651 12.0425 -2.6544
8.2246 12.2467 -2.7053
8.2300 12.5264 -2.7731
8.0106 12.4653 -2.7653
7.6893 12.2357 -2.7199
7.7277 12.5777 -2.8014
7.3921 12.3092 -2.7468
7.8026 13.2964 -2.9726
7.7790 13.5695 -3.0391
7.0625 12.6147 -2.8301
6.8476 12.5278 -2.8154
6.4724 12.1326 -2.7310
6.4330 12.3598 -2.7865
7.0487 13.8858 -3.1354
6.9114 13.9660 -3.1582
6.7739 14.0463 -3.1809
6.6361 14.1268 -3.2036
16.7268 36.5719 -8.3047
16.2692 36.5530 -8.3112
14.1444 32.6731 -7.4384
13.3999 31.8415 -7.2579
12.9308 31.6271 -7.2176
12.5984 31.7367 -7.2508
12.2116 31.7046 -7.2515
11.8286 31.6728 -7.2519
11.4490 31.6415 -7.2521
8.0097 -2.3016 1.6043
8.0553 -2.2294 1.5852
8.1119 -2.1596 1.5681
8.1710 -2.0898 1.5514
8.2306 -2.0194 1.5347
8.2908 -1.9484 1.5179
8.3515 -1.8767 1.5010
8.4128 -1.8043 1.4841
8.4748 -1.7312 1.4671
8.5373 -1.6573 1.4501
8.6101 -1.5845 1.4345
8.6911 -1.5119 1.4201
8.7732 -1.4383 1.4055
8.8566 -1.3636 1.3908
8.9412 -1.2877 1.3759
9.0273 -1.2106 1.3610
9.1236 -1.1334 1.3472
9.2612 -1.0592 1.3390
9.4027 -0.9830 1.3306
9.5481 -0.9046 1.3222
9.6978 -0.8240 1.3136
9.9513 -0.7484 1.3180
10.2343 -0.6700 1.3248
10.6093 -0.5914 1.3418
11.0337 -0.5080 1.3628
11.3712 -0.4133 1.3711
11.6947 -0.3117 1.3758
12.0368 -0.2044 1.3810
12.3992 -0.0906 1.3866
12.7840 0.0301 1.3926
12.3729 0.1488 1.3122
12.4442 0.2699 1.2841
12.3177 0.3862 1.2357
12.3127 0.5051 1.2003
12.2779 0.6224 1.1621
12.2434 0.7392 1.1242
12.2089 0.8554 1.0867
12.1746 0.9711 1.0494
12.1405 1.0863 1.0124
12.1065 1.2010 0.9757
12.0236 1.3100 0.9355
11.9951 1.4240 0.8998
15.2834 1.9640 1.1040
22.7241 3.1431 1.5784
24.0616 3.5648 1.6046
25.6013 4.0454 1.6364
27.3486 4.5921 1.6725
29.3415 5.2179 1.7133
31.6644 5.9464 1.7615
34.3982 6.8035 1.8186
37.6809 7.8309 1.8882
41.6066 9.0659 1.9702
46.5865 10.6223 2.0774
41.5365 21.8930 -1.3424
40.7700 21.9972 -1.4411
40.5875 22.4102 -1.5585
40.3489 22.7927 -1.6733
39.8637 23.0324 -1.7766
39.8479 23.5430 -1.9002
39.1797 23.6654 -1.9915
25.3042 16.6628 -1.6113
24.6015 16.5462 -1.6474
24.5680 16.8741 -1.7266
23.6905 16.6141 -1.7443
24.3504 17.4341 -1.8753
24.0354 17.5664 -1.9333
23.9474 17.8639 -2.0090
23.7392 18.0727 -2.0746
23.5316 18.2812 -2.1397
23.5221 18.6461 -2.2231
23.0608 18.6513 -2.2631
22.5948 18.6438 -2.3003
15.9922 15.4617 -2.1281
9.0301 11.5468 -1.7985
8.9895 11.7336 -1.8398
8.9481 11.9233 -1.8816
8.3621 11.3768 -1.8065
8.3385 11.5848 -1.8506
8.3143 11.7974 -1.8955
8.2895 12.0149 -1.9413
8.8032 13.0359 -2.1177
8.3866 12.6905 -2.0724
8.1511 12.6062 -2.0691
7.8286 12.3771 -2.0415
7.7840 12.5835 -2.0855
7.6529 12.6529 -2.1066
7.4289 12.5651 -2.1013
7.2103 12.4792 -2.0959
7.0316 12.4566 -2.1009
6.7090 12.1687 -2.0606
6.3988 11.8867 -2.0207
7.1737 13.6531 -2.3297
6.9504 13.5572 -2.3218
6.6143 13.2275 -2.2733
6.6332 13.6059 -2.3464
6.4629 13.6023 -2.3535
6.2941 13.5988 -2.3604
14.1971 31.5025 -5.4849
14.1331 32.2239 -5.6272
13.7073 32.1302 -5.6270
13.3059 32.0823 -5.6342
12.9088 32.0350 -5.6410
12.5159 31.9883 -5.6474
12.1272 31.9422 -5.6534
11.9906 32.5707 -5.7785
11.3666 31.8663 -5.6666
8.0728 -2.2058 2.0030
8.1318 -2.1361 1.9878
8.1913 -2.0659 1.9727
8.2513 -1.9950 1.9576
8.3119 -1.9235 1.9424
8.3730 -1.8513 1.9273
8.4347 -1.7784 1.9122
8.4970 -1.7048 1.8970
8.5600 -1.6305 1.8819
8.6394 -1.5583 1.8701
8.7209 -1.4852 1.8586
8.8037 -1.4110 1.8470
8.8878 -1.3356 1.8354
8.9731 -1.2591 1.8238
9.0598 -1.1814 1.8121
9.1749 -1.1057 1.8057
9.3142 -1.0307 1.8035
9.4574 -0.9535 1.8014
9.6046 -0.8742 1.7994
9.7838 -0.7948 1.8026
10.0579 -0.7189 1.8221
10.3510 -0.6390 1.8435
10.7772 -0.5605 1.8867
11.1823 -0.4730 1.9238
11.4954 -0.3748 1.9432
11.8260 -0.2710 1.9639
12.1760 -0.1612 1.9860
12.5469 -0.0448 2.0096
12.9410 0.0789 2.0349
12.3593 0.1948 1.9075
12.3189 0.3132 1.8657
12.3341 0.4327 1.8326
12.2993 0.5503 1.7923
12.2646 0.6674 1.7523
12.2301 0.7838 1.7128
12.1958 0.8997 1.6737
12.1616 1.0151 1.6349
12.1276 1.1300 1.5965
12.0765 1.2427 1.5562
15.3979 1.7344 1.9416
11.9825 1.4666 1.4779
15.3706 2.0316 1.8536
23.1916 3.2926 2.7334
24.0991 3.6582 2.7747
24.6816 3.9898 2.7747
25.2912 4.3382 2.7747
25.9296 4.7047 2.7747
26.5993 5.0908 2.7747
27.3028 5.4979 2.7747
28.0426 5.9278 2.7747
28.8221 6.3825 2.7747
29.6445 6.8640 2.7747
30.5137 7.3748 2.7747
33.1603 8.3524 2.9271
34.1900 8.9619 2.9271
35.2844 9.6119 2.9271
36.4500 10.3065 2.9271
37.6943 11.0504 2.9271
39.0256 11.8490 2.9271
40.4541 12.7084 2.9271
41.9907 13.6356 2.9271
43.6487 14.6390 2.9271
45.4436 15.7284 2.9271
40.3798 22.9104 0.5327
24.7178 17.0219 -0.3085
24.6071 17.2994 -0.3797
24.4651 17.5561 -0.4501
24.3380 17.8248 -0.5206
24.0470 17.9725 -0.5870
23.7536 18.1150 -0.6521
23.4238 18.2257 -0.7150
23.0634 18.3076 -0.7755
15.9961 15.4583 -1.0636
8.9107 11.5883 -1.1169
8.8697 11.7729 -1.1518
8.8279 11.9608 -1.1872
8.7854 12.1519 -1.2229
8.7602 12.3720 -1.2616
8.7376 12.6018 -1.3015
8.0600 11.8731 -1.2413
8.0330 12.0883 -1.2787
8.0050 12.3083 -1.3167
8.1103 12.7440 -1.3782
7.9607 12.7863 -1.3973
7.6224 12.5172 -1.3817
7.6720 12.8840 -1.4360
7.5556 12.9793 -1.4601
7.4388 13.0749 -1.4841
6.7559 12.1532 -1.3915
7.2037 13.2669 -1.5317
7.0854 13.3635 -1.5553
6.9007 13.3333 -1.5638
6.4413 12.7544 -1.5071
6.1568 12.4982 -1.4874
6.4900 13.5118 -1.6192
6.3240 13.5088 -1.6297
14.4952 36.4954 -4.5605
14.0477 36.4237 -4.5750
13.3424 35.6506 -4.5000
13.1291 36.1768 -4.5882
12.7351 36.2147 -4.6140
8.1530 -2.1110 2.4184
8.2130 -2.0402 2.4048
8.2734 -1.9689 2.3912
8.3344 -1.8969 2.3777
8.3959 -1.8242 2.3643
8.4581 -1.7509 2.3509
8.5208 -1.6768 2.3376
8.5895 -1.6029 2.3258
8.6706 -1.5303 2.3171
8.7528 -1.4566 2.3085
8.8363 -1.3818 2.3000
8.9210 -1.3058 2.2915
9.0071 -1.2287 2.2831
9.0945 -1.1503 2.2748
9.2298 -1.0761 2.2780
9.3709 -1.0001 2.2820
9.5159 -0.9220 2.2863
9.6650 -0.8417 2.2909
9.8925 -0.7647 2.3132
10.1729 -0.6870 2.3465
10.5197 -0.6079 2.3935
10.9526 -0.5264 2.4579
11.3089 -0.4337 2.5029
11.6291 -0.3333 2.5382
11.9676 -0.2270 2.5757
12.3260 -0.1146 2.6158
12.7063 0.0048 2.6585
13.1105 0.1316 2.7042
12.3449 0.2432 2.5099
13.8460 0.4064 2.7747
13.4027 0.5229 2.6470
14.2572 0.6939 2.7747
14.4615 0.8436 2.7731
12.1666 0.8274 2.2985
12.1325 0.9425 2.2578
12.1270 1.0595 2.2228
12.1140 1.1759 2.1867
12.0311 1.2847 2.1384
12.0027 1.3985 2.1003
12.0922 1.5268 2.0829
16.3665 2.2263 2.7747
16.6318 2.4252 2.7747
16.9043 2.6309 2.7747
17.1844 2.8435 2.7747
17.4725 3.0636 2.7747
17.7689 3.2915 2.7747
18.1973 3.5516 2.7936
19.3985 3.9793 2.9271
19.7403 4.2469 2.9271
20.0928 4.5245 2.9271
20.4566 4.8127 2.9271
20.8324 5.1120 2.9271
21.2207 5.4232 2.9271
21.6222 5.7468 2.9271
22.0378 6.0836 2.9271
22.4683 6.4344 2.9271
22.9145 6.8000 2.9271
23.3774 7.1814 2.9271
23.8580 7.5795 2.9271
24.3574 7.9954 2.9271
24.8770 8.4304 2.9271
25.4179 8.8856 2.9271
25.9817 9.3625 2.9271
26.5700 9.8625 2.9271
27.1844 10.3874 2.9271
27.8270 10.9391 2.9271
28.4998 11.5194 2.9271
29.2051 12.1307 2.9271
29.9454 12.7753 2.9271
30.7237 13.4562 2.9271
31.5431 14.1762 2.9271
32.4070 14.9388 2.9271
33.3195 15.7476 2.9271
34.2849 16.6071 2.9271
35.3080 17.5219 2.9271
36.3948 18.4974 2.9271
37.5513 19.5398 2.9271
38.7850 20.6560 2.9271
38.1095 20.7672 2.7815
39.3559 21.9380 2.7747
40.2578 22.9490 2.7380
42.3488 24.6816 2.7747
15.9964 15.4558 -0.0041
8.5664 11.8008 -0.4934
8.5152 11.9740 -0.5217
8.4629 12.1495 -0.5500
8.4006 12.3144 -0.5779
8.3164 12.4503 -0.6044
8.2311 12.5870 -0.6308
8.1551 12.7408 -0.6580
7.7504 12.3731 -0.6574
8.0266 13.0971 -0.7148
7.8024 13.0152 -0.7286
7.2273 12.3278 -0.7069
7.5275 13.1328 -0.7706
7.3550 13.1282 -0.7872
7.2351 13.2163 -0.8091
7.0834 13.2458 -0.8271
6.6634 12.7597 -0.8119
6.3752 12.5053 -0.8101
6.6331 13.3330 -0.8786
6.4844 13.3613 -0.8950
8.0181 -1.9590 2.7747
8.1115 -1.8971 2.7747
8.2059 -1.8339 2.7747
8.3012 -1.7694 2.7747
8.3976 -1.7036 2.7747
8.4950 -1.6365 2.7747
8.5935 -1.5680 2.7747
8.6930 -1.4980 2.7747
8.7873 -1.4257 2.7727
8.8715 -1.3502 2.7672
8.9570 -1.2736 2.7619
9.0438 -1.1958 2.7568
9.1503 -1.1190 2.7573
9.2894 -1.0440 2.7672
9.4223 -0.9660 2.7747
9.5315 -0.8834 2.7747
9.6421 -0.7991 2.7747
9.7540 -0.7129 2.7747
9.8673 -0.6248 2.7747
9.9821 -0.5348 2.7747
10.0984 -0.4428 2.7747
10.2162 -0.3487 2.7747
10.3356 -0.2526 2.7747
10.4566 -0.1543 2.7747
10.5792 -0.0538 2.7747
10.7036 0.0491 2.7747
10.8297 0.1542 2.7747
10.9577 0.2619 2.7747
11.0874 0.3720 2.7747
11.2191 0.4847 2.7747
11.3527 0.6001 2.7747
11.4884 0.7182 2.7747
11.6261 0.8391 2.7747
11.7659 0.9630 2.7747
11.9080 1.0899 2.7747
12.0523 1.2199 2.7747
12.1989 1.3532 2.7747
11.9885 1.4463 2.6939
12.4995 1.6297 2.7747
12.6536 1.7733 2.7747
13.0862 1.9619 2.8344
13.6822 2.1853 2.9271
13.8533 2.3488 2.9271
14.0275 2.5166 2.9271
14.2050 2.6888 2.9271
14.3856 2.8657 2.9271
14.5697 3.0473 2.9271
14.7572 3.2339 2.9271
14.9484 3.4257 2.9271
15.1433 3.6228 2.9271
15.3421 3.8254 2.9271
15.5449 4.0338 2.9271
15.7519 4.2482 2.9271
15.9632 4.4688 2.9271
16.1790 4.6959 2.9271
16.3994 4.9298 2.9271
16.6247 5.1706 2.9271
16.8550 5.4188 2.9271
17.0904 5.6746 2.9271
17.3313 5.9383 2.9271
17.5779 6.2103 2.9271
17.8303 6.4910 2.9271
18.0889 6.7807 2.9271
18.3539 7.0799 2.9271
18.6255 7.3890 2.9271
18.9041 7.7084 2.9271
19.1898 8.0386 2.9271
19.4832 8.3802 2.9271
19.7845 8.7336 2.9271
20.0942 9.0996 2.9271
20.4125 9.4787 2.9271
20.7400 9.8716 2.9271
21.0770 10.2790 2.9271
21.4241 10.7016 2.9271
21.7817 11.1403 2.9271
22.1504 11.5959 2.9271
22.5308 12.0695 2.9271
22.9235 12.5619 2.9271
23.3292 13.0743 2.9271
23.7485 13.6078 2.9271
24.1824 14.1637 2.9271
24.6316 14.7433 2.9271
25.0971 15.3482 2.9271
25.5797 15.9799 2.9271
26.0807 16.6400 2.9271
26.0814 16.9921 2.8699
25.7289 17.1136 2.7747
26.2627 17.8318 2.7747
26.8188 18.5850 2.7747
27.3988 19.3760 2.7747
28.0042 20.2072 2.7747
24.0384 17.6965 2.3291
23.9454 17.9825 2.2676
31.6412 24.2372 2.9271
32.4095 25.3200 2.9271
33.2168 26.4649 2.9271
34.0665 27.6775 2.9271
34.9618 28.9634 2.9271
35.9073 30.3294 2.9271
36.9071 31.7829 2.9271
15.9916 15.4542 1.0545
33.8862 36.0414 1.8493
32.9812 35.7599 1.7239
31.9999 35.3708 1.5984
31.2622 35.2291 1.4886
30.4403 34.9734 1.3780
29.6432 34.7255 1.2718
28.8697 34.4849 1.1699
28.1188 34.2513 1.0720
27.3892 34.0243 0.9780
26.5776 33.6741 0.8842
25.9797 33.5759 0.8004
25.3086 33.3671 0.7169
24.6550 33.1638 0.6366
24.0182 32.9657 0.5594
23.3975 32.7726 0.4850
22.7920 32.5842 0.4135
22.2013 32.4005 0.3446
8.1178 12.0956 0.1045
8.0633 12.2687 0.0821
7.8974 12.2728 0.0590
7.9513 12.6228 0.0374
7.8761 12.7755 0.0150
7.6101 12.6153 -0.0072
7.4911 12.6939 -0.0287
7.3443 12.7247 -0.0498
7.1982 12.7551 -0.0703
6.9611 12.6187 -0.0892
6.7194 12.4645 -0.1070
6.9914 -1.6038 2.7730
7.0679 -1.5478 2.7740
7.1432 -1.4904 2.7743
7.2190 -1.4319 2.7746
7.2947 -1.3723 2.7747
7.3708 -1.3115 2.7747
7.4476 -1.2497 2.7747
7.5249 -1.1867 2.7747
7.6028 -1.1226 2.7747
7.6813 -1.0573 2.7747
7.7604 -0.9908 2.7747
7.8401 -0.9230 2.7747
7.9204 -0.8541 2.7747
8.0014 -0.7838 2.7747
8.0831 -0.7123 2.7747
8.1654 -0.6394 2.7747
8.2484 -0.5652 2.7747
8.3321 -0.4895 2.7747
8.4164 -0.4125 2.7747
8.5015 -0.3340 2.7747
8.5873 -0.2540 2.7747
8.6739 -0.1725 2.7747
8.7612 -0.0894 2.7747
8.8493 -0.0047 2.7747
8.9382 0.0816 2.7747
9.0278 0.1696 2.7747
9.1183 0.2593 2.7747
9.2096 0.3507 2.7747
9.3018 0.4440 2.7747
9.3948 0.5390 2.7747
9.4887 0.6360 2.7747
9.5835 0.7349 2.7747
9.6792 0.8358 2.7747
9.8610 0.9468 2.7988
10.2468 1.0831 2.8796
10.5196 1.2139 2.9271
10.6246 1.3292 2.9271
10.7307 1.4469 2.9271
10.8378 1.5669 2.9271
10.9460 1.6895 2.9271
11.0554 1.8146 2.9271
11.1659 1.9423 2.9271
11.2776 2.0727 2.9271
11.3904 2.2059 2.9271
11.5045 2.3419 2.9271
11.6199 2.4808 2.9271
11.7365 2.6227 2.9271
11.8544 2.7677 2.9271
11.9736 2.9159 2.9271
12.0942 3.0673 2.9271
12.2161 3.2220 2.9271
12.3395 3.3802 2.9271
12.4643 3.5419 2.9271
12.5905 3.7072 2.9271
12.7183 3.8763 2.9271
12.8476 4.0492 2.9271
12.9785 4.2261 2.9271
13.1109 4.4070 2.9271
13.2451 4.5922 2.9271
13.3808 4.7817 2.9271
13.5183 4.9756 2.9271
13.6576 5.1741 2.9271
13.7986 5.3774 2.9271
13.9415 5.5855 2.9271
14.0862 5.7987 2.9271
14.2329 6.0171 2.9271
14.3815 6.2409 2.9271
14.5321 6.4701 2.9271
14.6847 6.7051 2.9271
14.8395 6.9460 2.9271
14.9965 7.1929 2.9271
15.1556 7.4462 2.9271
15.3169 7.7059 2.9271
15.4806 7.9724 2.9271
15.6467 8.2458 2.9271
15.8151 8.5264 2.9271
15.9861 8.8145 2.9271
16.1596 9.1102 2.9271
16.3357 9.4139 2.9271
16.5145 9.7259 2.9271
16.6960 10.0463 2.9271
16.8804 10.3757 2.9271
17.0676 10.7141 2.9271
17.2578 11.0621 2.9271
17.4510 11.4200 2.9271
17.6474 11.7881 2.9271
17.8469 12.1667 2.9271
18.0498 12.5564 2.9271
18.2560 12.9576 2.9271
18.4656 13.3706 2.9271
18.6789 13.7959 2.9271
18.8957 14.2341 2.9271
19.1164 14.6856 2.9271
18.7860 14.7163 2.8431
18.5505 14.8171 2.7747
18.7710 15.2862 2.7747
18.9954 15.7701 2.7747
19.2240 16.2695 2.7747
19.4567 16.7851 2.7747
19.6938 17.3175 2.7747
19.9353 17.8673 2.7747
20.1815 18.4355 2.7747
21.5547 20.0676 2.9271
21.8244 20.7082 2.9271
15.9802 15.4533 2.1166
22.3800 22.0563 2.9271
22.6662 22.7659 2.9271
22.9581 23.5007 2.9271
23.2560 24.2618 2.9271
23.5601 25.0505 2.9271
23.8705 25.8681 2.9271
24.1874 26.7160 2.9271
24.5112 27.5957 2.9271
24.8418 28.5088 2.9271
25.1798 29.4569 2.9271
25.5251 30.4419 2.9271
25.8780 31.4656 2.9271
25.2992 31.3651 2.8222
25.2226 31.8859 2.7747
25.5805 32.9784 2.7747
25.9479 34.1176 2.7748
24.7483 33.1915 2.6089
24.1162 32.9949 2.5057
23.5001 32.8032 2.4063
22.8990 32.6163 2.3105
22.3124 32.4338 2.2181
21.6649 32.1446 2.1216
21.1859 32.0900 2.0436
20.6390 31.9199 1.9606
20.1044 31.7536 1.8806
19.5814 31.5909 1.8034
7.6003 12.5271 0.6890
7.3477 12.3759 0.6557
18.0783 31.1234 1.5876
17.5977 30.9739 1.5206
17.1267 30.8274 1.4559
16.6055 30.5744 1.3885
16.2099 30.5391 1.3331
15.7655 30.4009 1.2749
15.3293 30.2652 1.2188
14.9011 30.1319 1.1647
14.4804 30.0011 1.1125
14.0671 29.8725 1.0621
13.6608 29.7461 1.0134
13.2614 29.6219 0.9666
12.8685 29.4997 0.9214
12.4820 29.3794 0.8778
12.1017 29.2611 0.8358
11.6850 29.0397 0.7925
11.3567 29.0253 0.7563
10.9936 28.9123 0.7188
10.6358 28.8010 0.6827
10.2832 28.6913 0.6480
9.9355 28.5832 0.6146
9.5926 28.4765 0.5825
6.3926 -1.3683 2.8681
6.4283 -1.3094 2.8563
6.4643 -1.2502 2.8447
6.5033 -1.1911 2.8346
6.5438 -1.1318 2.8252
6.5846 -1.0721 2.8160
6.6256 -1.0119 2.8069
6.6725 -0.9519 2.8003
6.7197 -0.8914 2.7939
6.7688 -0.8304 2.7882
6.8208 -0.7690 2.7837
6.8759 -0.7071 2.7804
6.9344 -0.6447 2.7785
6.9934 -0.5813 2.7766
7.0531 -0.5171 2.7750
7.1165 -0.4521 2.7747
7.1838 -0.3862 2.7757
7.2524 -0.3193 2.7772
7.3220 -0.2511 2.7788
7.3982 -0.1819 2.7828
7.4780 -0.1114 2.7880
7.5632 -0.0395 2.7949
7.6597 0.0340 2.8058
7.7669 0.1095 2.8202
7.8771 0.1870 2.8353
8.0075 0.2674 2.8573
8.1469 0.3506 2.8819
8.3099 0.4377 2.9143
8.4185 0.5246 2.9271
8.4910 0.6110 2.9271
8.5639 0.6988 2.9271
8.6372 0.7882 2.9271
8.7108 0.8791 2.9271
8.7848 0.9715 2.9271
8.8592 1.0655 2.9271
8.9339 1.1612 2.9271
9.0090 1.2585 2.9271
9.0844 1.3574 2.9271
9.1603 1.4581 2.9271
9.2365 1.5605 2.9271
9.3131 1.6648 2.9271
9.3901 1.7708 2.9271
9.4675 1.8787 2.9271
9.5452 1.9885 2.9271
9.6233 2.1002 2.9271
9.7018 2.2139 2.9271
9.7807 2.3297 2.9271
9.8600 2.4474 2.9271
9.9396 2.5673 2.9271
10.0196 2.6893 2.9271
10.1000 2.8135 2.9271
10.1808 2.9400 2.9271
10.2619 3.0687 2.9271
10.3434 3.1997 2.9271
10.4253 3.3332 2.9271
10.5075 3.4690 2.9271
10.5901 3.6073 2.9271
10.6731 3.7482 2.9271
10.7564 3.8917 2.9271
10.8401 4.0378 2.9271
10.9241 4.1865 2.9271
11.0085 4.3381 2.9271
11.0932 4.4925 2.9271
11.1782 4.6497 2.9271
11.2635 4.8099 2.9271
11.3492 4.9730 2.9271
11.4351 5.1393 2.9271
11.5214 5.3087 2.9271
11.6080 5.4812 2.9271
11.6948 5.6571 2.9271
11.7819 5.8363 2.9271
11.8693 6.0189 2.9271
11.9569 6.2050 2.9271
12.0447 6.3947 2.9271
12.1327 6.5880 2.9271
12.2209 6.7850 2.9271
12.6644 7.8291 2.9271
12.3094 6.9859 2.9271
12.7535 8.0502 2.9271
12.3980 7.1906 2.9271
12.8426 8.2758 2.9271
12.4867 7.3994 2.9271
12.9317 8.5057 2.9271
13.0208 8.7402 2.9271
12.5755 7.6121 2.9271
13.1099 8.9793 2.9271
13.5538 10.2477 2.9271
13.1989 9.2231 2.9271
13.2879 9.4717 2.9271
13.6420 10.5167 2.9271
13.3767 9.7253 2.9271
13.7300 10.7911 2.9271
13.4654 9.9839 2.9271
13.9916 11.6476 2.9271
13.8176 11.0709 2.9271
14.0779 11.9446 2.9271
13.9048 11.3564 2.9271
14.1637 12.2475 2.9271
14.4172 13.1933 2.9271
14.2488 12.5565 2.9271
14.2571 13.2946 2.8780
14.3334 12.8717 2.9271
14.0510 14.1243 2.7747
13.8864 13.1946 2.7874
14.1247 14.4675 2.7747
13.9000 13.4578 2.7747
14.1973 14.8175 2.7747
14.2686 15.1746 2.7747
13.9760 13.7878 2.7747
14.3384 15.5386 2.7747
14.4068 15.9099 2.7747
15.5303 18.8602 2.9271
14.4734 16.2885 2.7747
15.5902 19.2999 2.9271
14.5384 16.6745 2.7747
15.6477 19.7481 2.9271
15.4036 18.0055 2.9271
15.7024 20.2048 2.9271
15.4680 18.4288 2.9271
15.7543 20.6701 2.9271
15.8033 21.1441 2.9271
15.9967 23.6477 2.9271
15.8492 21.6270 2.9271
16.0238 24.1755 2.9271
15.8915 22.1186 2.9271
16.0465 24.7125 2.9271
15.9304 22.6193 2.9271
16.0646 25.2587 2.9271
15.9655 23.1290 2.9271
16.0779 25.8140 2.9271
7.7617 12.7279 1.4123
15.4715 28.2930 2.8230
7.7045 12.9064 1.4017
15.1804 28.3947 2.7747
16.0863 27.5347 2.9271
15.1474 28.9886 2.7747
16.0778 28.1264 2.9271
15.1076 29.5903 2.7747
15.8849 28.4083 2.8946
15.0605 30.1998 2.7747
15.0070 30.8188 2.7749
12.6451 29.4292 2.4015
14.2203 29.9191 2.6404
12.2671 29.3116 2.3468
13.8166 29.7936 2.5776
11.8521 29.0907 2.2856
13.4197 29.6701 2.5169
11.4888 28.9817 2.2350
13.0292 29.5486 2.4582
11.1657 28.9649 2.1931
10.8100 28.8543 2.1455
10.4595 28.7452 2.0995
10.1140 28.6377 2.0552
9.7732 28.5317 2.0124
9.4370 28.4271 1.9712
5.8175 -1.1529 2.9227
5.8723 -1.1033 2.9238
5.9265 -1.0527 2.9245
5.9808 -1.0014 2.9253
6.0353 -0.9493 2.9260
6.0892 -0.8963 2.9264
6.1429 -0.8424 2.9266
6.1967 -0.7878 2.9269
6.2506 -0.7323 2.9271
6.3041 -0.6759 2.9271
6.3578 -0.6187 2.9271
6.4116 -0.5607 2.9271
6.4655 -0.5018 2.9271
6.5195 -0.4420 2.9271
6.5736 -0.3814 2.9271
6.6278 -0.3198 2.9271
6.6821 -0.2574 2.9271
6.7365 -0.1940 2.9271
6.7910 -0.1297 2.9271
6.8456 -0.0644 2.9271
6.9003 0.0018 2.9271
6.9551 0.0690 2.9271
7.0099 0.1372 2.9271
7.0649 0.2064 2.9271
7.1199 0.2766 2.9271
7.1751 0.3478 2.9271
7.2302 0.4201 2.9271
7.2855 0.4935 2.9271
7.3409 0.5680 2.9271
7.3963 0.6436 2.9271
7.4518 0.7203 2.9271
7.5073 0.7981 2.9271
7.5629 0.8771 2.9271
7.6186 0.9572 2.9271
7.6742 1.0386 2.9271
7.7300 1.1211 2.9271
7.7857 1.2049 2.9271
7.8415 1.2899 2.9271
7.8974 1.3762 2.9271
7.9532 1.4637 2.9271
8.0090 1.5526 2.9271
8.0649 1.6428 2.9271
8.1208 1.7344 2.9271
8.1766 1.8273 2.9271
8.2325 1.9215 2.9271
8.2883 2.0172 2.9271
8.3441 2.1144 2.9271
8.3998 2.2129 2.9271
8.4555 2.3130 2.9271
8.5112 2.4145 2.9271
8.5667 2.5176 2.9271
8.6222 2.6222 2.9271
8.6776 2.7283 2.9271
8.7330 2.8361 2.9271
8.7882 2.9454 2.9271
8.8433 3.0564 2.9271
8.8982 3.1691 2.9271
8.9530 3.2834 2.9271
9.0077 3.3994 2.9271
9.0622 3.5172 2.9271
9.1165 3.6367 2.9271
9.1706 3.7581 2.9271
9.2245 3.8812 2.9271
9.2781 4.0062 2.9271
9.3315 4.1330 2.9271
9.3846 4.2617 2.9271
9.4375 4.3924 2.9271
9.4900 4.5250 2.9271
9.5422 4.6596 2.9271
9.5941 4.7961 2.9271
9.6456 4.9347 2.9271
9.6968 5.0754 2.9271
9.7475 5.2181 2.9271
9.7978 5.3629 2.9271
9.8477 5.5099 2.9271
9.8970 5.6591 2.9271
9.9459 5.8104 2.9271
9.9942 5.9640 2.9271
10.0420 6.1198 2.9271
10.0892 6.2779 2.9271
10.1357 6.4383 2.9271
10.1816 6.6011 2.9271
10.2268 6.7661 2.9271
10.2714 6.9336 2.9271
10.3151 7.1035 2.9271
10.3582 7.2759 2.9271
10.4003 7.4507 2.9271
10.4417 7.6280 2.9271
10.4821 7.8078 2.9271
10.5216 7.9901 2.9271
10.5601 8.1750 2.9271
10.5976 8.3625 2.9271
10.6340 8.5526 2.9271
10.6694 8.7454 2.9271
10.7036 8.9408 2.9271
10.7366 9.1388 2.9271
10.7683 9.3396 2.9271
10.7987 9.5430 2.9271
10.8278 9.7492 2.9271
10.8555 9.9581 2.9271
10.8817 10.1697 2.9271
10.9064 10.3842 2.9271
10.9295 10.6013 2.9271
10.9510 10.8213 2.9271
10.9707 11.0440 2.9271
10.9887 11.2695 2.9271
11.0049 11.4978 2.9271
11.0192 11.7289 2.9271
11.0315 11.9627 2.9271
11.0418 12.1994 2.9271
10.8695 12.2355 2.8792
10.6070 12.1659 2.8082
10.4840 12.2528 2.7747
10.4854 12.4875 2.7747
10.4845 12.7247 2.7747
10.4813 12.9644 2.7747
10.4756 13.2067 2.7747
10.4675 13.4514 2.7747
10.4567 13.6985 2.7747
10.4433 13.9481 2.7747
10.4271 14.1999 2.7747
10.4082 14.4541 2.7747
10.3863 14.7104 2.7747
10.3614 14.9690 2.7747
10.3335 15.2297 2.7747
10.3024 15.4923 2.7747
10.8320 16.6224 2.9271
10.7923 16.9036 2.9271
10.7490 17.1866 2.9271
7.7609 12.6701 2.1227
7.6803 12.8049 2.1106
10.5965 18.0460 2.9271
10.5378 18.3355 2.9271
10.4752 18.6262 2.9271
10.4083 18.9182 2.9271
10.3373 19.2112 2.9271
10.2619 19.5051 2.9271
10.1822 19.7997 2.9271
10.0979 20.0948 2.9271
10.0092 20.3903 2.9271
9.9157 20.6861 2.9271
9.8176 20.9818 2.9271
9.7147 21.2773 2.9271
9.6069 21.5724 2.9271
9.4943 21.8669 2.9271
9.3766 22.1605 2.9271
9.2540 22.4531 2.9271
9.1262 22.7444 2.9271
8.9933 23.0340 2.9271
8.8553 23.3219 2.9271
8.7120 23.6077 2.9271
8.5636 23.8911 2.9271
8.4098 24.1719 2.9271
8.2509 24.4498 2.9271
8.0866 24.7246 2.9271
5.2163 -0.9479 2.9118
5.2644 -0.9027 2.9140
5.3116 -0.8566 2.9156
5.3589 -0.8099 2.9173
5.4062 -0.7624 2.9190
5.4530 -0.7142 2.9203
5.4997 -0.6653 2.9216
5.5460 -0.6156 2.9227
5.5923 -0.5652 2.9237
5.6380 -0.5140 2.9244
5.6836 -0.4621 2.9251
5.7292 -0.4094 2.9257
5.7746 -0.3561 2.9263
5.8193 -0.3019 2.9265
5.8640 -0.2470 2.9267
5.9087 -0.1914 2.9270
5.9531 -0.1350 2.9271
5.9973 -0.0779 2.9271
6.0414 -0.0200 2.9271
6.0855 0.0386 2.9271
6.1296 0.0981 2.9271
6.1735 0.1583 2.9271
6.2175 0.2193 2.9271
6.2614 0.2812 2.9271
6.3052 0.3438 2.9271
6.3489 0.4073 2.9271
6.3925 0.4716 2.9271
6.4361 0.5367 2.9271
6.4796 0.6027 2.9271
6.5230 0.6696 2.9271
6.5663 0.7373 2.9271
6.6095 0.8060 2.9271
6.6526 0.8755 2.9271
6.6955 0.9459 2.9271
6.7384 1.0173 2.9271
6.7811 1.0895 2.9271
6.8237 1.1627 2.9271
6.8661 1.2369 2.9271
6.9083 1.3120 2.9271
6.9504 1.3881 2.9271
6.9924 1.4652 2.9271
7.0341 1.5433 2.9271
7.0757 1.6223 2.9271
7.1170 1.7024 2.9271
7.1582 1.7835 2.9271
7.1991 1.8657 2.9271
7.2398 1.9489 2.9271
7.2803 2.0331 2.9271
7.3206 2.1185 2.9271
7.3605 2.2049 2.9271
7.4002 2.2924 2.9271
7.4397 2.3810 2.9271
7.4788 2.4707 2.9271
7.5176 2.5616 2.9271
7.5561 2.6536 2.9271
7.5943 2.7468 2.9271
7.6321 2.8411 2.9271
7.6696 2.9366 2.9271
7.7067 3.0332 2.9271
7.7435 3.1311 2.9271
7.7798 3.2302 2.9271
7.8157 3.3305 2.9271
7.8512 3.4320 2.9271
7.8862 3.5348 2.9271
7.9207 3.6388 2.9271
7.9548 3.7441 2.9271
7.9884 3.8506 2.9271
8.0215 3.9584 2.9271
8.0540 4.0676 2.9271
8.0860 4.1780 2.9271
8.1174 4.2897 2.9271
8.1482 4.4028 2.9271
8.1784 4.5172 2.9271
8.2079 4.6329 2.9271
8.2368 4.7500 2.9271
8.2650 4.8684 2.9271
8.2926 4.9882 2.9271
8.3193 5.1093 2.9271
8.3454 5.2318 2.9271
8.3706 5.3557 2.9271
8.3951 5.4810 2.9271
8.4188 5.6077 2.9271
8.4416 5.7358 2.9271
8.4635 5.8653 2.9271
8.4845 5.9962 2.9271
8.5046 6.1285 2.9271
8.5237 6.2622 2.9271
8.5418 6.3973 2.9271
8.5589 6.5338 2.9271
8.5750 6.6717 2.9271
8.5900 6.8111 2.9271
8.6039 6.9518 2.9271
8.6166 7.0940 2.9271
8.6281 7.2375 2.9271
8.6385 7.3825 2.9271
8.6476 7.5288 2.9271
8.6554 7.6765 2.9271
8.6619 7.8256 2.9271
8.6670 7.9761 2.9271
8.6709 8.1279 2.9271
8.6732 8.2811 2.9271
8.6741 8.4356 2.9271
8.6735 8.5914 2.9271
8.6623 9.0665 2.9271
8.6713 8.7485 2.9271
8.6553 9.2274 2.9271
8.6676 8.9069 2.9271
8.6466 9.3895 2.9271
8.6100 9.8828 2.9271
8.6362 9.5528 2.9271
8.5941 10.0495 2.9271
8.6240 9.7172 2.9271
8.5764 10.2173 2.9271
8.5113 10.7267 2.9271
8.5567 10.3861 2.9271
8.4856 10.8984 2.9271
8.5350 10.5559 2.9271
8.4577 11.0710 2.9271
8.2285 11.4097 2.8807
8.4277 11.2444 2.9271
8.0340 11.3586 2.8250
8.3954 11.4186 2.9271
7.8539 11.3234 2.7747
7.7294 11.8276 2.7747
7.8146 11.4910 2.7747
7.6832 11.9965 2.7747
7.7731 11.6591 2.7747
7.6346 12.1656 2.7747
7.4744 12.6742 2.7747
7.5837 12.3350 2.7747
7.4160 12.8438 2.7747
7.5303 12.5046 2.7747
7.3550 13.0134 2.7747
7.1565 13.5208 2.7747
7.2915 13.1828 2.7747
7.0851 13.6892 2.7747
7.2253 13.3519 2.7747
7.0110 13.8572 2.7747
6.7722 14.3570 2.7747
6.9341 14.0245 2.7747
6.6871 14.5219 2.7747
6.8546 14.1911 2.7747
6.9617 15.4925 2.9271
6.6660 16.0040 2.9271
6.8661 15.6643 2.9271
6.5615 16.1716 2.9271
6.7675 15.8349 2.9271
6.4540 16.3376 2.9271
6.1138 16.8246 2.9271
6.3435 16.5019 2.9271
5.9945 16.9829 2.9271
6.2301 16.6643 2.9271
5.8722 17.1389 2.9271
5.7471 17.2925 2.9271
5.6191 17.4437 2.9271
4.7072 -0.7744 2.9017
4.7448 -0.7323 2.9018
4.7824 -0.6896 2.9019
4.8205 -0.6464 2.9023
4.8620 -0.6031 2.9048
4.9035 -0.5592 2.9073
4.9447 -0.5146 2.9096
4.9853 -0.4694 2.9116
5.0258 -0.4235 2.9135
5.0660 -0.3769 2.9153
5.1056 -0.3297 2.9168
5.1452 -0.2819 2.9183
5.1846 -0.2334 2.9197
5.2235 -0.1842 2.9209
5.2623 -0.1344 2.9220
5.3006 -0.0840 2.9230
5.3388 -0.0329 2.9239
5.3764 0.0189 2.9245
5.4138 0.0712 2.9251
5.4510 0.1243 2.9257
5.4882 0.1780 2.9263
5.5245 0.2323 2.9265
5.5606 0.2873 2.9267
5.5966 0.3430 2.9269
5.6324 0.3993 2.9271
5.6678 0.4563 2.9271
5.7029 0.5139 2.9271
5.7379 0.5722 2.9271
5.7727 0.6312 2.9271
5.8074 0.6909 2.9271
5.8418 0.7513 2.9271
5.8761 0.8124 2.9271
5.9101 0.8742 2.9271
5.9440 0.9367 2.9271
5.9776 0.9999 2.9271
6.0110 1.0639 2.9271
6.0441 1.1286 2.9271
6.0771 1.1940 2.9271
6.1097 1.2602 2.9271
6.1422 1.3272 2.9271
6.1743 1.3949 2.9271
6.2062 1.4633 2.9271
6.2378 1.5325 2.9271
6.2691 1.6025 2.9271
6.3001 1.6733 2.9271
6.3308 1.7449 2.9271
6.3612 1.8172 2.9271
6.3913 1.8904 2.9271
6.4210 1.9643 2.9271
6.4504 2.0391 2.9271
6.4794 2.1146 2.9271
6.5080 2.1910 2.9271
6.5363 2.2682 2.9271
6.5642 2.3463 2.9271
6.5916 2.4251 2.9271
6.6186 2.5049 2.9271
6.6453 2.5854 2.9271
6.6715 2.6668 2.9271
6.6972 2.7491 2.9271
6.7472 2.9161 2.9271
6.7224 2.8322 2.9271
6.7715 3.0009 2.9271
6.8634 3.3489 2.9271
6.7953 3.0866 2.9271
6.8850 3.4381 2.9271
6.8185 3.1732 2.9271
6.9060 3.5281 2.9271
6.8412 3.2606 2.9271
6.9265 3.6191 2.9271
6.9655 3.8036 2.9271
6.9463 3.7109 2.9271
6.9840 3.8972 2.9271
7.0515 4.2804 2.9271
7.0019 3.9917 2.9271
7.0665 4.3784 2.9271
7.0192 4.0870 2.9271
7.0809 4.4773 2.9271
7.0357 4.1833 2.9271
7.0944 4.5771 2.9271
7.1191 4.7793 2.9271
7.1072 4.6777 2.9271
7.1303 4.8817 2.9271
7.1662 5.2999 2.9271
7.1406 4.9849 2.9271
7.1729 5.4066 2.9271
7.1500 5.0891 2.9271
7.1786 5.5142 2.9271
7.1585 5.1941 2.9271
7.1834 5.6226 2.9271
7.1900 5.8418 2.9271
7.1872 5.7318 2.9271
7.1917 5.9526 2.9271
7.1879 6.4038 2.9271
7.1924 6.0642 2.9271
7.1842 6.5185 2.9271
7.1920 6.1767 2.9271
7.1792 6.6340 2.9271
7.1905 6.2899 2.9271
7.1731 6.7501 2.9271
7.1571 6.9846 2.9271
7.1657 6.8670 2.9271
7.1472 7.1028 2.9271
7.0946 7.5820 2.9271
6.9973 8.1935 2.9271
7.1361 7.2217 2.9271
7.0780 7.7033 2.9271
6.9734 8.3173 2.9271
7.1236 7.3412 2.9271
7.0600 7.8251 2.9271
6.9480 8.4414 2.9271
6.8623 8.8159 2.9271
7.1098 7.4613 2.9271
7.0406 7.9474 2.9271
6.9211 8.5659 2.9271
6.8306 8.9413 2.9271
6.6868 9.4449 2.9271
7.0197 8.0703 2.9271
6.8925 8.6907 2.9271
6.7971 9.0669 2.9271
6.6465 9.5712 2.9271
6.4679 10.0759 2.9271
6.2034 10.7032 2.9271
6.7620 9.1928 2.9271
6.6045 9.6974 2.9271
6.4187 10.2019 2.9271
6.0944 10.7387 2.9030
6.7253 9.3188 2.9271
6.5608 9.8237 2.9271
6.3677 10.3276 2.9271
5.9442 10.6994 2.8596
5.5847 10.7309 2.7747
6.5152 9.9499 2.9271
6.3148 10.4532 2.9271
5.7966 10.6606 2.8175
5.5200 10.8462 2.7747
5.2427 11.2995 2.7747
6.2600 10.5784 2.9271
5.6514 10.6223 2.7766
5.4535 10.9607 2.7747
5.1688 11.4106 2.7747
4.8543 11.8442 2.7747
4.4197 12.3571 2.7747
5.3851 11.0745 2.7747
5.0930 11.5207 2.7747
4.7710 11.9496 2.7747
4.3274 12.4552 2.7747
5.3149 11.1874 2.7747
5.0152 11.6297 2.7747
4.6859 12.0536 2.7747
4.2333 12.5516 2.7747
4.9357 11.7375 2.7747
4.5990 12.1563 2.7747
4.1375 12.6462 2.7747
4.5102 12.2575 2.7747
4.0399 12.7391 2.7747
4.2835 -0.6274 2.9024
4.3159 -0.5885 2.9024
4.3483 -0.5490 2.9025
4.3805 -0.5091 2.9026
4.4126 -0.4688 2.9026
4.4446 -0.4279 2.9027
4.4765 -0.3866 2.9028
4.5082 -0.3448 2.9029
4.5398 -0.3025 2.9029
4.5714 -0.2598 2.9030
4.6027 -0.2165 2.9031
4.6346 -0.1728 2.9036
4.6692 -0.1286 2.9058
4.7037 -0.0839 2.9080
4.7379 -0.0386 2.9101
4.7713 0.0073 2.9119
4.8046 0.0537 2.9136
4.8378 0.1007 2.9154
4.8702 0.1483 2.9167
4.9024 0.1964 2.9180
4.9345 0.2451 2.9193
4.9661 0.2944 2.9205
4.9974 0.3442 2.9215
5.0284 0.3946 2.9225
5.0588 0.4455 2.9233
5.0891 0.4970 2.9241
5.1189 0.5490 2.9247
5.1482 0.6016 2.9252
5.1774 0.6548 2.9257
5.2064 0.7086 2.9262
5.2346 0.7628 2.9265
5.2625 0.8177 2.9266
5.2901 0.8730 2.9268
5.3175 0.9290 2.9270
5.3444 0.9855 2.9271
5.3709 1.0426 2.9271
5.3972 1.1003 2.9271
5.4231 1.1585 2.9271
5.4488 1.2174 2.9271
5.4742 1.2768 2.9271
5.4992 1.3368 2.9271
5.5240 1.3974 2.9271
5.5484 1.4586 2.9271
5.5725 1.5204 2.9271
5.5962 1.5829 2.9271
5.6196 1.6459 2.9271
5.6427 1.7095 2.9271
5.6653 1.7738 2.9271
5.6876 1.8386 2.9271
5.7095 1.9041 2.9271
5.7311 1.9702 2.9271
5.7522 2.0369 2.9271
5.7729 2.1042 2.9271
5.7931 2.1722 2.9271
5.8130 2.2407 2.9271
5.8324 2.3099 2.9271
5.8514 2.3797 2.9271
5.8698 2.4502 2.9271
5.8878 2.5212 2.9271
5.9054 2.5929 2.9271
5.9224 2.6652 2.9271
5.9389 2.7382 2.9271
5.9549 2.8117 2.9271
5.9704 2.8859 2.9271
5.9853 2.9607 2.9271
5.9997 3.0362 2.9271
6.0135 3.1122 2.9271
6.0267 3.1889 2.9271
6.0393 3.2662 2.9271
6.0513 3.3441 2.9271
6.0627 3.4226 2.9271
6.0735 3.5017 2.9271
6.0836 3.5815 2.9271
6.0931 3.6618 2.9271
6.1019 3.7427 2.9271
6.1100 3.8243 2.9271
6.1175 3.9064 2.9271
6.1242 3.9891 2.9271
6.1302 4.0724 2.9271
6.1354 4.1563 2.9271
6.1399 4.2407 2.9271
6.1436 4.3257 2.9271
6.1465 4.4113 2.9271
6.1487 4.4974 2.9271
6.1500 4.5840 2.9271
6.1505 4.6712 2.9271
6.1501 4.7589 2.9271
6.1489 4.8471 2.9271
6.1468 4.9359 2.9271
6.1438 5.0251 2.9271
6.1399 5.1148 2.9271
6.1351 5.2050 2.9271
6.1294 5.2956 2.9271
6.1227 5.3867 2.9271
6.1150 5.4783 2.9271
6.1064 5.5702 2.9271
6.0967 5.6626 2.9271
6.0860 5.7554 2.9271
6.0743 5.8485 2.9271
6.0616 5.9420 2.9271
6.0478 6.0359 2.9271
6.0329 6.1301 2.9271
6.0169 6.2246 2.9271
5.9998 6.3194 2.9271
5.9817 6.4145 2.9271
5.9623 6.5098 2.9271
5.9418 6.6054 2.9271
5.9201 6.7012 2.9271
5.8973 6.7971 2.9271
5.8732 6.8933 2.9271
5.8479 6.9896 2.9271
5.8214 7.0860 2.9271
5.7937 7.1825 2.9271
5.7647 7.2791 2.9271
5.7345 7.3757 2.9271
5.7029 7.4724 2.9271
5.6701 7.5690 2.9271
5.6360 7.6656 2.9271
5.6006 7.7622 2.9271
5.5638 7.8586 2.9271
5.5257 7.9549 2.9271
5.4862 8.0511 2.9271
5.4454 8.1471 2.9271
5.4032 8.2428 2.9271
5.3597 8.3383 2.9271
5.3147 8.4335 2.9271
5.2684 8.5284 2.9271
5.2207 8.6230 2.9271
5.1715 8.7171 2.9271
5.1210 8.8108 2.9271
5.0690 8.9040 2.9271
5.0157 8.9967 2.9271
4.9609 9.0889 2.9271
4.9046 9.1805 2.9271
4.8470 9.2715 2.9271
4.7879 9.3618 2.9271
4.7274 9.4514 2.9271
4.6654 9.5402 2.9271
4.6021 9.6283 2.9271
4.5373 9.7156 2.9271
4.4711 9.8019 2.9271
4.4035 9.8874 2.9271
4.3345 9.9719 2.9271
4.2641 10.0554 2.9271
4.1923 10.1379 2.9271
4.0745 10.1087 2.8954
3.9573 10.0775 2.8640
3.8416 10.0467 2.8334
3.7274 10.0162 2.8038
3.6146 9.9859 2.7750
3.5383 10.0562 2.7747
3.4613 10.1263 2.7747
3.3830 10.1951 2.7747
3.3036 10.2626 2.7747
3.2230 10.3287 2.7747
