ply
format ascii 1.0
element vertex 1416
property float32 x
property float32 y
property float32 z
end_header
-0.0184 9.9043 -4.9260
-0.1332 10.3305 -5.1381
-7.0903 8.6491 -4.7529
-7.2156 8.6149 -4.7517
-7.5377 8.4427 -4.7115
-7.3420 8.5804 -4.7507
-7.4695 8.5455 -4.7498
-7.6513 8.3908 -4.7018
-7.7149 7.9441 -4.5095
-6.8884 7.3968 -4.1623
-8.1129 8.1810 -4.6652
-7.2179 7.5896 -4.2892
-8.2427 8.1402 -4.6636
-8.4266 7.9819 -4.6175
-8.2970 8.0246 -4.6195
-8.6299 8.0058 -4.6548
-8.7641 7.6370 -4.5117
-8.3338 7.5716 -4.4252
-9.2222 7.8698 -4.6754
-8.9432 7.9575 -4.6755
-8.9037 7.4404 -4.4458
-8.9859 7.1996 -4.3537
-8.9449 7.3194 -4.3994
-9.5544 7.0306 -4.3635
-9.0267 7.0810 -4.3088
-9.6140 6.9239 -4.3273
-9.0671 6.9634 -4.2644
-9.4946 7.1379 -4.4002
-0.1314 10.3419 -4.5565
-0.2540 10.7654 -4.7434
-0.5323 11.7319 -5.1704
-6.9955 8.6927 -4.1500
-7.1188 8.6591 -4.1463
-7.2431 8.6252 -4.1428
-7.3684 8.5910 -4.1395
-7.4949 8.5566 -4.1363
-7.6225 8.5218 -4.1332
-7.9846 8.7421 -4.2546
-8.0413 8.6229 -4.2113
-8.0976 8.5048 -4.1686
-8.1535 8.3878 -4.1265
-8.0743 7.8071 -3.8859
-7.4872 7.5447 -3.7258
-7.8536 7.7521 -3.8432
-8.3395 7.8989 -3.9478
-8.5509 7.6128 -3.8546
-8.4661 7.8551 -3.9425
-8.2343 7.1809 -3.6526
-8.5087 7.7333 -3.8982
-8.6342 7.3752 -3.7691
-9.0022 7.3764 -3.8068
-8.6755 7.2582 -3.7273
-9.0612 7.2714 -3.7718
-9.5019 7.1589 -3.7740
-9.4434 6.9655 -3.6931
-9.3593 7.3550 -3.8352
-10.0912 7.2863 -3.8859
-9.4306 7.2569 -3.8045
-10.1767 7.1922 -3.8589
11.6199 31.7507 -12.4269
11.9676 33.8081 -13.2208
11.5524 33.7708 -13.1954
11.1408 33.7338 -13.1705
10.7327 33.6970 -13.1462
10.3109 33.6048 -13.1006
10.0002 33.8736 -13.1961
9.6863 34.1452 -13.2929
9.3463 34.3361 -13.3586
9.0484 34.6970 -13.4907
9.4468 37.8745 -14.7174
7.1438 36.9384 -14.3171
-0.1295 10.3401 -3.9922
-6.8673 8.8751 -3.6197
-6.9948 8.8490 -3.6166
-7.1234 8.8227 -3.6136
-7.2532 8.7960 -3.6106
-7.3394 8.7158 -3.5858
-7.2765 8.4625 -3.4897
-7.3882 8.4156 -3.4786
-7.5006 8.3684 -3.4676
-7.6137 8.3209 -3.4566
-7.7275 8.2732 -3.4457
-7.8421 8.2252 -3.4348
-7.9575 8.1768 -3.4239
-8.0737 8.1281 -3.4131
-8.1908 8.0791 -3.4023
-7.7679 7.5070 -3.1707
-8.1484 7.7155 -3.2687
-8.6107 7.9884 -3.3949
-8.4802 7.7081 -3.2864
-8.5389 7.6043 -3.2528
-8.5973 7.5012 -3.2196
-8.7697 7.4961 -3.2287
-8.7473 7.3248 -3.1663
-9.0774 7.4461 -3.2307
-9.1503 7.3523 -3.2022
-9.2231 7.2586 -3.1738
-9.4775 7.3050 -3.2070
-9.3149 7.0311 -3.0996
-9.9219 7.3335 -3.2467
-9.4287 6.8233 -3.0342
-10.0900 7.1483 -3.1932
-10.1459 6.8861 -3.1054
-10.2207 6.7882 -3.0766
-33.6973 19.5770 -9.1744
-33.9386 19.2677 -9.0860
-34.1798 18.9575 -8.9975
-35.8539 19.4225 -9.2800
-36.1433 19.1174 -9.1976
11.8013 32.7284 -10.9874
11.5133 33.0093 -11.0771
11.1910 33.2003 -11.1368
10.8077 33.2097 -11.1357
10.6357 33.8852 -11.3580
10.9479 36.2056 -12.1315
10.5266 36.1800 -12.1188
10.0110 35.8060 -11.9896
9.6416 35.9376 -12.0299
9.3250 36.2780 -12.1402
8.9105 36.2427 -12.1249
7.7589 34.6941 -11.6007
8.4987 36.2076 -12.1099
6.2826 34.9516 -11.6762
7.4019 34.8159 -11.6386
5.9051 34.9656 -11.6786
7.0440 34.9389 -11.6770
5.6017 35.4429 -11.8358
5.3223 36.1457 -12.0685
6.6227 34.7354 -11.6064
5.0297 36.8541 -12.3031
4.6306 36.8282 -12.2926
4.2413 36.8753 -12.3067
-0.1277 10.3384 -3.4479
-7.2077 9.2792 -3.1817
-6.9728 8.7898 -3.0171
-7.0993 8.7637 -3.0114
-7.3559 8.7107 -2.9999
-7.2270 8.7373 -3.0057
-7.4862 8.6838 -2.9942
-7.6177 8.6565 -2.9884
-8.1704 8.9123 -3.0845
-7.8602 8.7509 -3.0248
-8.3634 8.9388 -3.0977
-7.9279 7.9728 -2.7746
-8.0965 8.4794 -2.9425
-8.0412 7.9247 -2.7619
-7.8419 8.0478 -2.7966
-8.1554 7.8762 -2.7492
-8.4673 7.8533 -2.7499
-9.1880 8.6959 -3.0400
-8.5388 7.7609 -2.7220
-8.7526 7.4854 -2.6392
-8.6102 7.6688 -2.6943
-9.2034 7.7122 -2.7243
-8.6814 7.5769 -2.6667
-9.3306 7.6607 -2.7113
-9.3113 7.3374 -2.6073
-9.4591 7.6087 -2.6982
-9.4278 7.2774 -2.5914
-8.5879 6.2274 -2.2325
-9.6850 7.3225 -2.6132
-8.5073 6.0404 -2.1706
-8.6712 6.4209 -2.2965
-9.9915 6.9455 -2.5020
-10.2229 6.8086 -2.4654
-10.0651 6.8490 -2.4735
-33.2493 20.2866 -7.4304
-34.1105 21.7522 -7.9202
-33.4268 19.9432 -7.3275
-33.2958 20.7708 -7.5849
-33.6037 19.6005 -7.2248
-33.7743 19.2548 -7.1213
-33.9562 18.9164 -7.0204
-34.1318 18.5750 -6.9186
-36.3023 19.2945 -7.2136
10.8568 30.5510 -8.6101
10.5582 30.7138 -8.6574
10.2545 30.8657 -8.7015
9.8901 30.8317 -8.6932
9.5286 30.7981 -8.6850
9.1701 30.7647 -8.6768
9.0456 31.5378 -8.8959
8.8195 31.9977 -9.0268
8.4564 31.9718 -9.0206
8.8963 35.1051 -9.9057
8.5999 35.4782 -10.0121
8.2237 35.5347 -10.0291
7.8481 35.5912 -10.0461
7.4728 35.6475 -10.0629
7.2145 36.2906 -10.2454
7.1028 37.7794 -10.6666
6.5730 37.0818 -10.4705
6.2813 37.7164 -10.6505
5.8084 37.2663 -10.5241
-0.1259 10.3367 -2.9206
-6.8783 8.8216 -2.4647
-7.0159 8.8127 -2.4612
-7.0659 8.6936 -2.4269
-7.1778 8.6512 -2.4139
-7.2903 8.6086 -2.4009
-7.4036 8.5657 -2.3878
-7.5177 8.5225 -2.3746
-7.6325 8.4790 -2.3612
-7.7481 8.4352 -2.3478
-7.8645 8.3910 -2.3342
-8.0294 8.3963 -2.3344
-8.3603 8.5685 -2.3809
-8.7586 8.7984 -2.4434
-8.8869 8.7502 -2.4285
-8.6290 8.3278 -2.3098
-9.0005 8.5140 -2.3599
-8.7772 8.1381 -2.2542
-8.5816 7.7988 -2.1587
-8.7008 7.7500 -2.1437
-8.8210 7.7007 -2.1285
-8.9193 7.6312 -2.1077
-8.9538 7.5077 -2.0719
-9.2187 7.5749 -2.0888
-9.3042 7.4915 -2.0641
-9.3333 7.3634 -2.0270
-9.4625 7.3141 -2.0116
-8.6382 6.5412 -1.7974
-8.5558 6.3464 -1.7422
-8.4761 6.1581 -1.6888
-9.8422 7.0029 -1.9185
-9.9148 6.9079 -1.8905
-10.0370 6.8468 -1.8717
-32.2171 21.5141 -5.8745
-32.6738 21.3561 -5.8245
-33.1056 21.1756 -5.7681
-33.5995 21.0281 -5.7206
-34.3180 21.0106 -5.7082
-34.2975 20.5371 -5.5719
-35.3375 20.6907 -5.6054
-35.3328 20.2246 -5.4710
-35.5813 19.9058 -5.3763
-35.0935 19.1834 -5.1728
11.7921 33.6637 -7.7233
11.4983 33.9316 -7.7921
11.2335 34.2989 -7.8837
10.8353 34.2630 -7.8823
10.4615 34.2969 -7.8968
10.0401 34.1636 -7.8725
9.6242 34.0322 -7.8483
9.1643 33.7203 -7.7822
8.8406 33.8971 -7.8286
8.4715 33.9003 -7.8347
8.5980 35.9697 -8.3183
8.1278 35.6134 -8.2411
7.8675 36.1795 -8.3770
7.6357 36.9342 -8.5565
7.1388 36.4108 -8.4398
6.8174 36.7665 -8.5265
6.3888 36.5440 -8.4789
6.0846 37.0424 -8.5983
5.7061 37.1180 -8.6195
5.4444 38.0123 -8.8306
5.0020 37.6777 -8.7560
4.6433 37.9627 -8.8251
4.2491 37.9750 -8.8307
3.8510 37.9443 -8.8260
-0.1242 10.3351 -2.4070
-6.9749 8.7310 -1.8899
-7.1114 8.7216 -1.8825
-7.2497 8.7120 -1.8749
-7.3900 8.7023 -1.8671
-7.5322 8.6924 -1.8592
-7.6822 8.6890 -1.8525
-7.4538 8.2632 -1.7559
-7.5647 8.2201 -1.7407
-7.6765 8.1768 -1.7254
-7.7890 8.1330 -1.7099
-7.9024 8.0890 -1.6942
-8.0166 8.0445 -1.6784
-8.1318 7.9997 -1.6623
-8.2478 7.9545 -1.6460
-8.3648 7.9089 -1.6294
-8.5069 7.8852 -1.6173
-8.5818 7.7982 -1.5921
-8.6639 7.7178 -1.5681
-8.7460 7.6373 -1.5440
-8.8282 7.5568 -1.5199
-8.9105 7.4762 -1.4956
-8.9930 7.3955 -1.4713
-9.3620 7.5456 -1.4925
-9.3914 7.4180 -1.4585
-8.6054 6.6606 -1.3015
-8.5239 6.4646 -1.2550
-8.4451 6.2751 -1.2100
-9.6905 7.0538 -1.3507
-9.7653 6.9627 -1.3235
-9.8575 6.8836 -1.2986
-34.2522 23.4227 -4.3836
-33.7719 22.6120 -4.1969
-34.9257 22.8926 -4.2122
-35.7081 22.9093 -4.1772
-34.0557 21.3821 -3.8619
-34.0728 20.9315 -3.7430
-34.0897 20.4861 -3.6253
-33.4311 19.6488 -3.4392
-34.5899 19.8786 -3.4396
-34.6101 19.4439 -3.3238
11.1442 32.2709 -5.7514
10.7969 32.3176 -5.7721
10.4265 32.2890 -5.7788
10.0591 32.2607 -5.7852
9.6944 32.2327 -5.7912
9.3326 32.2051 -5.7968
9.2479 33.1622 -5.9795
8.8772 33.1232 -5.9825
8.3024 32.2799 -5.8395
7.9927 32.4317 -5.8759
7.6793 32.5749 -5.9105
7.3247 32.5416 -5.9126
6.9724 32.5086 -5.9145
6.6222 32.4760 -5.9159
6.2741 32.4436 -5.9170
6.2737 34.3016 -6.2629
5.9110 34.2771 -6.2650
5.5499 34.2527 -6.2667
5.1906 34.2286 -6.2681
5.4791 38.7798 -7.1077
5.0956 38.9090 -7.1371
-0.1225 10.3335 -1.9047
-7.0683 8.6422 -1.3254
-7.2037 8.6323 -1.3141
-7.3410 8.6221 -1.3025
-7.4801 8.6119 -1.2907
-7.5901 8.5662 -1.2733
-7.6847 8.5026 -1.2530
-7.7795 8.4388 -1.2326
-7.8745 8.3747 -1.2120
-7.9697 8.3105 -1.1912
-8.0651 8.2461 -1.1703
-8.1607 8.1814 -1.1491
-8.2566 8.1164 -1.1278
-8.3560 8.0543 -1.1066
-8.4804 8.0152 -1.0884
-8.6060 7.9757 -1.0699
-8.7329 7.9356 -1.0511
-8.7839 7.8262 -1.0229
-8.7955 7.6834 -0.9904
-8.8068 7.5426 -0.9582
-8.8179 7.4039 -0.9263
-9.0884 7.4809 -0.9211
-8.6323 6.9651 -0.8434
-8.5618 6.7713 -0.8056
-8.4920 6.5825 -0.7688
-8.4141 6.3917 -0.7322
-9.5406 7.1019 -0.7970
-9.5943 6.9977 -0.7684
-33.5373 22.9923 -2.3472
-33.8461 22.7237 -2.2571
-34.1561 22.4536 -2.1660
-34.1022 21.9470 -2.0521
-34.3282 21.6242 -1.9555
-35.0131 21.5842 -1.8831
-35.1289 21.1884 -1.7785
-33.3094 19.6533 -1.5821
-35.2666 20.3503 -1.5655
12.3764 36.3513 -4.6518
11.9965 36.4198 -4.6802
12.6777 39.8180 -5.1375
12.3143 40.0526 -5.1878
11.2485 37.9277 -4.9308
10.0840 35.2880 -4.6039
9.5881 34.8650 -4.5642
9.3134 35.2371 -4.6280
8.9318 35.2122 -4.6390
8.5527 35.1876 -4.6495
8.1759 35.1633 -4.6594
8.8317 39.7807 -5.2854
8.4085 39.7472 -5.2944
8.6375 42.9441 -5.7341
6.6793 41.7883 -5.6265
6.2459 41.7520 -5.6316
5.5464 39.7928 -5.3762
5.2132 40.3511 -5.4600
4.7729 40.0966 -5.4332
4.3635 40.0696 -5.4365
3.8822 39.3014 -5.3386
3.5487 40.0163 -5.4414
3.2892 41.8480 -5.6959
-0.1209 10.3320 -1.4110
-14.3635 40.4183 -5.1419
-14.7406 40.2074 -5.0916
-15.1158 39.9955 -5.0406
-15.4890 39.7829 -4.9889
-15.8604 39.5694 -4.9365
-16.2300 39.3551 -4.8835
-16.5978 39.1400 -4.8298
-16.9638 38.9239 -4.7754
-17.3281 38.7070 -4.7203
-17.6908 38.4892 -4.6646
-18.0518 38.2705 -4.6081
-18.4111 38.0508 -4.5510
-18.7689 37.8303 -4.4932
-19.1251 37.6088 -4.4348
-19.4798 37.3863 -4.3756
-19.8330 37.1628 -4.3158
-20.1848 36.9384 -4.2552
-20.5351 36.7130 -4.1940
-7.2365 8.4793 -0.7473
-7.3562 8.4510 -0.7303
-7.4770 8.4222 -0.7128
-7.5990 8.3932 -0.6951
-7.7221 8.3637 -0.6769
-7.8464 8.3338 -0.6584
-7.9592 8.2902 -0.6385
-7.8697 8.0389 -0.6027
-7.9617 7.9760 -0.5812
-8.2586 8.1140 -0.5736
-8.3354 8.0316 -0.5499
-8.4577 7.9924 -0.5288
-8.6193 7.9881 -0.5096
-8.1413 7.3994 -0.4540
-8.6546 7.7139 -0.4539
-8.7262 7.6272 -0.4290
-8.7848 7.5294 -0.4034
-8.5095 7.1516 -0.3635
-8.4413 6.9559 -0.3337
-8.3754 6.7665 -0.3048
-8.3114 6.5829 -0.2766
-9.1992 7.1425 -0.2778
-9.8441 7.4917 -0.2672
-39.8788 29.7451 -0.9614
-40.2661 29.4331 -0.8498
-34.8627 20.6539 0.2706
11.5618 38.1377 -3.0667
11.1733 38.2062 -3.0957
11.6124 48.4412 -4.0569
11.0782 48.3082 -4.0688
10.5491 48.1757 -4.0796
10.0249 48.0435 -4.0892
9.5053 47.9117 -4.0976
8.9904 47.7802 -4.1050
8.4799 47.6490 -4.1113
7.9737 47.5180 -4.1165
7.4718 47.3874 -4.1207
6.9740 47.2570 -4.1238
6.4831 47.1489 -4.1278
6.1693 48.4033 -4.2504
-0.1192 10.3304 -0.9238
-8.1418 38.3827 -3.2614
-8.5010 38.2163 -3.2304
-8.8582 38.0489 -3.1987
-9.2134 37.8805 -3.1662
-9.5666 37.7112 -3.1329
-9.9179 37.5408 -3.0989
-10.2673 37.3695 -3.0641
-10.6148 37.1971 -3.0286
-10.9605 37.0238 -2.9923
-11.3043 36.8494 -2.9553
-11.6464 36.6741 -2.9175
-11.9867 36.4977 -2.8789
-12.3252 36.3203 -2.8396
-12.6620 36.1419 -2.7996
-12.9971 35.9625 -2.7589
-13.3306 35.7820 -2.7173
-13.6624 35.6006 -2.6751
-13.9926 35.4180 -2.6321
-14.3212 35.2345 -2.5884
-14.6714 35.1054 -2.5480
-15.0312 34.9981 -2.5083
-15.3917 34.8906 -2.4679
-16.1970 35.7632 -2.4950
-16.5706 35.6552 -2.4519
-16.9453 35.5471 -2.4079
-17.3213 35.4389 -2.3630
-17.6983 35.3303 -2.3172
-18.0766 35.2214 -2.2705
-18.4561 35.1122 -2.2229
-18.8371 35.0025 -2.1743
-19.2195 34.8924 -2.1247
-19.6035 34.7819 -2.0741
-31.4946 36.8274 -0.9388
-31.1884 35.7634 -0.8312
-30.8947 34.7430 -0.7270
-30.6127 33.7635 -0.6261
-30.7427 33.2559 -0.5353
-7.6261 8.0914 -0.1099
-7.7455 8.0609 -0.0885
-7.8662 8.0300 -0.0668
-7.9880 7.9987 -0.0446
-8.1111 7.9670 -0.0219
-8.2354 7.9348 0.0013
-8.3611 7.9021 0.0249
-8.5139 7.8928 0.0492
-8.4342 7.6694 0.0722
-8.3384 7.4371 0.0944
-8.3854 7.3355 0.1178
-8.3197 7.1381 0.1395
-8.2561 6.9471 0.1607
-8.8207 7.2787 0.1953
-8.8730 7.1798 0.2200
-23.2329 18.4337 0.6375
-23.6472 18.3957 0.7109
-23.9862 18.2931 0.7838
-24.3297 18.1891 0.8582
-24.6781 18.0836 0.9343
-25.0313 17.9766 1.0121
-25.3897 17.8681 1.0916
-25.7533 17.7580 1.1729
-26.1224 17.6462 1.2561
-26.4972 17.5327 1.3412
-26.8779 17.4174 1.4282
-27.2647 17.3003 1.5173
-27.6577 17.1812 1.6085
-27.9538 16.9973 1.6956
11.3070 37.8278 -1.2015
13.8455 48.0148 -1.5607
13.2979 47.8572 -1.5898
12.7566 47.7014 -1.6174
12.2215 47.5473 -1.6435
11.6924 47.3950 -1.6681
11.1892 47.3297 -1.6944
10.6897 47.2655 -1.7194
10.1755 47.1175 -1.7399
9.6492 46.8864 -1.7560
9.1627 46.8259 -1.7770
8.6637 46.6823 -1.7935
8.1401 46.3725 -1.8023
7.6522 46.2321 -1.8163
7.1688 46.0929 -1.8290
6.7516 46.3804 -1.8576
6.4384 47.4683 -1.9176
6.1111 48.6054 -1.9791
-0.1176 10.3291 -0.4407
-8.3418 38.0238 -1.3972
-8.7062 37.9189 -1.3721
-9.0701 37.8141 -1.3462
-9.4336 37.7094 -1.3194
-9.7969 37.6049 -1.2916
-10.1598 37.5004 -1.2630
-10.5227 37.3962 -1.2334
-10.8854 37.2920 -1.2030
-11.2480 37.1879 -1.1716
-11.6106 37.0837 -1.1393
-11.9734 36.9796 -1.1061
-12.3362 36.8754 -1.0719
-12.6993 36.7711 -1.0368
-13.0626 36.6668 -1.0008
-13.4263 36.5624 -0.9637
-13.7904 36.4579 -0.9257
-14.1550 36.3532 -0.8868
-14.5201 36.2484 -0.8468
-14.8856 36.1430 -0.8059
-15.2518 36.0374 -0.7639
-15.6187 35.9315 -0.7209
-15.9864 35.8254 -0.6769
-16.3550 35.7191 -0.6319
-16.7246 35.6125 -0.5858
-17.0951 35.5056 -0.5386
-17.4667 35.3984 -0.4904
-17.8396 35.2908 -0.4410
-18.2136 35.1829 -0.3906
-18.5889 35.0746 -0.3390
-18.9657 34.9660 -0.2863
-19.3439 34.8568 -0.2324
-15.0511 20.9897 0.3203
-15.3025 20.9136 0.3646
-15.5556 20.8370 0.4098
-15.8103 20.7598 0.4559
-16.0668 20.6822 0.5029
-16.3250 20.6040 0.5509
-16.5851 20.5252 0.5999
-16.8471 20.4459 0.6499
-17.1112 20.3659 0.7009
-17.3773 20.2853 0.7530
-17.6456 20.2041 0.8061
-17.8728 20.0736 0.8582
-18.1266 19.9709 0.9125
-18.4008 19.8878 0.9688
-18.7510 19.8819 1.0303
-19.0313 19.7970 1.0891
-8.1847 8.3529 0.4870
-8.2172 8.2275 0.5075
-19.8886 19.5374 1.2732
-20.1801 19.4491 1.3371
-8.4007 7.9433 0.5754
-8.4557 7.8440 0.5980
-8.2593 7.5168 0.6025
-8.1961 7.3178 0.6160
-8.7045 7.6240 0.6734
-8.7876 7.5502 0.6992
-8.8707 7.4761 0.7254
-22.6302 18.7071 1.9002
-22.8936 18.5612 1.9724
-23.1962 18.4438 2.0493
-23.6070 18.4070 2.1372
-23.9424 18.3054 2.2199
-24.2824 18.2024 2.3044
-24.6271 18.0980 2.3908
-24.9766 17.9922 2.4793
-25.3311 17.8848 2.5697
-25.6909 17.7759 2.6622
-26.2609 17.8041 2.7786
-25.7299 17.0901 2.7786
-25.2196 16.4085 2.7786
-24.9807 15.9179 2.8069
-25.3180 15.7973 2.9003
9.2438 28.3386 0.5511
8.9128 28.2384 0.5217
8.5860 28.1395 0.4935
8.2633 28.0419 0.4666
7.9445 27.9454 0.4407
7.6296 27.8501 0.4160
7.3184 27.7559 0.3923
6.9868 27.5680 0.3684
6.6837 27.4763 0.3470
6.4081 27.4891 0.3278
10.4930 47.0498 0.5293
9.9890 46.9047 0.4975
9.4901 46.7611 0.4674
8.9961 46.6189 0.4389
8.5068 46.4781 0.4120
8.0221 46.3386 0.3866
7.5418 46.2003 0.3628
7.0774 46.1391 0.3410
6.6832 46.5492 0.3241
6.3782 47.6774 0.3125
6.0527 48.8084 0.3017
-0.1160 10.3279 0.0403
-3.3067 42.0127 0.2022
-3.7033 41.8985 0.2118
-4.0957 41.7568 0.2223
-4.4891 41.6435 0.2341
-4.8769 41.4936 0.2468
-5.2673 41.3812 0.2609
-5.6655 41.3337 0.2764
-6.0542 41.2218 0.2927
-6.4419 41.1102 0.3101
-6.8286 40.9989 0.3286
-7.2144 40.8878 0.3482
-7.5994 40.7770 0.3689
-7.9835 40.6664 0.3907
-8.3671 40.5560 0.4136
-8.2341 38.0619 0.4118
-8.5939 37.9581 0.4355
-8.9531 37.8544 0.4602
-9.3120 37.7509 0.4859
-6.0888 23.7036 0.3228
-6.3135 23.6356 0.3403
-6.5381 23.5676 0.3585
-6.7625 23.4996 0.3774
-6.9869 23.4317 0.3969
-7.2111 23.3638 0.4170
-7.4354 23.2959 0.4379
-7.6596 23.2280 0.4594
-7.8607 23.0920 0.4802
-8.0805 23.0131 0.5029
-8.3043 22.9453 0.5264
-8.5617 22.9674 0.5528
-8.7867 22.8992 0.5778
-9.0120 22.8310 0.6035
-9.2375 22.7627 0.6300
-9.4634 22.6943 0.6572
-9.6897 22.6258 0.6851
-9.9164 22.5572 0.7138
-10.1436 22.4884 0.7432
-10.3712 22.4195 0.7733
-10.5995 22.3504 0.8042
-10.8283 22.2811 0.8359
-11.0577 22.2116 0.8684
-11.2878 22.1420 0.9017
-11.5186 22.0721 0.9357
-11.7502 22.0020 0.9706
-11.9826 21.9316 1.0063
-12.2158 21.8610 1.0428
-12.4500 21.7901 1.0802
-12.6851 21.7189 1.1184
-12.8701 21.5618 1.1529
-13.1063 21.4902 1.1928
-13.3507 21.4298 1.2341
-13.6288 21.4196 1.2795
-13.8693 21.3468 1.3222
-14.1110 21.2736 1.3658
-14.3540 21.2000 1.4104
-14.5984 21.1260 1.4560
-14.8443 21.0515 1.5025
-15.0916 20.9766 1.5501
-15.3404 20.9013 1.5987
-15.5908 20.8255 1.6483
-15.8429 20.7491 1.6990
-16.0967 20.6723 1.7508
-16.3523 20.5949 1.8037
-16.6097 20.5169 1.8577
-16.8691 20.4384 1.9129
-17.1304 20.3592 1.9692
-17.3938 20.2795 2.0268
-17.6593 20.1991 2.0856
-17.8744 20.0589 2.1393
-18.1347 19.9676 2.1994
-18.4061 19.8854 2.2618
-18.7535 19.8803 2.3347
-19.0310 19.7963 2.4000
-19.3110 19.7114 2.4668
-19.5938 19.6258 2.5350
-19.8794 19.5393 2.6047
-20.1679 19.4519 2.6758
-8.3623 7.9145 1.1234
-8.4371 7.8357 1.1476
-20.1790 18.3890 2.7786
-19.9340 17.8245 2.7786
-19.9030 17.4618 2.8082
-20.1736 17.3654 2.8809
-20.2804 17.1271 2.9310
-20.0404 16.6034 2.9310
-19.8046 16.0958 2.9310
-19.5731 15.6037 2.9310
-19.3456 15.1265 2.9310
-19.1219 14.6636 2.9310
-18.9022 14.2144 2.9310
-18.6862 13.7784 2.9310
-18.4737 13.3552 2.9310
-18.2649 12.9441 2.9310
-18.0594 12.5449 2.9310
-17.8574 12.1569 2.9310
-17.6585 11.7799 2.9310
-17.4629 11.4134 2.9310
-17.2703 11.0570 2.9310
9.0953 28.2928 1.9294
8.7705 28.1945 1.8915
8.4498 28.0974 1.8551
8.1330 28.0016 1.8200
7.8201 27.9069 1.7863
7.5108 27.8133 1.7539
7.1829 27.6352 1.7174
6.8792 27.5346 1.6871
6.6006 27.5249 1.6634
6.3105 27.4587 1.6373
6.0179 27.3702 1.6110
5.7284 27.2826 1.5859
5.4418 27.1958 1.5619
5.1580 27.1100 1.5391
4.8770 27.0249 1.5173
4.5987 26.9407 1.4966
4.3230 26.8573 1.4769
4.0498 26.7746 1.4583
3.7790 26.6926 1.4407
3.5105 26.6114 1.4241
3.2444 26.5308 1.4084
2.9804 26.4509 1.3938
2.7185 26.3717 1.3801
2.4587 26.2931 1.3673
2.1933 26.1243 1.3508
1.9383 26.0471 1.3399
1.6852 25.9714 1.3300
1.4386 25.9834 1.3254
1.1881 25.9076 1.3172
0.9392 25.8322 1.3098
0.6920 25.7574 1.3033
0.4463 25.6830 1.2976
0.2021 25.6091 1.2928
-0.0407 25.5356 1.2888
-0.1144 10.3268 0.5215
-0.5222 25.3899 1.2834
-0.7610 25.3176 1.2818
-0.9985 25.2457 1.2811
-1.2349 25.1742 1.2812
-1.4702 25.1030 1.2821
-1.7044 25.0321 1.2838
-1.9375 24.9615 1.2862
-2.1697 24.8912 1.2894
-2.4009 24.8212 1.2934
-2.6313 24.7515 1.2982
-2.8508 24.5955 1.2992
-3.0786 24.5265 1.3055
-3.3061 24.4597 1.3126
-3.5444 24.4731 1.3248
-3.7709 24.4045 1.3334
-3.9968 24.3361 1.3427
-4.2221 24.2679 1.3528
-4.4469 24.1999 1.3637
-4.6711 24.1320 1.3753
-4.8949 24.0642 1.3876
-5.1183 23.9966 1.4007
-5.3412 23.9291 1.4146
-5.5639 23.8617 1.4292
-5.7862 23.7944 1.4445
-6.0083 23.7272 1.4607
-6.2301 23.6601 1.4775
-6.4517 23.5930 1.4952
-6.6732 23.5259 1.5136
-6.8945 23.4589 1.5328
-7.1158 23.3919 1.5527
-7.3371 23.3249 1.5734
-7.5584 23.2579 1.5949
-7.7797 23.1909 1.6172
-7.9775 23.0559 1.6354
-8.1944 22.9778 1.6583
-8.4153 22.9110 1.6829
-8.6703 22.9337 1.7150
-8.8925 22.8664 1.7412
-9.1150 22.7991 1.7683
-9.3377 22.7316 1.7962
-9.5609 22.6641 1.8249
-9.7844 22.5964 1.8545
-10.0084 22.5286 1.8848
-10.2328 22.4606 1.9161
-10.4578 22.3925 1.9482
-10.6833 22.3242 1.9812
-10.9094 22.2558 2.0151
-11.1362 22.1871 2.0498
-11.3636 22.1182 2.0855
-11.5918 22.0491 2.1220
-11.8208 21.9798 2.1595
-12.0505 21.9103 2.1979
-12.2812 21.8404 2.2373
-12.5127 21.7703 2.2776
-12.7452 21.6999 2.3189
-12.9273 21.5436 2.3519
-13.1609 21.4729 2.3950
-13.4028 21.4132 2.4404
-13.6783 21.4038 2.4928
-13.9162 21.3318 2.5392
-14.1553 21.2593 2.5866
-14.3957 21.1865 2.6352
-15.1509 21.8540 2.7790
-15.1156 21.3719 2.7787
-15.0776 20.8995 2.7786
-15.0368 20.4363 2.7786
-14.9929 19.9814 2.7786
-14.9460 19.5348 2.7786
-14.8963 19.0964 2.7786
-15.0568 18.9335 2.8184
-15.2841 18.8541 2.8716
-15.5128 18.7740 2.9258
-15.4777 18.3784 2.9310
-15.4131 17.9576 2.9310
-15.3463 17.5449 2.9310
-15.2776 17.1400 2.9310
-15.2072 16.7428 2.9310
-15.1350 16.3534 2.9310
-15.0613 15.9714 2.9310
-14.9861 15.5969 2.9310
-14.9095 15.2296 2.9310
-14.8317 14.8694 2.9310
-14.7526 14.5163 2.9310
-8.2794 7.9958 1.6539
-8.3545 7.9189 1.6782
-8.4300 7.8422 1.7029
-14.4265 13.1714 2.9310
-14.3428 12.8514 2.9310
-14.2584 12.5377 2.9310
-14.1734 12.2302 2.9310
-14.0878 11.9286 2.9310
-14.0016 11.6330 2.9310
-13.9150 11.3432 2.9310
-13.8280 11.0590 2.9310
-13.7405 10.7803 2.9310
-13.6528 10.5071 2.9310
-13.5648 10.2392 2.9310
-13.4765 9.9765 2.9310
-13.3881 9.7190 2.9310
-13.2996 9.4663 2.9310
-12.5238 8.7394 2.7786
-12.4396 8.5091 2.7786
-12.3554 8.2833 2.7786
-12.2711 8.0618 2.7786
7.9278 25.0297 2.9310
7.7535 25.2965 2.9310
7.5740 25.5592 2.9310
7.3647 25.7318 2.9213
7.0840 25.6537 2.8841
6.8064 25.5762 2.8482
6.5317 25.4993 2.8136
6.2627 25.4343 2.7815
6.0572 25.6279 2.7786
5.8536 25.8420 2.7786
5.6455 26.0499 2.7786
5.4329 26.2514 2.7786
5.2161 26.4462 2.7786
4.9952 26.6339 2.7786
4.7701 26.8144 2.7786
4.5412 26.9873 2.7786
4.3085 27.1527 2.7787
4.0724 27.3109 2.7788
3.8327 27.4607 2.7789
3.4588 26.5949 2.6776
3.1967 26.5156 2.6569
2.9368 26.4369 2.6374
2.6789 26.3589 2.6190
2.4230 26.2814 2.6016
2.1616 26.1138 2.5764
1.9103 26.0378 2.5612
1.6610 25.9633 2.5471
1.4181 25.9764 2.5425
1.1712 25.9016 2.5303
0.9259 25.8274 2.5191
0.6822 25.7536 2.5089
0.4400 25.6803 2.4996
0.1992 25.6075 2.4913
-0.0401 25.5350 2.4840
-0.1128 10.3256 1.0047
-0.5149 25.3913 2.4721
-0.7503 25.3201 2.4675
-0.9846 25.2492 2.4639
-1.2178 25.1786 2.4612
-1.4498 25.1083 2.4593
-1.6808 25.0384 2.4584
-1.9108 24.9688 2.4584
-2.1399 24.8995 2.4592
-2.3680 24.8304 2.4609
-2.5952 24.7617 2.4635
-2.8118 24.6065 2.4584
-3.0366 24.5385 2.4627
-3.2610 24.4726 2.4680
-3.4961 24.4869 2.4824
-3.7196 24.4193 2.4893
-3.9425 24.3518 2.4970
-4.1648 24.2845 2.5057
-4.3866 24.2174 2.5151
-4.6079 24.1504 2.5254
-4.8287 24.0835 2.5366
-5.0491 24.0168 2.5486
-5.2691 23.9502 2.5615
-5.4888 23.8837 2.5752
-5.7082 23.8173 2.5897
-5.9273 23.7510 2.6051
-6.1461 23.6847 2.6214
-6.3648 23.6185 2.6385
-6.5833 23.5524 2.6565
-6.8017 23.4862 2.6753
-7.2386 24.1495 2.7789
-7.4069 23.8982 2.7788
-7.5702 23.6432 2.7787
-7.7286 23.3847 2.7786
-7.8823 23.1241 2.7786
-8.0311 22.8604 2.7786
-8.1748 22.5940 2.7786
-8.3137 22.3253 2.7786
-8.4476 22.0543 2.7786
-8.5766 21.7816 2.7786
-8.7008 21.5072 2.7786
-8.8201 21.2314 2.7786
-8.9345 20.9544 2.7786
-9.0810 20.7597 2.7898
-9.2808 20.6899 2.8184
-9.4822 20.6229 2.8483
-9.6839 20.5556 2.8790
-9.8860 20.4881 2.9106
-10.0474 20.3372 2.9310
-10.1348 20.0426 2.9310
-10.2176 19.7483 2.9310
-10.2960 19.4546 2.9310
-10.3700 19.1617 2.9310
-10.4398 18.8696 2.9310
-10.5054 18.5787 2.9310
-10.5669 18.2889 2.9310
-10.6245 18.0005 2.9310
-10.6781 17.7135 2.9310
-10.7278 17.4282 2.9310
-10.7739 17.1445 2.9310
-10.8162 16.8626 2.9310
-10.8551 16.5826 2.9310
-10.8905 16.3045 2.9310
-10.9224 16.0286 2.9310
-10.9512 15.7548 2.9310
-10.9766 15.4832 2.9310
-10.9990 15.2139 2.9310
-11.0184 14.9469 2.9310
-11.0348 14.6824 2.9310
-11.0484 14.4203 2.9310
-11.0592 14.1607 2.9310
-11.0673 13.9037 2.9310
-11.0728 13.6492 2.9310
-11.0757 13.3974 2.9310
-11.0762 13.1482 2.9310
-11.0744 12.9017 2.9310
-11.0702 12.6579 2.9310
-11.0639 12.4168 2.9310
-11.0553 12.1785 2.9310
-11.0012 11.2526 2.9310
-11.0447 11.9429 2.9310
-10.9830 11.0281 2.9310
-11.0321 11.7101 2.9310
-11.0176 11.4800 2.9310
-10.9630 10.8063 2.9310
-8.3465 7.9282 2.2407
-8.2721 8.0044 2.2160
-8.4208 7.8520 2.2658
-10.2480 9.0376 2.7786
-8.4955 7.7760 2.2914
-10.2190 8.8454 2.7786
-10.2756 9.2322 2.7786
-10.1889 8.6559 2.7786
-10.1252 8.2843 2.7786
-10.1576 8.4688 2.7786
-10.0917 8.1023 2.7786
-10.0571 7.9227 2.7786
-10.0215 7.7457 2.7786
-9.9850 7.5710 2.7786
-9.9476 7.3987 2.7786
-9.9093 7.2289 2.7786
-9.8702 7.0614 2.7786
-9.8303 6.8963 2.7786
-9.7895 6.7334 2.7786
-9.7481 6.5729 2.7786
5.4956 17.6160 2.9310
5.3622 17.7614 2.9310
5.2260 17.9039 2.9310
5.0871 18.0434 2.9310
4.9454 18.1798 2.9310
4.8011 18.3130 2.9310
4.6541 18.4427 2.9310
4.5046 18.5690 2.9310
4.3526 18.6916 2.9310
4.1981 18.8105 2.9310
4.0412 18.9255 2.9310
3.8820 19.0366 2.9310
3.7205 19.1436 2.9310
3.5569 19.2463 2.9310
3.3912 19.3448 2.9310
3.2234 19.4388 2.9310
3.0537 19.5283 2.9310
2.8821 19.6132 2.9310
2.7088 19.6934 2.9310
2.5338 19.7688 2.9310
2.3573 19.8393 2.9310
2.1793 19.9048 2.9310
1.9999 19.9653 2.9310
1.8193 20.0207 2.9310
1.6375 20.0710 2.9310
1.4547 20.1160 2.9310
1.2709 20.1557 2.9310
1.0864 20.1901 2.9310
0.9011 20.2191 2.9310
0.7153 20.2428 2.9310
0.5290 20.2610 2.9310
0.3424 20.2737 2.9310
0.1556 20.2810 2.9310
-0.0314 20.2828 2.9310
-0.1111 10.3245 1.4922
-0.4050 20.2701 2.9310
-0.5916 20.2555 2.9310
-0.7778 20.2354 2.9310
-0.9634 20.2100 2.9310
-1.1484 20.1791 2.9310
-1.3327 20.1429 2.9310
-1.5162 20.1014 2.9310
-1.6986 20.0547 2.9310
-1.8800 20.0027 2.9310
-2.0603 19.9456 2.9310
-2.2392 19.8834 2.9310
-2.4167 19.8161 2.9310
-2.5928 19.7440 2.9310
-2.7672 19.6670 2.9310
-2.9399 19.5852 2.9310
-3.1109 19.4988 2.9310
-3.2800 19.4077 2.9310
-3.4470 19.3122 2.9310
-3.6121 19.2123 2.9310
-3.7750 19.1081 2.9310
-3.9357 18.9998 2.9310
-4.0942 18.8873 2.9310
-4.2503 18.7710 2.9310
-4.4039 18.6508 2.9310
-4.5551 18.5270 2.9310
-4.7038 18.3995 2.9310
-4.8498 18.2686 2.9310
-4.9933 18.1344 2.9310
-5.1340 17.9969 2.9310
-5.2720 17.8564 2.9310
-5.4073 17.7129 2.9310
-5.5397 17.5666 2.9310
-5.6694 17.4176 2.9310
-5.7961 17.2660 2.9310
-5.9201 17.1120 2.9310
-6.0410 16.9556 2.9310
-6.1591 16.7970 2.9310
-6.2743 16.6364 2.9310
-6.3865 16.4739 2.9310
-6.4957 16.3095 2.9310
-6.6021 16.1434 2.9310
-6.7054 15.9757 2.9310
-6.8058 15.8066 2.9310
-6.9033 15.6361 2.9310
-6.9979 15.4644 2.9310
-7.0895 15.2916 2.9310
-7.4271 14.5911 2.9310
-7.1782 15.1177 2.9310
-7.5043 14.4143 2.9310
-7.2640 14.9429 2.9310
-7.5788 14.2369 2.9310
-7.3470 14.7674 2.9310
-7.6505 14.0591 2.9310
-7.7194 13.8810 2.9310
-7.9681 13.1673 2.9310
-7.7856 13.7027 2.9310
-8.0237 12.9889 2.9310
-7.8490 13.5243 2.9310
-8.0767 12.8107 2.9310
-7.9099 13.3458 2.9310
-8.1272 12.6328 2.9310
-8.1752 12.4552 2.9310
-8.3432 11.7493 2.9310
-8.2208 12.2780 2.9310
-8.3794 11.5742 2.9310
-8.2640 12.1012 2.9310
-8.4133 11.3999 2.9310
-8.3048 11.9249 2.9310
-8.4450 11.2262 2.9310
-8.4745 11.0534 2.9310
-8.1261 9.8317 2.7786
-8.5020 10.8814 2.9310
-8.1444 9.6722 2.7786
-8.5273 10.7103 2.9310
-8.1609 9.5137 2.7786
-8.1060 9.9921 2.7786
-8.1756 9.3563 2.7786
-8.1886 9.1999 2.7786
-8.2238 8.5852 2.7786
-8.1998 9.0445 2.7786
-8.2286 8.4344 2.7786
-8.2095 8.8903 2.7786
-8.2319 8.2848 2.7786
-8.2174 8.7372 2.7786
-8.2338 8.1364 2.7786
-8.2341 7.9892 2.7786
-8.2220 7.4130 2.7786
-8.1896 6.8574 2.7786
-8.2331 7.8433 2.7786
-8.2157 7.2722 2.7786
-8.1786 6.7218 2.7786
-8.2308 7.6986 2.7786
-8.2082 7.1326 2.7786
-8.1664 6.5875 2.7786
-8.2270 7.5552 2.7786
-8.1995 6.9944 2.7786
-8.1625 6.4619 2.7818
-8.2676 6.4228 2.8225
-8.3739 6.3832 2.8642
-8.4813 6.3431 2.9068
-8.5335 6.2611 2.9309
-8.5135 6.1272 2.9306
-8.4925 5.9947 2.9303
-8.4706 5.8637 2.9299
3.9462 12.8485 2.7786
3.8455 12.9374 2.7786
3.7432 13.0243 2.7786
3.6392 13.1092 2.7786
3.5336 13.1919 2.7786
3.4265 13.2725 2.7786
3.3179 13.3509 2.7786
3.2077 13.4270 2.7786
3.2660 14.2412 2.9310
3.1468 14.3165 2.9310
3.0262 14.3892 2.9310
2.9041 14.4592 2.9310
2.7808 14.5265 2.9310
2.6561 14.5910 2.9310
2.5302 14.6528 2.9310
2.4030 14.7116 2.9310
2.2747 14.7676 2.9310
2.1454 14.8206 2.9310
2.0150 14.8705 2.9310
1.8836 14.9174 2.9310
1.7512 14.9613 2.9310
1.6181 15.0020 2.9310
1.4841 15.0395 2.9310
1.3495 15.0738 2.9310
1.2141 15.1049 2.9310
1.0781 15.1327 2.9310
0.9416 15.1573 2.9310
0.8047 15.1785 2.9310
0.6673 15.1965 2.9310
0.5296 15.2110 2.9310
0.3916 15.2223 2.9310
0.2534 15.2301 2.9310
0.1151 15.2346 2.9310
-0.0232 15.2357 2.9310
-0.1095 10.3233 1.9863
-0.2998 15.2279 2.9310
-0.4379 15.2189 2.9310
-0.5758 15.2065 2.9310
-0.7134 15.1908 2.9310
-0.8507 15.1718 2.9310
-0.9875 15.1494 2.9310
-1.1238 15.1237 2.9310
-1.2596 15.0948 2.9310
-1.3947 15.0626 2.9310
-1.5292 15.0272 2.9310
-1.6629 14.9886 2.9310
-1.7958 14.9469 2.9310
-1.9278 14.9020 2.9310
-2.0589 14.8541 2.9310
-2.1889 14.8031 2.9310
-2.3179 14.7491 2.9310
-2.4458 14.6922 2.9310
-2.5726 14.6323 2.9310
-2.6981 14.5697 2.9310
-2.8224 14.5042 2.9310
-2.9453 14.4360 2.9310
-3.0668 14.3650 2.9310
-3.1870 14.2915 2.9310
-3.3057 14.2154 2.9310
-3.4228 14.1367 2.9310
-3.5385 14.0557 2.9310
-3.6526 13.9722 2.9310
-3.7650 13.8864 2.9310
-3.8758 13.7983 2.9310
-3.9849 13.7081 2.9310
-4.0923 13.6157 2.9310
-4.1979 13.5213 2.9310
-4.3018 13.4248 2.9310
-4.4039 13.3265 2.9310
-4.5042 13.2262 2.9310
-4.6026 13.1242 2.9310
-4.6991 13.0205 2.9310
-4.7938 12.9151 2.9310
-4.8866 12.8082 2.9310
-4.9775 12.6997 2.9310
-5.0665 12.5898 2.9310
-5.1535 12.4785 2.9310
-5.2386 12.3658 2.9310
-5.3217 12.2520 2.9310
-5.4029 12.1370 2.9310
-5.4822 12.0208 2.9310
-5.5595 11.9036 2.9310
-5.6348 11.7855 2.9310
-5.7082 11.6664 2.9310
-5.7796 11.5464 2.9310
-5.5450 10.8316 2.7786
-5.6090 10.7165 2.7786
-5.6712 10.6007 2.7786
-5.7316 10.4843 2.7786
-5.7901 10.3674 2.7786
-5.8468 10.2501 2.7786
-5.9549 10.0141 2.7786
-5.9018 10.1323 2.7786
-6.1499 9.5388 2.7786
-6.0063 9.8956 2.7786
-6.1943 9.4195 2.7786
-6.0559 9.7769 2.7786
-6.2370 9.3002 2.7786
-6.1037 9.6579 2.7786
-6.2780 9.1808 2.7786
-6.4585 8.5847 2.7786
-6.3174 9.0614 2.7786
-6.4898 8.4659 2.7786
-6.3551 8.9421 2.7786
-6.5196 8.3474 2.7786
-6.3911 8.8228 2.7786
-6.5478 8.2291 2.7786
-6.5746 8.1111 2.7786
-6.4256 8.7037 2.7786
-6.5998 7.9934 2.7786
-6.6669 7.6427 2.7786
-6.6236 7.8761 2.7786
-6.6460 7.7592 2.7786
-6.6864 7.5266 2.7786
-6.7369 7.1813 2.7786
-6.7046 7.4110 2.7786
-6.7511 7.0672 2.7786
-6.7639 6.9537 2.7786
-6.7215 7.2958 2.7786
-6.8070 6.8724 2.7915
-6.8976 6.8391 2.8243
-7.1890 6.6296 2.9308
-6.9891 6.8054 2.8579
-7.1931 6.5139 2.9305
-7.1961 6.3991 2.9303
-7.0812 6.7714 2.8922
-7.1980 6.2849 2.9300
-7.1741 6.7371 2.9272
-7.1988 6.1716 2.9298
-7.1984 6.0591 2.9295
-7.1970 5.9473 2.9293
-7.1946 5.8364 2.9290
-7.1911 5.7263 2.9288
-7.1866 5.6171 2.9285
-7.1812 5.5086 2.9283
-7.1747 5.4011 2.9280
-7.1674 5.2943 2.9278
-7.1591 5.1885 2.9275
-7.1500 5.0835 2.9273
3.1456 10.4082 2.7786
3.0629 10.4713 2.7786
2.9790 10.5328 2.7786
2.8940 10.5928 2.7786
2.8080 10.6512 2.7786
2.7208 10.7080 2.7786
2.6327 10.7632 2.7786
2.5436 10.8167 2.7786
2.4534 10.8684 2.7786
2.3624 10.9184 2.7786
2.2704 10.9667 2.7786
2.1776 11.0131 2.7786
2.0838 11.0576 2.7786
1.9893 11.1003 2.7786
1.8940 11.1411 2.7786
1.7979 11.1799 2.7786
1.7011 11.2168 2.7786
1.3075 11.3443 2.7786
1.6037 11.2517 2.7786
0.9053 11.4385 2.7786
1.2077 11.3710 2.7786
1.5055 11.2846 2.7786
0.8037 11.4567 2.7786
0.4972 11.4984 2.7786
1.4068 11.3155 2.7786
1.1073 11.3956 2.7786
0.7018 11.4728 2.7786
0.3945 11.5079 2.7786
0.0858 11.5234 2.7786
1.0065 11.4181 2.7786
0.2917 11.5153 2.7786
0.5996 11.4867 2.7786
-0.0173 11.5241 2.7786
0.1888 11.5204 2.7786
-0.3262 11.5131 2.7786
-0.7361 11.4676 2.7786
-1.1410 11.3875 2.7786
-0.1078 10.3221 2.4891
-0.4290 11.5050 2.7786
-0.8379 11.4508 2.7786
-1.2412 11.3622 2.7786
-1.3409 11.3348 2.7786
-0.2233 11.5189 2.7786
-0.5316 11.4947 2.7786
-0.9393 11.4319 2.7786
-1.4400 11.3053 2.7786
-1.5385 11.2738 2.7786
-0.6340 11.4823 2.7786
-1.0404 11.4108 2.7786
-1.9261 11.1276 2.7786
-1.6364 11.2402 2.7786
-2.3014 10.9507 2.7786
-2.0211 11.0862 2.7786
-2.6624 10.7448 2.7786
-3.0073 10.5123 2.7786
-2.1154 11.0429 2.7786
-1.7337 11.2047 2.7786
-2.3931 10.9018 2.7786
-2.7502 10.6891 2.7786
-3.0908 10.4503 2.7786
-2.2088 10.9977 2.7786
-1.8302 11.1671 2.7786
-2.4838 10.8512 2.7786
-3.3345 10.2554 2.7786
-2.8370 10.6318 2.7786
-3.1732 10.3867 2.7786
-3.6427 9.9765 2.7786
-2.5736 10.7989 2.7786
-3.4133 10.1876 2.7786
-3.2544 10.3217 2.7786
-2.9227 10.5728 2.7786
-3.7166 9.9037 2.7786
-3.9309 9.6783 2.7786
-3.4910 10.1185 2.7786
-4.1983 9.3633 2.7786
-3.5675 10.0481 2.7786
-4.4445 9.0342 2.7786
-3.7893 9.8297 2.7786
-3.9997 9.6010 2.7786
-4.6693 8.6933 2.7786
-4.2619 9.2823 2.7786
-4.5028 8.9499 2.7786
-3.8607 9.7545 2.7786
-4.0672 9.5228 2.7786
-4.7222 8.6065 2.7786
-4.3241 9.2004 2.7786
-4.5596 8.8650 2.7786
-4.7737 8.5193 2.7786
-4.8727 8.3432 2.7786
-4.1335 9.4435 2.7786
-4.3850 9.1177 2.7786
-4.8238 8.4315 2.7786
-4.6152 8.7795 2.7786
-4.9201 8.2545 2.7786
-5.0547 7.9861 2.7786
-5.3884 7.3031 2.7952
-5.2157 7.6243 2.7786
-4.9663 8.1654 2.7786
-5.0969 7.8960 2.7786
-5.7103 7.1875 2.8969
-5.4683 7.2745 2.8198
-5.2528 7.5333 2.7786
-5.0111 8.0759 2.7786
-5.1378 7.8057 2.7786
-5.5485 7.2458 2.8449
-5.2885 7.4422 2.7786
-5.8839 6.8862 2.9305
-5.6292 7.2168 2.8706
-5.3230 7.3510 2.7786
-5.9073 6.7899 2.9303
-5.9704 6.5021 2.9297
-5.7918 7.1580 2.9237
-5.1774 7.7151 2.7786
-5.9891 6.4066 2.9295
-6.0385 6.1219 2.9289
-5.9295 6.6937 2.9301
-6.0067 6.3114 2.9293
-5.8335 7.0793 2.9309
-6.0893 5.7470 2.9280
-6.0528 6.0277 2.9287
-5.9505 6.5978 2.9299
-6.0232 6.2165 2.9291
-5.8593 6.9827 2.9307
-6.0994 5.6542 2.9278
-6.0660 5.9338 2.9285
-6.1237 5.3783 2.9272
-6.1085 5.5618 2.9276
-6.0782 5.8402 2.9282
-6.1299 5.2873 2.9270
-6.1166 5.4699 2.9274
-6.1351 5.1967 2.9268
-6.1394 5.1065 2.9266
-6.1428 5.0169 2.9264
-6.1452 4.9277 2.9262
-6.1468 4.8390 2.9260
-6.1476 4.7509 2.9258
-6.1475 4.6633 2.9256
-6.1465 4.5762 2.9254
-6.1447 4.4897 2.9252
