ply
format ascii 1.0
element vertex 2166
property float32 x
property float32 y
property float32 z
end_header
7.6858 -14.3709 2.0555
6.9057 -14.2524 2.0808
7.8849 -14.3962 2.0476
7.0970 -14.2819 2.0750
7.2913 -14.3126 2.0690
8.0872 -14.4227 2.0396
8.3689 -13.9332 1.9340
8.0839 -14.0863 1.9801
8.5801 -13.9683 1.9261
8.1620 -13.9001 1.9419
8.7939 -14.0026 1.9175
9.6911 -14.1515 1.8805
9.0115 -14.0376 1.9087
9.2334 -14.0740 1.8996
9.8917 -14.1420 1.8638
9.4599 -14.1120 1.8902
9.7956 -13.7133 1.7920
9.4474 -12.1774 1.5329
9.7025 -13.3026 1.7231
9.3695 -11.8338 1.4744
9.6136 -12.9106 1.6570
9.2948 -11.5044 1.4182
9.5287 -12.5359 1.5937
9.2231 -11.1881 1.3640
9.0303 -10.3174 1.2133
9.1600 -10.8911 1.3125
8.9690 -10.0461 1.1661
9.0939 -10.5988 1.2621
8.9098 -9.7844 1.1204
8.6926 -8.8235 0.9510
8.8527 -9.5318 1.0761
8.6426 -8.6023 0.9116
8.7976 -9.2878 1.0332
8.5941 -8.3881 0.8733
8.7442 -9.0518 0.9915
8.5472 -8.1803 0.8360
8.4202 -7.5981 0.7301
8.5082 -7.9849 0.8002
8.3780 -7.4127 0.6962
8.4635 -7.7887 0.7647
8.3370 -7.2325 0.6632
8.1834 -6.5577 0.5380
8.2970 -7.0571 0.6309
8.1474 -6.3995 0.5084
8.2582 -6.8863 0.5993
8.1122 -6.2452 0.4793
8.2203 -6.7199 0.5683
8.0779 -6.0945 0.4508
7.9797 -5.6630 0.3683
8.0445 -5.9474 0.4228
7.9484 -5.5255 0.3417
8.0117 -5.8036 0.3953
7.9178 -5.3910 0.3157
7.7803 -4.8668 0.2148
7.8878 -5.2593 0.2900
7.7405 -4.7383 0.1904
7.8601 -5.1313 0.2648
7.6938 -4.6079 0.1663
7.8197 -4.9976 0.2395
7.6482 -4.4806 0.1426
7.5287 -4.1220 0.0743
7.6036 -4.3562 0.1194
7.5033 -4.0143 0.0523
7.5601 -4.2347 0.0966
7.4783 -3.9085 0.0306
7.3979 -3.5100 -0.0538
7.4043 -3.4259 -0.0747
7.4105 -3.3424 -0.0955
7.4168 -3.2596 -0.1162
7.4537 -3.8045 0.0092
7.4230 -3.1773 -0.1369
7.4291 -3.0956 -0.1576
7.4296 -3.7022 -0.0120
7.4352 -3.0145 -0.1783
7.4058 -3.6016 -0.0330
7.4413 -2.9339 -0.1989
7.5690 -2.5710 -0.3058
7.4473 -2.8537 -0.2195
7.6020 -2.5009 -0.3278
7.4702 -2.7803 -0.2407
7.6351 -2.4307 -0.3500
7.5031 -2.7107 -0.2622
7.6683 -2.3603 -0.3723
7.5360 -2.6409 -0.2839
7.7016 -2.2898 -0.3948
7.7702 -2.1485 -0.4404
7.7350 -2.2190 -0.4174
7.8205 -2.0817 -0.4644
8.0782 -1.7396 -0.5891
7.8712 -2.0144 -0.4887
8.1311 -1.6694 -0.6150
7.9223 -1.9465 -0.5133
8.1845 -1.5985 -0.6413
7.9738 -1.8781 -0.5383
8.2402 -1.5273 -0.6681
8.0258 -1.8091 -0.5635
8.3097 -1.4577 -0.6964
8.4516 -1.3157 -0.7544
8.3802 -1.3872 -0.7251
8.5241 -1.2431 -0.7843
8.9381 -0.8672 -0.9458
8.5976 -1.1696 -0.8146
9.0408 -0.7894 -0.9818
8.6723 -1.0949 -0.8456
9.1457 -0.7099 -1.0188
8.7480 -1.0190 -0.8771
8.8376 -0.9434 -0.9106
9.7499 -0.3798 -1.1962
9.9518 -0.2916 -1.2493
10.3558 -0.2036 -1.3297
11.0403 -0.1105 -1.4494
11.6894 -0.0042 -1.5684
12.2108 0.1135 -1.6739
12.7812 0.2423 -1.7894
13.4081 0.3838 -1.9166
14.1490 0.5420 -2.0643
14.9282 0.7164 -2.2223
15.7994 0.9115 -2.3993
16.7501 1.1292 -2.5941
17.8520 1.3773 -2.8188
19.1118 1.6609 -3.0759
20.5828 1.9899 -3.3758
22.2941 2.3739 -3.7253
24.3311 2.8299 -4.1414
26.6821 3.3662 -4.6252
29.7525 4.0477 -5.2514
33.4030 4.8755 -6.0020
9.2529 -0.6287 -1.0567
9.3695 -0.5460 -1.0964
9.5560 -0.4646 -1.1452
3.6057 -11.4589 2.3438
3.7387 -11.4722 2.3433
3.8729 -11.4859 2.3428
4.0084 -11.5002 2.3422
4.1454 -11.5149 2.3416
4.2837 -11.5302 2.3410
4.4236 -11.5460 2.3403
4.5650 -11.5623 2.3396
4.7080 -11.5792 2.3389
4.8528 -11.5966 2.3381
4.9993 -11.6146 2.3372
5.1476 -11.6332 2.3364
5.2979 -11.6524 2.3354
5.4502 -11.6722 2.3345
5.6045 -11.6927 2.3335
5.7610 -11.7138 2.3324
5.9198 -11.7356 2.3314
6.0809 -11.7581 2.3302
6.2444 -11.7813 2.3290
6.4105 -11.8053 2.3278
6.5487 -11.7750 2.3157
6.7442 -11.8439 2.3229
6.9134 -11.8618 2.3198
7.0854 -11.8803 2.3167
7.2562 -11.8932 2.3123
7.4290 -11.9054 2.3075
7.5623 -11.8522 2.2898
7.5039 -11.5043 2.2153
7.6240 -11.4360 2.1947
7.8011 -11.4512 2.1899
7.9815 -11.4674 2.1850
8.1652 -11.4842 2.1800
8.3522 -11.5017 2.1749
8.5427 -11.5200 2.1697
8.7369 -11.5389 2.1643
8.9349 -11.5586 2.1588
9.1368 -11.5791 2.1531
9.3073 -11.5562 2.1391
9.2343 -11.2345 2.0698
9.1677 -10.9297 2.0039
9.1006 -10.6329 1.9397
9.0361 -10.3473 1.8778
8.9739 -10.0722 1.8181
8.9140 -9.8070 1.7604
8.8561 -9.5510 1.7047
8.8003 -9.3039 1.6507
8.7463 -9.0651 1.5984
8.6941 -8.8341 1.5478
8.6435 -8.6105 1.4987
8.5946 -8.3939 1.4510
8.5472 -8.1840 1.4047
8.5076 -7.9864 1.3606
8.4625 -7.7883 1.3167
8.4187 -7.5959 1.2740
8.3762 -7.4090 1.2324
8.3348 -7.2272 1.1918
8.2946 -7.0504 1.1523
8.2554 -6.8782 1.1137
8.2173 -6.7106 1.0761
8.1801 -6.5472 1.0393
8.1438 -6.3880 1.0033
8.1085 -6.2326 0.9681
8.0740 -6.0810 0.9337
8.0403 -5.9329 0.9000
8.0074 -5.7883 0.8671
7.9752 -5.6469 0.8347
7.9438 -5.5087 0.8030
7.9130 -5.3734 0.7720
7.8829 -5.2411 0.7414
7.8543 -5.1121 0.7116
7.8138 -4.9777 0.6812
7.7742 -4.8465 0.6514
7.7327 -4.7165 0.6219
7.6859 -4.5857 0.5926
7.6401 -4.4580 0.5639
7.5954 -4.3333 0.5358
7.5518 -4.2115 0.5083
7.5236 -4.1003 0.4822
7.4981 -3.9923 0.4567
7.4730 -3.8862 0.4315
7.4484 -3.7818 0.4068
7.4241 -3.6793 0.3823
7.4003 -3.5784 0.3582
7.3995 -3.4898 0.3354
7.4058 -3.4054 0.3131
7.4121 -3.3216 0.2909
7.4184 -3.2384 0.2688
7.4246 -3.1559 0.2468
7.4307 -3.0739 0.2248
7.4369 -2.9924 0.2030
7.4430 -2.9115 0.1812
7.4490 -2.8311 0.1595
7.4797 -2.7602 0.1383
7.5127 -2.6902 0.1170
7.5458 -2.6200 0.0957
7.5790 -2.5498 0.0742
7.6122 -2.4793 0.0526
7.6455 -2.4088 0.0310
7.6788 -2.3380 0.0092
7.7123 -2.2671 -0.0128
7.7458 -2.1960 -0.0348
7.7867 -2.1266 -0.0571
7.8373 -2.0594 -0.0796
7.8883 -1.9917 -0.1024
7.9397 -1.9234 -0.1254
7.9916 -1.8546 -0.1487
8.0438 -1.7852 -0.1722
8.0966 -1.7152 -0.1960
8.1498 -1.6445 -0.2201
8.5509 -1.2163 -0.3743
8.2035 -1.5733 -0.2445
8.2649 -1.5026 -0.2695
8.6250 -1.1422 -0.4017
8.3349 -1.4325 -0.2950
8.7001 -1.0670 -0.4295
8.4059 -1.3615 -0.3210
8.4779 -1.2894 -0.3475
8.7765 -0.9906 -0.4579
9.0799 -0.7598 -0.5501
8.8749 -0.9152 -0.4878
9.1858 -0.6795 -0.5823
8.9763 -0.8383 -0.5186
9.2940 -0.5975 -0.6154
10.0690 -0.2581 -0.7808
9.4393 -0.5155 -0.6517
10.5403 -0.1685 -0.8474
9.6287 -0.4328 -0.6920
9.8256 -0.3467 -0.7340
11.3610 -0.0719 -0.9459
13.6657 0.4415 -1.2954
11.8847 0.0395 -1.0236
14.4320 0.6059 -1.4100
12.4241 0.1612 -1.1058
15.2434 0.7876 -1.5338
16.1527 0.9913 -1.6727
13.0151 0.2946 -1.1960
17.1464 1.2188 -1.8261
19.6283 1.7776 -2.2070
18.3024 1.4791 -2.0034
21.1837 2.1255 -2.4452
34.9352 5.2257 -4.5637
23.0232 2.5356 -2.7268
40.1769 6.4092 -5.3729
25.1425 3.0159 -3.0538
27.7026 3.5957 -3.4489
30.9791 4.3270 -3.9516
42.5116 21.1852 -10.3770
42.1545 21.5327 -10.4678
3.1012 -9.7169 2.4859
3.2137 -9.7220 2.4860
3.3270 -9.7272 2.4861
3.4412 -9.7325 2.4862
3.5564 -9.7380 2.4862
3.6726 -9.7437 2.4863
3.7898 -9.7495 2.4863
3.9080 -9.7555 2.4864
4.0274 -9.7617 2.4864
4.1479 -9.7681 2.4864
4.2696 -9.7746 2.4864
4.3925 -9.7813 2.4864
4.5168 -9.7882 2.4864
4.6424 -9.7953 2.4864
4.7694 -9.8026 2.4864
4.8978 -9.8101 2.4863
5.0277 -9.8178 2.4863
5.1592 -9.8257 2.4862
5.2923 -9.8338 2.4861
5.4271 -9.8422 2.4861
5.5636 -9.8508 2.4860
5.7028 -9.8610 2.4862
5.8453 -9.8739 2.4870
5.9898 -9.8871 2.4879
6.1101 -9.8579 2.4780
6.2856 -9.9145 2.4896
6.4369 -9.9287 2.4904
6.5907 -9.9432 2.4913
6.7423 -9.9513 2.4904
6.8908 -9.9517 2.4876
7.0414 -9.9522 2.4847
7.1083 -9.8342 2.4521
7.0652 -9.5692 2.3829
7.1687 -9.5067 2.3642
7.3227 -9.5095 2.3616
7.4794 -9.5129 2.3591
7.6388 -9.5165 2.3565
7.8010 -9.5203 2.3539
7.9659 -9.5243 2.3513
8.1337 -9.5285 2.3485
8.3046 -9.5329 2.3457
8.4787 -9.5376 2.3429
8.6551 -9.5414 2.3397
8.8348 -9.5453 2.3364
8.8035 -9.3222 2.2776
8.7488 -9.0804 2.2142
8.6960 -8.8466 2.1529
8.6449 -8.6204 2.0936
8.5954 -8.4015 2.0361
8.5475 -8.1893 1.9804
8.5072 -7.9895 1.9277
8.4617 -7.7894 1.8750
8.4176 -7.5952 1.8239
8.3747 -7.4066 1.7741
8.3329 -7.2232 1.7258
8.2924 -7.0449 1.6787
8.2529 -6.8714 1.6328
8.2145 -6.7025 1.5882
8.1771 -6.5379 1.5446
8.1406 -6.3775 1.5021
8.1050 -6.2211 1.4606
8.0703 -6.0685 1.4201
8.0364 -5.9195 1.3805
8.0033 -5.7740 1.3418
7.9709 -5.6318 1.3039
7.9393 -5.4928 1.2669
7.9084 -5.3569 1.2306
7.8815 -5.2261 1.1956
7.8487 -5.0938 1.1604
7.8081 -4.9589 1.1246
7.7684 -4.8271 1.0896
7.7253 -4.6957 1.0548
7.6783 -4.5645 1.0201
7.6324 -4.4364 0.9862
7.5876 -4.3113 0.9530
7.5447 -4.1897 0.9208
7.5186 -4.0793 0.8911
7.4930 -3.9710 0.8619
7.4679 -3.8646 0.8332
7.4432 -3.7599 0.8049
7.4189 -3.6571 0.7771
7.3950 -3.5560 0.7497
7.4009 -3.4703 0.7256
7.4073 -3.3855 0.7018
7.4136 -3.3014 0.6781
7.4199 -3.2179 0.6545
7.4261 -3.1350 0.6311
7.4323 -3.0527 0.6078
7.4385 -2.9709 0.5846
7.4446 -2.8897 0.5616
7.4557 -2.8110 0.5390
7.4889 -2.7406 0.5181
7.5221 -2.6702 0.4971
7.5554 -2.5997 0.4760
7.5887 -2.5291 0.4549
7.6221 -2.4583 0.4337
7.6556 -2.3874 0.4124
7.6891 -2.3163 0.3911
7.7227 -2.2450 0.3697
7.7564 -2.1735 0.3481
7.8027 -2.1052 0.3270
7.8537 -2.0376 0.3060
7.9050 -1.9695 0.2847
7.9567 -1.9008 0.2632
8.0089 -1.8316 0.2415
8.0615 -1.7617 0.2196
8.1145 -1.6913 0.1975
8.1681 -1.6203 0.1751
8.2221 -1.5486 0.1526
8.2890 -1.4784 0.1299
8.3596 -1.4078 0.1070
8.4311 -1.3362 0.0838
8.5036 -1.2637 0.0601
8.5771 -1.1901 0.0362
8.6517 -1.1154 0.0118
8.7275 -1.0396 -0.0130
8.8112 -0.9635 -0.0382
8.9114 -0.8875 -0.0639
9.0138 -0.8099 -0.0903
9.1183 -0.7307 -0.1172
9.2252 -0.6497 -0.1448
9.3344 -0.5669 -0.1730
9.5081 -0.4855 -0.2032
9.7004 -0.4015 -0.2349
9.9004 -0.3141 -0.2679
10.2382 -0.2259 -0.3061
10.8046 -0.1341 -0.3538
11.5703 -0.0319 -0.4119
12.0808 0.0833 -0.4645
12.6386 0.2091 -0.5221
13.2506 0.3473 -0.5853
13.9609 0.5008 -0.6567
14.7177 0.6704 -0.7346
15.5622 0.8595 -0.8216
16.5108 1.0720 -0.9194
17.5490 1.3099 -1.0281
18.7613 1.5829 -1.1536
20.1665 1.8979 -1.2988
21.8002 2.2646 -1.4677
23.7260 2.6969 -1.6670
25.9685 3.2066 -1.9010
28.8225 3.8426 -2.1952
32.2431 4.6168 -2.5515
36.6276 5.6072 -3.0077
42.2882 6.8937 -3.5993
42.5805 19.7801 -7.5686
42.7485 20.3724 -7.7590
42.9537 20.9923 -7.9595
42.1350 21.1096 -7.9697
42.1098 21.6196 -8.1287
2.7217 -8.4063 2.5928
2.8191 -8.4065 2.5933
2.9172 -8.4067 2.5937
3.0159 -8.4069 2.5941
3.1152 -8.4070 2.5946
3.2153 -8.4071 2.5950
3.3161 -8.4072 2.5955
3.4177 -8.4072 2.5959
3.5201 -8.4073 2.5964
3.6233 -8.4072 2.5968
3.7273 -8.4072 2.5973
3.8322 -8.4071 2.5978
3.9381 -8.4070 2.5983
4.0448 -8.4069 2.5988
4.1526 -8.4067 2.5993
4.2614 -8.4065 2.5998
4.3713 -8.4065 2.6004
4.4837 -8.4089 2.6017
4.5973 -8.4114 2.6031
4.7121 -8.4139 2.6045
4.8283 -8.4163 2.6060
4.9457 -8.4188 2.6074
5.0637 -8.4197 2.6084
5.1819 -8.4188 2.6088
5.3015 -8.4178 2.6093
5.4225 -8.4167 2.6097
5.5449 -8.4156 2.6102
5.6689 -8.4145 2.6106
5.7715 -8.3800 2.6008
5.9216 -8.4121 2.6116
6.0504 -8.4108 2.6121
6.1808 -8.4092 2.6125
6.3111 -8.4050 2.6121
6.4408 -8.3977 2.6108
6.5718 -8.3898 2.6094
6.7046 -8.3819 2.6079
6.7529 -8.2682 2.5736
6.7204 -8.0595 2.5096
6.7812 -7.9662 2.4816
6.9152 -7.9583 2.4803
7.0517 -7.9509 2.4791
7.1903 -7.9434 2.4779
7.3311 -7.9357 2.4767
7.4740 -7.9278 2.4754
7.6193 -7.9198 2.4742
7.7670 -7.9116 2.4729
7.9171 -7.9032 2.4716
8.0698 -7.8947 2.4703
8.2252 -7.8859 2.4690
8.3834 -7.8770 2.4676
8.4611 -7.7912 2.4422
8.4165 -7.5951 2.3822
8.3733 -7.4048 2.3240
8.3312 -7.2198 2.2675
8.2903 -7.0400 2.2125
8.2505 -6.8651 2.1591
8.2118 -6.6949 2.1070
8.1741 -6.5291 2.0564
8.1374 -6.3675 2.0071
8.1016 -6.2100 1.9590
8.0666 -6.0564 1.9121
8.0325 -5.9064 1.8663
7.9993 -5.7600 1.8217
7.9667 -5.6170 1.7781
7.9350 -5.4773 1.7355
7.9039 -5.3406 1.6938
7.8852 -5.2147 1.6555
7.8433 -5.0758 1.6131
7.8025 -4.9403 1.5718
7.7626 -4.8080 1.5314
7.7180 -4.6753 1.4909
7.6708 -4.5436 1.4506
7.6247 -4.4151 1.4114
7.5798 -4.2896 1.3730
7.5399 -4.1693 1.3364
7.5137 -4.0586 1.3027
7.4881 -3.9499 1.2697
7.4629 -3.8432 1.2372
7.4381 -3.7383 1.2054
7.4137 -3.6351 1.1741
7.3959 -3.5367 1.1443
7.4024 -3.4509 1.1185
7.4088 -3.3657 1.0930
7.4151 -3.2813 1.0677
7.4214 -3.1975 1.0426
7.4277 -3.1143 1.0177
7.4339 -3.0317 0.9929
7.4401 -2.9496 0.9684
7.4462 -2.8681 0.9440
7.4648 -2.7918 0.9213
7.4981 -2.7211 0.9005
7.5315 -2.6504 0.8797
7.5649 -2.5795 0.8589
7.5984 -2.5085 0.8380
7.6320 -2.4374 0.8171
7.6656 -2.3661 0.7962
7.6993 -2.2946 0.7752
7.7331 -2.2230 0.7542
7.7679 -2.1515 0.7332
7.8188 -2.0840 0.7136
7.8700 -2.0159 0.6939
7.9216 -1.9474 0.6741
7.9737 -1.8783 0.6541
8.0262 -1.8087 0.6339
8.0791 -1.7384 0.6136
8.1324 -1.6676 0.5932
8.1863 -1.5961 0.5725
8.2431 -1.5244 0.5518
8.3131 -1.4543 0.5318
8.3842 -1.3832 0.5115
8.4562 -1.3111 0.4910
8.5292 -1.2380 0.4701
8.6033 -1.1639 0.4490
8.6784 -1.0887 0.4276
8.7547 -1.0124 0.4058
8.8467 -0.9365 0.3844
8.9479 -0.8598 0.3629
9.0512 -0.7816 0.3410
9.1566 -0.7016 0.3186
9.2644 -0.6200 0.2957
9.3895 -0.5373 0.2727
9.5772 -0.4553 0.2507
9.7723 -0.3700 0.2279
9.9754 -0.2813 0.2041
10.4111 -0.1930 0.1833
11.1537 -0.0991 0.1646
11.7537 0.0090 0.1399
12.2809 0.1280 0.1112
12.8577 0.2581 0.0798
13.4916 0.4011 0.0453
14.2245 0.5604 0.0073
15.0108 0.7366 -0.0351
15.8900 0.9335 -0.0824
16.8525 1.1534 -0.1355
17.9648 1.4039 -0.1958
19.2365 1.6903 -0.2646
20.7169 2.0222 -0.3443
22.4436 2.4098 -0.4374
24.4612 2.8657 -0.5469
26.8895 3.4138 -0.6786
29.9176 4.0923 -0.8414
33.6364 4.9326 -1.0432
38.4938 6.0256 -1.3055
44.8932 7.4727 -1.6531
42.9356 19.0478 -5.0488
43.0761 19.6166 -5.2121
43.1423 20.1587 -5.3684
42.5567 20.3951 -5.4433
42.3291 20.7984 -5.5625
42.4188 21.3613 -5.7244
41.7320 21.5312 -5.7809
42.4695 22.4423 -6.0365
33.6801 18.2232 -4.9102
26.2656 15.5777 -4.2237
2.4246 -7.3806 2.6765
2.5105 -7.3778 2.6771
2.5969 -7.3750 2.6778
2.6837 -7.3719 2.6784
2.7711 -7.3688 2.6791
2.8590 -7.3655 2.6797
2.9474 -7.3621 2.6804
3.0364 -7.3585 2.6811
3.1259 -7.3548 2.6818
3.2161 -7.3510 2.6825
3.3069 -7.3470 2.6833
3.3983 -7.3428 2.6840
3.4912 -7.3402 2.6854
3.5850 -7.3378 2.6870
3.6796 -7.3353 2.6885
3.7750 -7.3326 2.6901
3.8706 -7.3288 2.6914
3.9663 -7.3233 2.6921
4.0628 -7.3176 2.6928
4.1601 -7.3118 2.6936
4.2582 -7.3058 2.6944
4.3573 -7.2996 2.6951
4.4572 -7.2932 2.6959
4.5580 -7.2864 2.6967
4.6586 -7.2777 2.6968
4.7601 -7.2687 2.6969
4.8625 -7.2595 2.6970
4.9660 -7.2501 2.6971
5.0705 -7.2404 2.6973
5.1760 -7.2306 2.6974
5.2826 -7.2204 2.6976
5.3904 -7.2101 2.6978
5.4795 -7.1736 2.6883
5.5893 -7.1627 2.6885
5.7208 -7.1774 2.6984
5.8334 -7.1659 2.6986
5.9474 -7.1542 2.6988
6.0622 -7.1417 2.6989
6.1766 -7.1268 2.6981
6.2924 -7.1115 2.6974
6.4095 -7.0960 2.6967
6.4661 -7.0128 2.6704
6.4408 -6.8435 2.6112
6.4471 -6.7113 2.5661
6.5646 -6.6954 2.5655
6.6842 -6.6797 2.5651
6.8055 -6.6637 2.5648
6.9286 -6.6473 2.5645
7.0534 -6.6306 2.5641
7.1801 -6.6134 2.5638
7.3085 -6.5959 2.5635
7.4390 -6.5779 2.5632
7.5714 -6.5595 2.5629
7.7059 -6.5406 2.5626
7.8426 -6.5213 2.5623
7.9815 -6.5015 2.5620
8.1226 -6.4811 2.5617
8.1341 -6.3571 2.5206
8.0980 -6.1985 2.4656
8.0629 -6.0439 2.4120
8.0286 -5.8930 2.3598
7.9951 -5.7457 2.3089
7.9624 -5.6019 2.2593
7.9305 -5.4613 2.2109
7.8992 -5.3240 2.1636
7.8798 -5.1970 2.1204
7.8378 -5.0575 2.0720
7.7968 -4.9214 2.0248
7.7567 -4.7885 1.9788
7.7105 -4.6544 1.9322
7.6631 -4.5223 1.8862
7.6170 -4.3934 1.8413
7.5719 -4.2676 1.7977
7.5350 -4.1487 1.7567
7.5088 -4.0376 1.7189
7.4830 -3.9285 1.6819
7.4577 -3.8215 1.6456
7.4329 -3.7163 1.6100
7.4085 -3.6129 1.5751
7.3974 -3.5174 1.5435
7.4039 -3.4312 1.5159
7.4103 -3.3457 1.4886
7.4167 -3.2609 1.4616
7.4230 -3.1768 1.4348
7.4293 -3.0932 1.4082
7.4355 -3.0103 1.3820
7.4417 -2.9280 1.3559
7.4479 -2.8462 1.3301
7.4739 -2.7724 1.3080
7.5074 -2.7013 1.2873
7.5410 -2.6302 1.2665
7.5746 -2.5590 1.2458
7.6083 -2.4876 1.2251
7.6420 -2.4161 1.2045
7.6758 -2.3445 1.1838
7.7097 -2.2727 1.1631
7.7436 -2.2007 1.1425
7.7839 -2.1303 1.1227
7.8350 -2.0624 1.1044
7.8866 -1.9939 1.0861
7.9385 -1.9250 1.0676
7.9909 -1.8555 1.0490
8.0437 -1.7854 1.0304
8.0969 -1.7148 1.0116
8.1506 -1.6435 0.9927
8.2047 -1.5716 0.9737
8.2670 -1.5005 0.9555
8.3376 -1.4298 0.9380
8.4091 -1.3582 0.9203
8.4816 -1.2856 0.9024
8.5552 -1.2120 0.8843
8.6298 -1.1374 0.8660
8.7054 -1.0617 0.8475
8.7828 -0.9849 0.8288
8.8828 -0.9092 0.8119
8.9849 -0.8318 0.7947
9.0891 -0.7529 0.7771
9.1955 -0.6722 0.7593
9.3042 -0.5898 0.7411
9.4571 -0.5077 0.7257
9.6476 -0.4245 0.7123
9.8457 -0.3380 0.6985
10.1146 -0.2494 0.6884
10.5908 -0.1589 0.6904
11.4368 -0.0611 0.7127
11.9439 0.0515 0.7102
12.4886 0.1743 0.7069
13.0854 0.3090 0.7035
13.7424 0.4572 0.6997
12.7058 0.5455 0.6109
13.7855 0.7251 0.6237
12.6551 0.7881 0.5368
12.6574 0.9109 0.5011
12.6322 1.0316 0.4644
12.5797 1.1496 0.4270
15.8896 1.6067 0.4945
15.8580 1.7582 0.4487
25.2451 3.0456 0.6431
27.8798 3.6366 0.6316
31.1013 4.3622 0.6168
12.2210 1.8345 0.2079
12.2001 1.9518 0.1730
15.0625 2.5590 0.1710
43.1296 19.2547 -2.8145
43.1450 19.7670 -2.9515
42.2090 19.8372 -3.0216
42.7210 20.5879 -3.1950
42.3355 20.9125 -3.3027
42.3143 21.4174 -3.4386
42.3082 21.9350 -3.5768
41.7566 22.1684 -3.6683
26.4474 15.7424 -2.7729
26.4924 16.1224 -2.8704
2.1849 -6.5527 2.7440
2.2616 -6.5481 2.7448
2.3387 -6.5433 2.7455
2.4162 -6.5383 2.7463
2.4941 -6.5331 2.7471
2.5723 -6.5277 2.7479
2.6510 -6.5221 2.7487
2.7305 -6.5172 2.7499
2.8107 -6.5128 2.7515
2.8914 -6.5082 2.7530
2.9722 -6.5025 2.7542
3.0531 -6.4955 2.7550
3.1344 -6.4883 2.7558
3.2162 -6.4809 2.7567
3.2986 -6.4733 2.7575
3.3812 -6.4650 2.7582
3.4639 -6.4554 2.7585
3.5470 -6.4455 2.7587
3.6307 -6.4354 2.7590
3.7150 -6.4250 2.7593
3.7998 -6.4144 2.7596
3.8852 -6.4035 2.7599
3.9712 -6.3923 2.7603
4.0579 -6.3808 2.7606
4.1452 -6.3690 2.7610
4.2332 -6.3570 2.7614
4.3212 -6.3437 2.7614
4.4098 -6.3300 2.7613
4.4992 -6.3160 2.7613
4.5892 -6.3016 2.7613
4.6799 -6.2869 2.7612
4.7714 -6.2719 2.7612
4.8637 -6.2566 2.7612
4.9568 -6.2409 2.7612
5.0507 -6.2248 2.7613
5.1455 -6.2084 2.7613
5.2411 -6.1916 2.7614
5.3204 -6.1545 2.7525
5.4351 -6.1569 2.7615
5.5335 -6.1389 2.7616
5.6329 -6.1206 2.7617
5.7334 -6.1018 2.7618
5.8346 -6.0824 2.7619
5.9365 -6.0621 2.7617
6.0394 -6.0413 2.7615
6.1435 -6.0201 2.7614
6.2275 -5.9781 2.7519
6.2076 -5.8376 2.6971
6.1882 -5.7008 2.6438
6.2566 -5.6464 2.6287
6.3615 -5.6239 2.6286
6.4682 -5.6014 2.6288
6.5763 -5.5784 2.6290
6.6858 -5.5549 2.6293
6.7966 -5.5308 2.6295
6.9089 -5.5062 2.6298
7.0227 -5.4810 2.6300
7.1381 -5.4552 2.6303
7.2551 -5.4288 2.6306
7.3737 -5.4018 2.6310
7.4940 -5.3741 2.6313
7.6161 -5.3458 2.6317
7.7400 -5.3167 2.6321
7.8658 -5.2870 2.6325
7.8742 -5.1781 2.5936
7.8319 -5.0380 2.5389
7.7907 -4.9013 2.4857
7.7505 -4.7679 2.4338
7.7026 -4.6324 2.3806
7.6551 -4.4999 2.3286
7.6088 -4.3706 2.2780
7.5636 -4.2445 2.2287
7.5299 -4.1270 2.1837
7.5036 -4.0156 2.1416
7.4778 -3.9062 2.1005
7.4524 -3.7988 2.0601
7.4275 -3.6933 2.0206
7.4030 -3.5897 1.9818
7.3989 -3.4972 1.9491
7.4054 -3.4107 1.9195
7.4119 -3.3248 1.8903
7.4183 -3.2397 1.8615
7.4246 -3.1553 1.8329
7.4309 -3.0714 1.8047
7.4372 -2.9882 1.7767
7.4434 -2.9056 1.7491
7.4498 -2.8236 1.7217
7.4834 -2.7523 1.7009
7.5171 -2.6808 1.6801
7.5509 -2.6093 1.6594
7.5846 -2.5377 1.6388
7.6185 -2.4660 1.6182
7.6524 -2.3942 1.5977
7.6863 -2.3222 1.5772
7.7203 -2.2500 1.5568
7.7544 -2.1777 1.5364
7.8004 -2.1084 1.5184
7.8518 -2.0401 1.5013
7.9037 -1.9712 1.4842
7.9560 -1.9018 1.4671
8.0086 -1.8319 1.4499
8.0617 -1.7614 1.4327
8.1153 -1.6904 1.4154
8.1693 -1.6187 1.3981
8.2237 -1.5464 1.3807
8.2917 -1.4757 1.3654
8.3628 -1.4046 1.3504
8.4349 -1.3325 1.3353
8.5079 -1.2594 1.3200
8.5819 -1.1853 1.3047
8.6571 -1.1101 1.2892
8.7333 -1.0338 1.2736
8.8192 -0.9574 1.2591
8.9201 -0.8809 1.2463
9.0230 -0.8029 1.2334
9.1282 -0.7232 1.2202
9.2356 -0.6418 1.2070
9.3453 -0.5586 1.1935
9.5273 -0.4771 1.1885
9.7207 -0.3926 1.1840
9.9219 -0.3047 1.1794
10.2878 -0.2165 1.1929
10.9042 -0.1241 1.2327
11.6287 -0.0201 1.2810
12.1444 0.0962 1.3028
12.7079 0.2233 1.3268
13.3263 0.3628 1.3533
12.7217 0.4692 1.2557
14.7908 0.6883 1.4180
12.6927 0.7133 1.1809
12.6896 0.8359 1.1449
12.6643 0.9569 1.1070
12.6391 1.0775 1.0694
12.6140 1.1979 1.0320
12.5890 1.3179 0.9948
12.5640 1.4377 0.9578
12.5390 1.5573 0.9211
12.5105 1.6762 0.8843
12.4461 1.7897 0.8453
36.8884 5.6673 2.4033
42.7567 6.9907 2.6675
47.8158 8.2912 2.8510
43.3390 19.9778 -0.6949
42.5917 20.1351 -0.8076
42.5840 20.6379 -0.9329
42.0570 20.8875 -1.0458
42.4131 21.5789 -1.1811
41.4892 21.6172 -1.2797
26.9405 15.7425 -1.2430
26.8989 16.0706 -1.3252
26.1654 15.9794 -1.3716
26.1586 16.3265 -1.4544
1.9865 -5.8677 2.7999
2.0558 -5.8619 2.8007
2.1256 -5.8564 2.8018
2.1959 -5.8514 2.8032
2.2662 -5.8453 2.8042
2.3366 -5.8383 2.8050
2.4073 -5.8311 2.8058
2.4780 -5.8229 2.8063
2.5488 -5.8140 2.8065
2.6199 -5.8049 2.8068
2.6913 -5.7955 2.8071
2.7631 -5.7858 2.8074
2.8351 -5.7759 2.8077
2.9074 -5.7654 2.8079
2.9797 -5.7541 2.8078
3.0524 -5.7425 2.8078
3.1255 -5.7306 2.8078
3.1989 -5.7185 2.8078
3.2726 -5.7060 2.8078
3.3468 -5.6933 2.8078
3.4214 -5.6802 2.8079
3.4963 -5.6668 2.8079
3.5717 -5.6532 2.8080
3.6476 -5.6392 2.8081
3.7238 -5.6248 2.8082
3.8006 -5.6102 2.8083
3.8777 -5.5952 2.8084
3.9555 -5.5799 2.8086
4.0337 -5.5642 2.8087
4.1124 -5.5482 2.8089
4.1916 -5.5318 2.8091
4.2713 -5.5149 2.8092
4.3512 -5.4973 2.8092
4.4317 -5.4794 2.8092
4.5128 -5.4610 2.8092
4.5945 -5.4422 2.8092
4.6768 -5.4231 2.8092
4.7597 -5.4035 2.8092
4.8432 -5.3835 2.8093
4.9274 -5.3631 2.8093
5.0122 -5.3422 2.8094
5.0831 -5.3057 2.8014
5.1692 -5.2840 2.8015
5.2710 -5.2770 2.8097
5.3587 -5.2543 2.8098
5.4472 -5.2311 2.8100
5.5365 -5.2075 2.8102
5.6266 -5.1833 2.8103
5.7175 -5.1587 2.8105
5.8093 -5.1335 2.8107
5.9019 -5.1078 2.8110
5.9955 -5.0815 2.8112
6.0084 -4.9870 2.7738
5.9925 -4.8705 2.7240
5.9858 -4.7637 2.6795
6.0672 -4.7275 2.6748
6.1610 -4.6999 2.6751
6.2562 -4.6719 2.6757
6.3525 -4.6433 2.6763
6.4498 -4.6141 2.6769
6.5484 -4.5843 2.6775
6.6480 -4.5538 2.6782
6.7488 -4.5226 2.6788
6.8509 -4.4907 2.6795
6.9542 -4.4581 2.6803
7.0589 -4.4248 2.6810
7.1648 -4.3907 2.6818
7.2722 -4.3559 2.6826
7.3809 -4.3203 2.6834
7.4912 -4.2838 2.6842
7.5547 -4.2196 2.6681
7.5244 -4.1038 2.6193
7.4980 -3.9920 2.5727
7.4721 -3.8823 2.5271
7.4467 -3.7746 2.4825
7.4217 -3.6689 2.4389
7.3972 -3.5650 2.3961
7.4005 -3.4758 2.3630
7.4070 -3.3889 2.3314
7.4135 -3.3027 2.3001
7.4200 -3.2172 2.2693
7.4263 -3.1325 2.2388
7.4327 -3.0483 2.2087
7.4389 -2.9648 2.1790
7.4452 -2.8819 2.1496
7.4596 -2.8027 2.1229
7.4935 -2.7310 2.1019
7.5273 -2.6592 2.0810
7.5613 -2.5873 2.0603
7.5952 -2.5153 2.0396
7.6292 -2.4432 2.0191
7.6633 -2.3710 1.9986
7.6974 -2.2987 1.9783
7.7316 -2.2262 1.9580
7.7663 -2.1537 1.9380
7.8177 -2.0854 1.9221
7.8695 -2.0166 1.9062
7.9217 -1.9473 1.8904
7.9743 -1.8775 1.8745
8.0273 -1.8072 1.8587
8.0807 -1.7363 1.8429
8.1345 -1.6648 1.8271
8.1889 -1.5927 1.8113
8.2470 -1.5205 1.7962
8.3177 -1.4498 1.7837
8.3893 -1.3781 1.7711
8.4619 -1.3054 1.7586
8.5354 -1.2318 1.7460
8.6100 -1.1572 1.7333
8.6857 -1.0815 1.7207
8.7624 -1.0046 1.7080
8.8574 -0.9285 1.6985
8.9592 -0.8513 1.6899
9.0631 -0.7725 1.6813
9.1692 -0.6921 1.6727
9.2776 -0.6100 1.6640
9.4123 -0.5273 1.6595
9.6013 -0.4448 1.6638
9.7977 -0.3589 1.6685
10.0077 -0.2698 1.6744
10.4740 -0.1811 1.7214
11.2628 -0.0859 1.8178
11.8259 0.0239 1.8741
12.3596 0.1443 1.9227
12.9436 0.2760 1.9762
13.5855 0.4208 2.0351
12.7118 0.5164 1.8678
12.6814 0.6376 1.8273
12.7051 0.7615 1.7947
12.6798 0.8825 1.7555
12.6546 1.0033 1.7165
12.6295 1.1236 1.6778
12.6045 1.2437 1.6395
12.5795 1.3635 1.6014
12.5545 1.4830 1.5636
12.4813 1.5961 1.5202
23.9454 3.2963 2.8510
12.4368 1.8339 1.4469
25.0927 3.9467 2.8510
25.7056 4.2965 2.8510
26.3473 4.6641 2.8510
27.0200 5.0512 2.8510
29.2080 5.7509 3.0034
29.9898 6.2043 3.0034
30.8128 6.6835 3.0034
31.6803 7.1906 3.0034
32.5965 7.7282 3.0034
33.5656 8.2988 3.0034
34.5925 8.9057 3.0034
35.6830 9.5523 3.0034
36.8431 10.2426 3.0034
38.0801 10.9811 3.0034
39.4021 11.7729 3.0034
40.8187 12.6240 3.0034
42.3404 13.5410 3.0034
43.9799 14.5319 3.0034
45.7517 15.6058 3.0034
33.5383 18.8191 0.4882
26.2307 16.4291 0.0137
26.0553 16.6716 -0.0607
1.8180 -5.2865 2.8456
1.8805 -5.2782 2.8455
1.9431 -5.2697 2.8454
2.0058 -5.2608 2.8453
2.0689 -5.2518 2.8452
2.1318 -5.2422 2.8451
2.1950 -5.2323 2.8448
2.2584 -5.2221 2.8446
2.3220 -5.2116 2.8445
2.3857 -5.2008 2.8443
2.4497 -5.1898 2.8441
2.5139 -5.1784 2.8440
2.5783 -5.1668 2.8438
2.6429 -5.1549 2.8437
2.7077 -5.1426 2.8436
2.7729 -5.1301 2.8435
2.8382 -5.1172 2.8434
2.9038 -5.1041 2.8433
2.9697 -5.0906 2.8432
3.0358 -5.0768 2.8432
3.1022 -5.0627 2.8431
3.1690 -5.0483 2.8431
3.2360 -5.0335 2.8431
3.3033 -5.0184 2.8431
3.3709 -5.0029 2.8431
3.4389 -4.9871 2.8431
3.5072 -4.9710 2.8431
3.5758 -4.9545 2.8432
3.6448 -4.9376 2.8432
3.7141 -4.9204 2.8433
3.7838 -4.9028 2.8434
3.8539 -4.8849 2.8435
3.9244 -4.8665 2.8436
3.9952 -4.8478 2.8437
4.0665 -4.8286 2.8438
4.1382 -4.8091 2.8440
4.2103 -4.7892 2.8442
4.2829 -4.7688 2.8444
4.3559 -4.7480 2.8446
4.4294 -4.7268 2.8448
4.5034 -4.7052 2.8450
4.5778 -4.6831 2.8452
4.6528 -4.6606 2.8455
4.7283 -4.6376 2.8458
4.8042 -4.6141 2.8461
4.8808 -4.5902 2.8464
4.9436 -4.5527 2.8386
5.0355 -4.5409 2.8471
5.1138 -4.5155 2.8474
5.1926 -4.4895 2.8478
5.2720 -4.4631 2.8482
5.3521 -4.4361 2.8486
5.4328 -4.4086 2.8491
5.5142 -4.3805 2.8495
5.5962 -4.3519 2.8500
5.6789 -4.3226 2.8505
5.7624 -4.2928 2.8510
5.8353 -4.2542 2.8461
5.8229 -4.1539 2.7999
5.8120 -4.0565 2.7554
5.8136 -3.9694 2.7177
5.8884 -3.9325 2.7145
5.9729 -3.9009 2.7154
6.0578 -3.8685 2.7162
6.1437 -3.8354 2.7170
6.2303 -3.8017 2.7179
6.3179 -3.7673 2.7187
6.4085 -3.7333 2.7205
6.5007 -3.6990 2.7226
6.5937 -3.6637 2.7247
6.6862 -3.6268 2.7261
6.7798 -3.5892 2.7276
6.8745 -3.5507 2.7291
6.9703 -3.5114 2.7306
7.0671 -3.4712 2.7322
7.1652 -3.4301 2.7338
7.2655 -3.3887 2.7358
7.3710 -3.3480 2.7393
7.4153 -3.2787 2.7200
7.4218 -3.1929 2.6870
7.4282 -3.1079 2.6545
7.4345 -3.0234 2.6224
7.4408 -2.9397 2.5907
7.4471 -2.8565 2.5595
7.4703 -2.7802 2.5344
7.5043 -2.7081 2.5131
7.5383 -2.6359 2.4921
7.5724 -2.5636 2.4712
7.6066 -2.4913 2.4505
7.6407 -2.4188 2.4299
7.6750 -2.3462 2.4094
7.7093 -2.2735 2.3891
7.7436 -2.2007 2.3689
7.7845 -2.1294 2.3509
7.8363 -2.0607 2.3361
7.8884 -1.9915 2.3214
7.9409 -1.9218 2.3067
7.9938 -1.8516 2.2921
8.0472 -1.7808 2.2776
8.1009 -1.7094 2.2632
8.1551 -1.6375 2.2488
8.2098 -1.5649 2.2345
8.2741 -1.4934 2.2227
8.3453 -1.4221 2.2126
8.4175 -1.3499 2.2025
8.4906 -1.2767 2.1925
8.5647 -1.2025 2.1826
8.6399 -1.1273 2.1727
8.7161 -1.0510 2.1628
8.7973 -0.9740 2.1540
8.8980 -0.8976 2.1496
9.0008 -0.8197 2.1453
9.1057 -0.7402 2.1411
9.2129 -0.6590 2.1370
9.3224 -0.5761 2.1331
9.4884 -0.4941 2.1414
9.6805 -0.4101 2.1549
9.8803 -0.3229 2.1690
10.1934 -0.2344 2.2067
10.7169 -0.1429 2.2877
11.5338 -0.0424 2.4276
12.0410 0.0720 2.4985
12.5945 0.1968 2.5763
13.2013 0.3336 2.6617
13.8769 0.4845 2.7576
12.7015 0.5660 2.4874
13.7809 0.7470 2.6593
14.8688 0.9496 2.8270
12.6208 0.9279 2.3639
12.5957 1.0479 2.3239
12.6089 1.1711 2.2911
12.5944 1.2918 2.2536
12.5695 1.4113 2.2145
12.5446 1.5305 2.1758
12.4715 1.6432 2.1291
12.4518 1.7622 2.0921
17.2454 2.6094 2.8510
17.5294 2.8244 2.8510
17.8213 3.0469 2.8510
18.8427 3.4075 2.9644
19.4160 3.7035 3.0034
19.7513 3.9637 3.0034
20.0968 4.2335 3.0034
20.4531 4.5133 3.0034
20.8206 4.8036 3.0034
21.2001 5.1051 3.0034
21.5921 5.4184 3.0034
21.9973 5.7442 3.0034
22.4166 6.0831 3.0034
22.8506 6.4359 3.0034
23.3004 6.8035 3.0034
23.7667 7.1868 3.0034
24.2507 7.5867 3.0034
24.7534 8.0044 3.0034
25.2761 8.4409 3.0034
25.8201 8.8975 3.0034
26.3867 9.3757 3.0034
26.9777 9.8768 3.0034
27.5945 10.4025 3.0034
28.2391 10.9547 3.0034
28.9137 11.5353 3.0034
29.6204 12.1464 3.0034
30.3617 12.7905 3.0034
31.1404 13.4702 3.0034
31.9596 14.1885 3.0034
32.8226 14.9486 3.0034
33.7333 15.7543 3.0034
34.6959 16.6095 3.0034
35.7152 17.5190 3.0034
35.6213 17.8974 2.9075
36.0208 18.5315 2.8510
37.1835 19.5815 2.8510
38.4250 20.7071 2.8510
39.7539 21.9165 2.8510
33.5191 18.8996 2.3206
1.6653 -4.7645 2.8709
1.7222 -4.7558 2.8707
1.7792 -4.7469 2.8705
1.8363 -4.7377 2.8703
1.8935 -4.7282 2.8702
1.9508 -4.7184 2.8701
2.0083 -4.7084 2.8699
2.0659 -4.6980 2.8698
2.1237 -4.6874 2.8697
2.1816 -4.6765 2.8696
2.2396 -4.6653 2.8695
2.2978 -4.6537 2.8695
2.3562 -4.6419 2.8694
2.4147 -4.6298 2.8693
2.4734 -4.6174 2.8693
2.5323 -4.6046 2.8693
2.5914 -4.5916 2.8693
2.6506 -4.5782 2.8693
2.7101 -4.5645 2.8693
2.7697 -4.5505 2.8693
2.8295 -4.5361 2.8693
2.8896 -4.5215 2.8694
2.9499 -4.5064 2.8694
3.0103 -4.4911 2.8695
3.0711 -4.4754 2.8696
3.1320 -4.4594 2.8697
3.1932 -4.4430 2.8698
3.2546 -4.4262 2.8699
3.3163 -4.4091 2.8700
3.3782 -4.3917 2.8702
3.4404 -4.3738 2.8703
3.5029 -4.3556 2.8705
3.5657 -4.3370 2.8707
3.6287 -4.3180 2.8709
3.6920 -4.2987 2.8711
3.7557 -4.2789 2.8713
3.8196 -4.2587 2.8715
3.8839 -4.2382 2.8718
3.9484 -4.2172 2.8720
4.0133 -4.1958 2.8723
4.0785 -4.1739 2.8726
4.1441 -4.1517 2.8729
4.2101 -4.1290 2.8733
4.2763 -4.1058 2.8736
4.3430 -4.0822 2.8740
4.4100 -4.0582 2.8743
4.4774 -4.0336 2.8747
4.5452 -4.0086 2.8751
4.6134 -3.9832 2.8755
4.6821 -3.9572 2.8760
4.7511 -3.9307 2.8764
4.8206 -3.9037 2.8769
4.8905 -3.8762 2.8774
4.9609 -3.8482 2.8779
5.0317 -3.8196 2.8784
5.1030 -3.7905 2.8790
5.1749 -3.7609 2.8796
5.2473 -3.7307 2.8802
5.3202 -3.7001 2.8809
5.3941 -3.6691 2.8819
5.4690 -3.6377 2.8830
5.5444 -3.6058 2.8842
5.6204 -3.5732 2.8854
5.6970 -3.5400 2.8867
5.7257 -3.4766 2.8637
5.7284 -3.3982 2.8282
5.7335 -3.3222 2.7946
5.7402 -3.2480 2.7623
5.7879 -3.1972 2.7500
5.8653 -3.1622 2.7518
5.9434 -3.1264 2.7535
6.0221 -3.0899 2.7553
6.1017 -3.0527 2.7572
6.1819 -3.0147 2.7590
6.2640 -2.9765 2.7614
6.3493 -2.9385 2.7649
6.4329 -2.8985 2.7672
6.5172 -2.8576 2.7696
6.6024 -2.8159 2.7720
6.6885 -2.7733 2.7744
6.7755 -2.7298 2.7769
6.8678 -2.6871 2.7812
6.9633 -2.6442 2.7864
7.0544 -2.5982 2.7894
7.1463 -2.5511 2.7924
7.2396 -2.5030 2.7956
7.3422 -2.4567 2.8020
7.4463 -2.4092 2.8085
7.5444 -2.3582 2.8123
7.6462 -2.3068 2.8170
7.7221 -2.2462 2.8120
7.7567 -2.1730 2.7918
7.8043 -2.1031 2.7765
7.8564 -2.0340 2.7627
7.9089 -1.9643 2.7491
7.9618 -1.8941 2.7356
8.0150 -1.8234 2.7223
8.0687 -1.7522 2.7091
8.1228 -1.6804 2.6960
8.1774 -1.6079 2.6830
8.3752 -1.3921 2.6547
8.2325 -1.5349 2.6702
8.4480 -1.3193 2.6471
8.3034 -1.4640 2.6624
8.5217 -1.2456 2.6397
8.5964 -1.1708 2.6324
8.8402 -0.9415 2.6153
8.6722 -1.0950 2.6253
8.9420 -0.8643 2.6152
8.7490 -1.0181 2.6183
9.5712 -0.4579 2.6424
9.0458 -0.7856 2.6153
9.7667 -0.3725 2.6653
9.1518 -0.7053 2.6156
9.9701 -0.2836 2.6894
10.3996 -0.1952 2.7729
9.2601 -0.6232 2.6162
10.8177 -0.0985 2.8510
9.3830 -0.5401 2.6205
10.9446 0.0060 2.8510
11.0733 0.1129 2.8510
11.8854 0.8088 2.8510
12.0280 0.9347 2.8510
11.2038 0.2223 2.8510
12.1727 1.0635 2.8510
11.3361 0.3342 2.8510
12.3198 1.1956 2.8510
11.4704 0.4487 2.8510
12.4692 1.3308 2.8510
11.6066 0.5660 2.8510
12.6211 1.4695 2.8510
12.7755 1.6116 2.8510
11.7450 0.6860 2.8510
12.9325 1.7573 2.8510
14.4945 2.6802 3.0034
12.4414 1.8120 2.7093
14.6782 2.8593 3.0034
13.2545 2.0600 2.8510
14.8652 3.0432 3.0034
15.0558 3.2321 3.0034
13.9017 2.2969 2.9534
14.3142 2.5057 3.0034
15.2500 3.4263 3.0034
15.6500 3.8308 3.0034
15.4480 3.6257 3.0034
15.8559 4.0417 3.0034
16.9518 5.1913 3.0034
16.0661 4.2586 3.0034
17.1853 5.4421 3.0034
16.2806 4.4817 3.0034
17.4242 5.7006 3.0034
16.4996 4.7114 3.0034
17.6685 5.9671 3.0034
16.7233 4.9478 3.0034
17.9184 6.2418 3.0034
18.4363 6.8178 3.0034
18.1743 6.5253 3.0034
18.7047 7.1198 3.0034
18.9798 7.4317 3.0034
20.1530 8.7879 3.0034
19.2618 7.7540 3.0034
20.4662 9.1568 3.0034
19.5512 8.0871 3.0034
20.7882 9.5388 3.0034
19.8481 8.4316 3.0034
21.1192 9.9346 3.0034
22.1716 11.2118 3.0034
22.5439 11.6702 3.0034
21.4598 10.3448 3.0034
22.9278 12.1464 3.0034
21.8105 10.7703 3.0034
23.3240 12.6415 3.0034
24.5932 14.2507 3.0034
23.7332 13.1564 3.0034
24.1560 13.6924 3.0034
25.0457 14.8325 3.0034
25.5144 15.4395 3.0034
25.1522 15.5488 2.9055
25.1592 15.8856 2.8510
25.6558 16.5425 2.8510
25.7676 16.9636 2.8070
25.6953 17.2685 2.7428
1.5328 -4.3117 2.8913
1.5849 -4.3031 2.8911
1.6371 -4.2942 2.8910
1.6894 -4.2850 2.8909
1.7418 -4.2755 2.8908
1.7943 -4.2658 2.8907
1.8469 -4.2557 2.8906
1.8995 -4.2454 2.8905
1.9523 -4.2347 2.8905
2.0052 -4.2238 2.8904
2.0582 -4.2126 2.8904
2.1113 -4.2011 2.8904
2.1645 -4.1893 2.8904
2.2179 -4.1772 2.8904
2.2714 -4.1647 2.8904
2.3250 -4.1520 2.8904
2.3787 -4.1390 2.8904
2.4325 -4.1256 2.8905
2.4865 -4.1119 2.8905
2.5407 -4.0979 2.8906
2.5950 -4.0836 2.8907
2.6494 -4.0690 2.8908
2.7040 -4.0540 2.8909
2.7588 -4.0387 2.8910
2.8137 -4.0231 2.8911
2.8688 -4.0071 2.8913
2.9241 -3.9908 2.8914
2.9795 -3.9741 2.8916
3.0351 -3.9571 2.8918
3.0910 -3.9397 2.8920
3.1469 -3.9219 2.8922
3.2031 -3.9038 2.8924
3.2595 -3.8854 2.8927
3.3161 -3.8665 2.8929
3.3729 -3.8473 2.8932
3.4299 -3.8277 2.8935
3.4871 -3.8077 2.8938
3.5446 -3.7873 2.8941
3.6022 -3.7665 2.8944
3.6601 -3.7453 2.8947
3.7183 -3.7237 2.8951
3.7766 -3.7017 2.8954
3.8353 -3.6793 2.8958
3.8941 -3.6564 2.8962
3.9533 -3.6331 2.8966
4.0127 -3.6094 2.8970
4.0723 -3.5852 2.8975
4.1323 -3.5606 2.8979
4.1925 -3.5355 2.8984
4.2530 -3.5100 2.8989
4.3138 -3.4839 2.8994
4.3749 -3.4574 2.8999
4.4363 -3.4305 2.9005
4.4980 -3.4030 2.9010
4.5600 -3.3750 2.9016
4.6223 -3.3465 2.9022
4.6850 -3.3176 2.9028
4.7480 -3.2880 2.9034
4.8113 -3.2580 2.9041
4.8751 -3.2274 2.9048
4.9391 -3.1962 2.9055
5.0035 -3.1645 2.9062
5.0683 -3.1323 2.9069
5.1335 -3.0994 2.9076
5.1990 -3.0659 2.9084
5.2650 -3.0319 2.9092
5.3323 -2.9978 2.9105
5.4003 -2.9631 2.9120
5.4692 -2.9281 2.9138
5.5387 -2.8925 2.9156
5.6086 -2.8561 2.9175
5.6790 -2.8191 2.9193
5.7396 -2.7764 2.9160
5.7518 -2.7101 2.8882
5.7667 -2.6457 2.8623
5.7817 -2.5816 2.8367
5.7965 -2.5179 2.8115
5.8188 -2.4577 2.7903
5.8757 -2.4118 2.7858
5.9475 -2.3713 2.7882
6.0202 -2.3300 2.7908
6.0935 -2.2880 2.7933
6.1674 -2.2451 2.7959
6.2419 -2.2014 2.7986
6.3191 -2.1575 2.8022
6.3965 -2.1125 2.8056
6.4738 -2.0663 2.8087
6.5519 -2.0192 2.8119
6.6301 -1.9711 2.8149
6.7091 -1.9219 2.8179
6.7934 -1.8730 2.8229
6.8751 -1.8221 2.8265
6.9559 -1.7698 2.8294
7.0365 -1.7161 2.8320
7.1184 -1.6615 2.8349
7.2052 -1.6068 2.8394
7.2868 -1.5495 2.8416
7.3680 -1.4909 2.8434
7.4492 -1.4310 2.8450
7.5305 -1.3699 2.8463
7.6122 -1.3076 2.8475
7.6939 -1.2439 2.8485
7.7768 -1.1791 2.8497
7.8599 -1.1130 2.8507
7.9415 -1.0454 2.8510
8.0231 -0.9764 2.8510
8.1053 -0.9061 2.8510
8.1881 -0.8346 2.8510
8.2716 -0.7617 2.8510
8.3558 -0.6875 2.8510
8.4407 -0.6119 2.8510
8.5263 -0.5348 2.8510
8.6126 -0.4564 2.8510
8.6996 -0.3764 2.8510
8.7873 -0.2950 2.8510
8.8758 -0.2119 2.8510
8.9651 -0.1273 2.8510
9.0552 -0.0411 2.8510
9.1460 0.0467 2.8510
9.2377 0.1363 2.8510
9.3302 0.2276 2.8510
9.4235 0.3207 2.8510
9.5177 0.4156 2.8510
9.6128 0.5123 2.8510
9.7088 0.6110 2.8510
9.8057 0.7116 2.8510
9.9034 0.8143 2.8510
10.0022 0.9190 2.8510
10.1019 1.0258 2.8510
10.2026 1.1347 2.8510
10.3043 1.2459 2.8510
10.4070 1.3593 2.8510
10.5108 1.4751 2.8510
11.0396 1.6569 2.9649
11.2946 1.8054 3.0034
11.4073 1.9351 3.0034
11.5212 2.0676 3.0034
11.6363 2.2028 3.0034
11.7527 2.3409 3.0034
11.8703 2.4819 3.0034
11.9892 2.6259 3.0034
12.1094 2.7731 3.0034
12.2310 2.9235 3.0034
12.3539 3.0771 3.0034
12.4782 3.2341 3.0034
12.6040 3.3946 3.0034
13.2553 4.2526 3.0034
12.7312 3.5586 3.0034
13.3903 4.4361 3.0034
13.5270 4.6238 3.0034
12.8599 3.7263 3.0034
13.6653 4.8159 3.0034
12.9901 3.8978 3.0034
13.8054 5.0125 3.0034
13.9472 5.2138 3.0034
13.1219 4.0732 3.0034
14.0909 5.4198 3.0034
14.9933 6.7649 3.0034
14.2364 5.6307 3.0034
15.1509 7.0089 3.0034
14.3838 5.8468 3.0034
14.5332 6.0680 3.0034
15.3106 7.2590 3.0034
14.6845 6.2947 3.0034
15.4726 7.5154 3.0034
14.8379 6.5269 3.0034
15.6368 7.7783 3.0034
15.9724 8.3248 3.0034
16.1438 8.6087 3.0034
15.8034 8.0481 3.0034
16.3178 8.9002 3.0034
17.0400 10.1462 3.0034
16.4943 9.1994 3.0034
17.2274 10.4791 3.0034
16.6735 9.5066 3.0034
16.8553 9.8221 3.0034
17.4178 10.8213 3.0034
17.6112 11.1731 3.0034
17.8077 11.5347 3.0034
18.0073 11.9067 3.0034
18.2102 12.2893 3.0034
18.4163 12.6829 3.0034
1.4168 -3.9156 2.9091
1.4648 -3.9071 2.9090
1.5129 -3.8983 2.9089
1.5610 -3.8892 2.9088
1.6092 -3.8798 2.9087
1.6575 -3.8702 2.9087
1.7058 -3.8603 2.9086
1.7542 -3.8501 2.9086
1.8027 -3.8396 2.9086
1.8513 -3.8288 2.9085
1.8999 -3.8177 2.9085
1.9486 -3.8063 2.9085
1.9974 -3.7946 2.9086
2.0463 -3.7827 2.9086
2.0953 -3.7704 2.9086
2.1443 -3.7578 2.9087
2.1935 -3.7449 2.9088
2.2428 -3.7317 2.9088
2.2921 -3.7182 2.9089
2.3416 -3.7044 2.9090
2.3911 -3.6903 2.9092
2.4408 -3.6759 2.9093
2.4905 -3.6611 2.9094
2.5404 -3.6460 2.9096
2.5904 -3.6306 2.9097
2.6405 -3.6148 2.9099
2.6908 -3.5988 2.9101
2.7411 -3.5823 2.9103
2.7916 -3.5656 2.9105
2.8422 -3.5485 2.9108
2.8930 -3.5310 2.9110
2.9439 -3.5132 2.9113
2.9949 -3.4951 2.9115
3.0461 -3.4766 2.9118
3.0974 -3.4577 2.9121
3.1488 -3.4384 2.9124
3.2004 -3.4188 2.9127
3.2521 -3.3988 2.9131
3.3042 -3.3784 2.9134
3.3562 -3.3577 2.9138
3.4084 -3.3366 2.9142
3.4608 -3.3150 2.9146
3.5134 -3.2931 2.9150
3.5662 -3.2708 2.9154
3.6191 -3.2480 2.9158
3.6722 -3.2249 2.9163
3.7254 -3.2013 2.9168
3.7789 -3.1773 2.9173
3.8326 -3.1529 2.9178
3.8864 -3.1280 2.9183
3.9405 -3.1027 2.9188
3.9948 -3.0770 2.9194
4.0492 -3.0508 2.9199
4.1039 -3.0241 2.9205
4.1588 -2.9970 2.9211
4.2139 -2.9694 2.9218
4.2692 -2.9413 2.9224
4.3247 -2.9127 2.9231
4.3805 -2.8837 2.9237
4.4366 -2.8542 2.9245
4.4929 -2.8241 2.9252
4.5493 -2.7936 2.9259
4.6061 -2.7625 2.9267
4.6631 -2.7309 2.9274
4.7203 -2.6987 2.9282
4.7778 -2.6660 2.9290
4.8355 -2.6327 2.9299
4.8935 -2.5989 2.9307
4.9518 -2.5645 2.9316
5.0104 -2.5295 2.9325
5.0692 -2.4940 2.9334
5.1284 -2.4578 2.9343
5.1878 -2.4210 2.9353
5.2475 -2.3836 2.9363
5.3075 -2.3456 2.9373
5.3679 -2.3069 2.9383
5.4302 -2.2683 2.9403
5.4929 -2.2291 2.9423
5.5565 -2.1893 2.9446
5.6204 -2.1487 2.9469
5.6847 -2.1075 2.9492
5.7493 -2.0655 2.9516
5.8142 -2.0227 2.9539
5.8799 -1.9792 2.9564
5.9207 -1.9268 2.9464
5.9436 -1.8683 2.9276
5.9666 -1.8098 2.9091
5.9925 -1.7523 2.8923
6.0184 -1.6946 2.8757
6.0443 -1.6368 2.8593
6.0708 -1.5791 2.8434
6.1058 -1.5234 2.8316
6.1555 -1.4708 2.8267
6.2216 -1.4214 2.8292
6.2875 -1.3710 2.8315
6.3539 -1.3196 2.8338
6.4206 -1.2673 2.8361
6.4873 -1.2140 2.8382
6.5540 -1.1596 2.8401
6.6211 -1.1043 2.8421
6.6875 -1.0478 2.8436
6.7539 -0.9903 2.8450
6.8202 -0.9317 2.8462
6.8868 -0.8721 2.8473
6.9532 -0.8114 2.8482
7.0198 -0.7496 2.8491
7.0868 -0.6868 2.8500
7.1532 -0.6229 2.8505
7.2194 -0.5578 2.8508
7.2857 -0.4917 2.8510
7.3517 -0.4244 2.8510
7.4181 -0.3560 2.8510
7.4848 -0.2864 2.8510
7.5519 -0.2157 2.8510
7.6192 -0.1439 2.8510
7.6869 -0.0708 2.8510
7.7549 0.0034 2.8510
7.8233 0.0789 2.8510
7.8920 0.1557 2.8510
7.9610 0.2338 2.8510
8.0304 0.3131 2.8510
8.1001 0.3938 2.8510
8.1701 0.4759 2.8510
8.2406 0.5593 2.8510
8.3113 0.6442 2.8510
8.3824 0.7305 2.8510
8.4539 0.8183 2.8510
8.5257 0.9075 2.8510
8.5979 0.9983 2.8510
8.7949 1.1063 2.8920
9.1931 1.2455 2.9977
9.2878 1.3486 3.0034
9.3654 1.4510 3.0034
9.4433 1.5552 3.0034
9.5217 1.6612 3.0034
9.6004 1.7690 3.0034
9.6795 1.8788 3.0034
9.7590 1.9904 3.0034
9.8389 2.1040 3.0034
9.9191 2.2196 3.0034
9.9998 2.3373 3.0034
10.0808 2.4570 3.0034
10.1623 2.5789 3.0034
10.2441 2.7030 3.0034
10.3263 2.8292 3.0034
10.4089 2.9578 3.0034
10.4918 3.0886 3.0034
10.5752 3.2218 3.0034
10.6589 3.3574 3.0034
10.7430 3.4955 3.0034
10.8275 3.6361 3.0034
11.3420 4.5354 3.0034
10.9123 3.7792 3.0034
10.9975 3.9250 3.0034
11.4290 4.6952 3.0034
11.0831 4.0734 3.0034
11.5163 4.8579 3.0034
11.1690 4.2246 3.0034
11.6039 5.0236 3.0034
11.2554 4.3786 3.0034
11.6919 5.1925 3.0034
11.8686 5.5398 3.0034
11.7801 5.3646 3.0034
11.9575 5.7184 3.0034
12.4057 6.6638 3.0034
12.0467 5.9004 3.0034
12.4960 6.8638 3.0034
12.1360 6.0859 3.0034
12.5865 7.0677 3.0034
12.2257 6.2749 3.0034
12.6772 7.2756 3.0034
12.3155 6.4675 3.0034
12.7681 7.4875 3.0034
12.9501 7.9237 3.0034
12.8590 7.7035 3.0034
13.0413 8.1482 3.0034
13.1326 8.3771 3.0034
13.2239 8.6105 3.0034
13.3152 8.8484 3.0034
13.4066 9.0911 3.0034
13.4978 9.3385 3.0034
13.5890 9.5908 3.0034
1.3140 -3.5647 2.9248
1.3584 -3.5563 2.9247
1.4029 -3.5477 2.9246
1.4473 -3.5388 2.9246
1.4919 -3.5296 2.9245
1.5364 -3.5201 2.9245
1.5810 -3.5104 2.9245
1.6257 -3.5004 2.9245
1.6704 -3.4901 2.9245
1.7152 -3.4795 2.9245
1.7600 -3.4687 2.9245
1.8049 -3.4575 2.9245
1.8498 -3.4461 2.9246
1.8948 -3.4343 2.9247
1.9399 -3.4223 2.9247
1.9850 -3.4100 2.9248
2.0302 -3.3974 2.9249
2.0754 -3.3845 2.9250
2.1207 -3.3713 2.9251
2.1661 -3.3578 2.9253
2.2116 -3.3440 2.9254
2.2571 -3.3298 2.9256
2.3027 -3.3154 2.9258
2.3484 -3.3007 2.9260
2.3942 -3.2856 2.9262
2.4400 -3.2702 2.9264
2.4859 -3.2545 2.9266
2.5319 -3.2385 2.9268
2.5780 -3.2221 2.9270
2.6242 -3.2054 2.9273
2.6704 -3.1884 2.9275
2.7168 -3.1710 2.9278
2.7632 -3.1533 2.9281
2.8097 -3.1353 2.9284
2.8564 -3.1169 2.9287
2.9031 -3.0981 2.9291
2.9499 -3.0790 2.9294
2.9969 -3.0596 2.9298
3.0439 -3.0398 2.9301
3.0911 -3.0196 2.9305
3.1383 -2.9990 2.9309
3.1857 -2.9781 2.9313
3.2332 -2.9568 2.9318
3.2807 -2.9352 2.9322
3.3285 -2.9131 2.9327
3.3763 -2.8907 2.9331
3.4242 -2.8679 2.9336
3.4723 -2.8446 2.9341
3.5205 -2.8210 2.9347
3.5688 -2.7970 2.9352
3.6173 -2.7725 2.9358
3.6659 -2.7477 2.9363
3.7146 -2.7224 2.9369
3.7634 -2.6967 2.9375
3.8124 -2.6705 2.9382
3.8616 -2.6440 2.9388
3.9108 -2.6170 2.9394
3.9602 -2.5895 2.9401
4.0098 -2.5616 2.9408
4.0595 -2.5332 2.9415
4.1094 -2.5044 2.9422
4.1594 -2.4750 2.9430
4.2095 -2.4453 2.9437
4.2598 -2.4150 2.9445
4.3104 -2.3842 2.9453
4.3610 -2.3530 2.9462
4.4118 -2.3212 2.9470
4.4628 -2.2890 2.9479
4.5140 -2.2562 2.9488
4.5653 -2.2229 2.9497
4.6169 -2.1890 2.9506
4.6685 -2.1547 2.9516
4.7204 -2.1197 2.9526
4.7724 -2.0843 2.9536
4.8245 -2.0482 2.9545
4.8770 -2.0116 2.9556
4.9297 -1.9744 2.9567
4.9825 -1.9367 2.9578
5.0356 -1.8983 2.9590
5.0888 -1.8594 2.9602
5.1423 -1.8198 2.9614
5.1959 -1.7796 2.9626
5.2498 -1.7387 2.9639
5.3038 -1.6972 2.9651
5.3580 -1.6551 2.9664
5.4125 -1.6123 2.9677
5.4671 -1.5688 2.9690
5.5219 -1.5246 2.9703
5.5770 -1.4797 2.9717
5.6323 -1.4341 2.9731
5.6893 -1.3882 2.9754
5.7462 -1.3414 2.9774
5.8032 -1.2939 2.9794
5.8609 -1.2456 2.9817
5.9185 -1.1965 2.9838
5.9759 -1.1465 2.9857
6.0334 -1.0957 2.9876
6.0911 -1.0440 2.9895
6.1482 -0.9914 2.9910
6.2059 -0.9380 2.9927
6.2638 -0.8837 2.9944
6.3212 -0.8285 2.9958
6.3786 -0.7724 2.9971
6.4358 -0.7154 2.9983
6.4929 -0.6574 2.9993
6.5500 -0.5986 3.0003
6.6068 -0.5387 3.0010
6.6637 -0.4780 3.0018
6.7167 -0.4161 3.0008
6.7658 -0.3532 2.9979
6.8156 -0.2894 2.9954
6.8660 -0.2249 2.9932
6.9217 -0.1596 2.9932
6.9805 -0.0934 2.9945
7.0402 -0.0262 2.9962
7.1007 0.0421 2.9981
7.1693 0.1117 3.0033
7.2258 0.1822 3.0034
7.2822 0.2537 3.0034
7.3386 0.3262 3.0034
7.3952 0.3999 3.0034
7.4518 0.4746 3.0034
7.5084 0.5505 3.0034
7.5652 0.6274 3.0034
7.6220 0.7055 3.0034
7.6789 0.7848 3.0034
7.7359 0.8652 3.0034
7.7928 0.9468 3.0034
7.8499 1.0297 3.0034
7.9070 1.1137 3.0034
7.9641 1.1990 3.0034
8.0213 1.2856 3.0034
8.0785 1.3734 3.0034
8.1357 1.4626 3.0034
8.1929 1.5531 3.0034
8.2502 1.6449 3.0034
8.3074 1.7381 3.0034
8.3646 1.8327 3.0034
8.4219 1.9287 3.0034
8.4791 2.0261 3.0034
8.5363 2.1250 3.0034
8.5934 2.2253 3.0034
8.6505 2.3271 3.0034
8.7075 2.4305 3.0034
8.7645 2.5354 3.0034
8.8215 2.6419 3.0034
8.8783 2.7499 3.0034
8.9350 2.8596 3.0034
8.9916 2.9709 3.0034
9.0481 3.0839 3.0034
9.1045 3.1985 3.0034
9.1608 3.3149 3.0034
9.2169 3.4330 3.0034
9.2728 3.5529 3.0034
9.3285 3.6745 3.0034
9.3840 3.7980 3.0034
9.4393 3.9233 3.0034
9.4944 4.0505 3.0034
9.5493 4.1796 3.0034
9.6039 4.3106 3.0034
9.6581 4.4435 3.0034
9.7122 4.5784 3.0034
9.7658 4.7154 3.0034
9.8191 4.8543 3.0034
9.8721 4.9954 3.0034
9.9247 5.1385 3.0034
9.9769 5.2837 3.0034
10.0286 5.4311 3.0034
10.0799 5.5807 3.0034
10.1308 5.7324 3.0034
10.1811 5.8864 3.0034
10.2309 6.0427 3.0034
10.2801 6.2012 3.0034
10.3288 6.3621 3.0034
10.3768 6.5253 3.0034
10.4242 6.6909 3.0034
10.4709 6.8589 3.0034
10.5169 7.0293 3.0034
10.5621 7.2022 3.0034
10.6066 7.3775 3.0034
10.6503 7.5554 3.0034
10.6930 7.7358 3.0034
1.2220 -3.2504 2.9389
1.2632 -3.2423 2.9389
1.3044 -3.2339 2.9388
1.3456 -3.2252 2.9388
1.3869 -3.2163 2.9388
1.4282 -3.2070 2.9387
1.4695 -3.1975 2.9387
1.5108 -3.1878 2.9388
1.5522 -3.1777 2.9388
1.5936 -3.1674 2.9388
1.6351 -3.1569 2.9388
1.6765 -3.1460 2.9389
1.7181 -3.1348 2.9390
1.7596 -3.1234 2.9390
1.8012 -3.1117 2.9391
1.8428 -3.0997 2.9392
1.8845 -3.0874 2.9393
1.9262 -3.0748 2.9395
1.9680 -3.0620 2.9396
2.0098 -3.0488 2.9397
2.0516 -3.0354 2.9399
2.0935 -3.0216 2.9401
2.1355 -3.0076 2.9403
2.1775 -2.9932 2.9405
2.2195 -2.9786 2.9407
2.2616 -2.9636 2.9409
2.3037 -2.9484 2.9411
2.3459 -2.9328 2.9414
2.3881 -2.9169 2.9416
2.4304 -2.9007 2.9419
2.4728 -2.8842 2.9422
2.5152 -2.8673 2.9425
2.5577 -2.8502 2.9428
2.6002 -2.8327 2.9431
2.6428 -2.8149 2.9434
2.6855 -2.7967 2.9438
2.7282 -2.7782 2.9441
2.7710 -2.7594 2.9445
2.8138 -2.7402 2.9449
2.8567 -2.7207 2.9453
2.8997 -2.7009 2.9457
2.9428 -2.6807 2.9462
2.9859 -2.6602 2.9466
3.0291 -2.6392 2.9471
3.0723 -2.6180 2.9476
3.1157 -2.5963 2.9481
3.1591 -2.5744 2.9486
3.2026 -2.5520 2.9491
3.2461 -2.5292 2.9496
3.2898 -2.5061 2.9502
3.3335 -2.4826 2.9508
3.3773 -2.4587 2.9513
3.4212 -2.4344 2.9519
3.4651 -2.4098 2.9526
3.5091 -2.3847 2.9532
3.5532 -2.3591 2.9538
3.5973 -2.3332 2.9544
3.6415 -2.3068 2.9550
3.6858 -2.2801 2.9556
3.7303 -2.2530 2.9564
3.7748 -2.2254 2.9572
3.8195 -2.1974 2.9579
3.8643 -2.1690 2.9587
3.9091 -2.1402 2.9596
3.9541 -2.1108 2.9604
3.9991 -2.0811 2.9613
4.0442 -2.0509 2.9621
4.0895 -2.0202 2.9630
4.1348 -1.9891 2.9640
4.1802 -1.9574 2.9649
4.2256 -1.9253 2.9658
4.2712 -1.8927 2.9667
4.3169 -1.8596 2.9677
4.3626 -1.8260 2.9687
4.4085 -1.7919 2.9697
4.4545 -1.7573 2.9707
4.5005 -1.7221 2.9718
4.5467 -1.6865 2.9728
4.5927 -1.6502 2.9738
4.6379 -1.6130 2.9741
4.6826 -1.5752 2.9742
4.7274 -1.5368 2.9742
4.7722 -1.4979 2.9743
4.8171 -1.4585 2.9744
4.8620 -1.4184 2.9744
4.9070 -1.3779 2.9745
4.9519 -1.3367 2.9746
4.9969 -1.2950 2.9747
5.0419 -1.2527 2.9747
5.0870 -1.2098 2.9748
5.1321 -1.1664 2.9749
5.1772 -1.1223 2.9750
5.2223 -1.0776 2.9750
5.2675 -1.0323 2.9751
5.3126 -0.9864 2.9752
5.3578 -0.9398 2.9753
5.4030 -0.8926 2.9754
5.4482 -0.8448 2.9755
5.4934 -0.7963 2.9755
5.5475 -0.7484 2.9804
5.5980 -0.6991 2.9833
5.6474 -0.6490 2.9855
5.6969 -0.5981 2.9877
5.7463 -0.5464 2.9899
5.7949 -0.4938 2.9916
5.8434 -0.4405 2.9933
5.8921 -0.3864 2.9950
5.9400 -0.3315 2.9964
5.9879 -0.2758 2.9977
6.0354 -0.2193 2.9988
6.0828 -0.1619 2.9998
6.1296 -0.1038 3.0006
6.1762 -0.0449 3.0013
6.2227 0.0149 3.0020
6.2692 0.0754 3.0026
6.3148 0.1368 3.0028
6.3602 0.1990 3.0030
6.4057 0.2620 3.0033
6.4509 0.3259 3.0034
6.4958 0.3906 3.0034
6.5406 0.4561 3.0034
6.5853 0.5225 3.0034
6.6299 0.5898 3.0034
6.6744 0.6579 3.0034
6.7188 0.7270 3.0034
6.7631 0.7969 3.0034
6.8073 0.8678 3.0034
6.8514 0.9395 3.0034
6.8953 1.0122 3.0034
6.9391 1.0859 3.0034
6.9828 1.1605 3.0034
7.0264 1.2361 3.0034
7.0697 1.3126 3.0034
7.1129 1.3902 3.0034
7.1560 1.4687 3.0034
7.1989 1.5483 3.0034
7.2415 1.6288 3.0034
7.2840 1.7104 3.0034
7.3263 1.7931 3.0034
7.3683 1.8768 3.0034
7.4102 1.9616 3.0034
7.4517 2.0474 3.0034
7.4931 2.1344 3.0034
7.5341 2.2224 3.0034
7.5750 2.3116 3.0034
7.6155 2.4019 3.0034
7.6557 2.4933 3.0034
7.6957 2.5859 3.0034
7.7353 2.6796 3.0034
7.7745 2.7746 3.0034
7.8135 2.8707 3.0034
7.8521 2.9680 3.0034
7.8903 3.0665 3.0034
7.9281 3.1662 3.0034
7.9655 3.2671 3.0034
8.0025 3.3693 3.0034
8.0390 3.4728 3.0034
8.0752 3.5775 3.0034
8.1108 3.6835 3.0034
8.1460 3.7908 3.0034
8.1806 3.8993 3.0034
8.2148 4.0092 3.0034
8.2484 4.1204 3.0034
8.2814 4.2329 3.0034
8.3139 4.3468 3.0034
8.3457 4.4620 3.0034
8.3770 4.5786 3.0034
8.4075 4.6965 3.0034
8.4375 4.8158 3.0034
8.4668 4.9365 3.0034
8.4953 5.0585 3.0034
8.5231 5.1820 3.0034
8.5502 5.3069 3.0034
8.5765 5.4331 3.0034
8.6019 5.5608 3.0034
8.6266 5.6900 3.0034
8.6504 5.8205 3.0034
8.6733 5.9525 3.0034
8.6953 6.0859 3.0034
8.7163 6.2207 3.0034
8.7364 6.3570 3.0034
8.7555 6.4947 3.0034
1.1388 -2.9662 2.9517
1.1771 -2.9583 2.9517
1.2154 -2.9502 2.9517
1.2537 -2.9417 2.9516
1.2920 -2.9331 2.9516
1.3303 -2.9241 2.9516
1.3687 -2.9149 2.9517
1.4071 -2.9054 2.9517
1.4454 -2.8957 2.9517
1.4838 -2.8857 2.9518
1.5223 -2.8754 2.9518
1.5607 -2.8649 2.9519
1.5992 -2.8541 2.9520
1.6377 -2.8430 2.9521
1.6762 -2.8316 2.9522
1.7147 -2.8200 2.9523
1.7533 -2.8081 2.9524
1.7918 -2.7959 2.9526
1.8304 -2.7834 2.9527
1.8691 -2.7707 2.9529
1.9077 -2.7577 2.9531
1.9464 -2.7443 2.9532
1.9851 -2.7307 2.9534
2.0237 -2.7168 2.9536
2.0624 -2.7026 2.9538
2.1012 -2.6881 2.9540
2.1400 -2.6733 2.9542
2.1788 -2.6582 2.9544
2.2176 -2.6428 2.9546
2.2565 -2.6271 2.9549
2.2954 -2.6111 2.9551
2.3343 -2.5948 2.9554
2.3733 -2.5782 2.9557
2.4122 -2.5613 2.9560
