ply
format ascii 1.0
element vertex 2141
property float32 x
property float32 y
property float32 z
end_header
7.4884 -2.5264 -0.6907
7.4979 -2.4502 -0.7108
7.4486 -2.9982 -0.5725
7.5074 -2.3742 -0.7310
7.5169 -2.2985 -0.7513
7.4400 -2.9125 -0.5909
7.5264 -2.2230 -0.7716
7.4497 -2.8346 -0.6107
7.5575 -2.1540 -0.7943
7.4594 -2.7570 -0.6306
7.5938 -2.0862 -0.8178
7.4691 -2.6798 -0.6506
7.6301 -2.0180 -0.8414
7.6667 -1.9495 -0.8654
7.4788 -2.6030 -0.6706
7.7034 -1.8807 -0.8896
7.7403 -1.8116 -0.9141
7.8148 -1.6722 -0.9639
7.7774 -1.7421 -0.9388
7.8523 -1.6019 -0.9892
8.1266 -1.2568 -1.1319
8.1857 -1.1859 -1.1622
7.8966 -1.5325 -1.0156
8.2456 -1.1141 -1.1930
7.9531 -1.4647 -1.0440
8.3062 -1.0414 -1.2244
8.0103 -1.3962 -1.0728
8.3676 -0.9678 -1.2563
8.4461 -0.8950 -1.2913
8.0681 -1.3269 -1.1021
8.5277 -0.8211 -1.3273
9.0816 -0.3491 -1.5667
8.6107 -0.7459 -1.3641
8.6953 -0.6692 -1.4017
9.2045 -0.2652 -1.6143
8.7814 -0.5912 -1.4402
9.3306 -0.1791 -1.6634
8.8692 -0.5117 -1.4796
9.4603 -0.0906 -1.7141
8.9620 -0.4307 -1.5205
10.1525 0.1961 -1.9292
9.6364 0.0005 -1.7742
11.3691 0.3292 -2.1944
9.8876 0.0957 -1.8496
12.3583 0.4772 -2.4226
13.3074 0.6425 -2.6490
17.4172 1.3479 -3.6282
14.5075 0.8410 -2.9323
15.8518 1.0727 -3.2529
19.3804 1.6886 -4.0979
21.8900 2.1210 -4.6977
25.1523 2.6833 -5.4779
10.8220 12.8845 -7.1101
10.3269 13.7055 -7.4309
10.3938 12.9191 -7.0772
10.3149 13.9964 -7.5639
10.3686 13.1706 -7.1895
10.1748 14.1180 -7.6054
10.1402 13.1650 -7.1618
9.7737 13.8702 -7.4489
9.0931 13.8231 -7.3584
9.7539 14.1601 -7.5816
9.1515 14.2411 -7.5599
9.5702 14.2155 -7.5890
8.9659 14.2860 -7.5632
8.7530 14.2844 -7.5425
8.1353 -6.3096 0.4906
8.1098 -6.1647 0.4624
8.0848 -6.0229 0.4347
8.0604 -5.8840 0.4074
8.0364 -5.7480 0.3806
8.0130 -5.6147 0.3542
7.9900 -5.4840 0.3281
7.9674 -5.3558 0.3025
7.9453 -5.2300 0.2772
7.9236 -5.1066 0.2522
7.9023 -4.9854 0.2276
7.8813 -4.8664 0.2033
7.8608 -4.7495 0.1793
7.8405 -4.6345 0.1556
7.8207 -4.5216 0.1322
7.7919 -4.4052 0.1089
7.7635 -4.2909 0.0859
7.7027 -4.0655 0.0408
7.7357 -4.1787 0.0632
7.6688 -3.9537 0.0187
7.5290 -3.4339 -0.0878
7.6355 -3.8439 -0.0031
7.5115 -3.3391 -0.1086
7.6028 -3.7362 -0.0247
7.4942 -3.2455 -0.1291
7.5708 -3.6304 -0.0459
7.4772 -3.1532 -0.1495
7.5467 -3.5300 -0.0670
7.4604 -3.0620 -0.1697
7.4429 -2.8891 -0.2102
7.4438 -2.9720 -0.1898
7.4527 -2.8109 -0.2308
7.5010 -2.4252 -0.3343
7.4624 -2.7331 -0.2515
7.5106 -2.3490 -0.3551
7.4722 -2.6556 -0.2722
7.5201 -2.2730 -0.3758
7.4818 -2.5785 -0.2929
7.5338 -2.1986 -0.3969
7.4914 -2.5017 -0.3136
7.5700 -2.1306 -0.4192
7.6430 -1.9939 -0.4645
7.6065 -2.0624 -0.4418
7.6798 -1.9250 -0.4875
7.8663 -1.5756 -0.6057
7.7167 -1.8559 -0.5107
7.9178 -1.5072 -0.6311
7.7538 -1.7864 -0.5341
7.9747 -1.4389 -0.6573
7.7911 -1.7165 -0.5577
8.0322 -1.3699 -0.6839
7.8286 -1.6463 -0.5816
8.2088 -1.1582 -0.7662
8.0904 -1.3002 -0.7109
8.2691 -1.0859 -0.7945
8.1493 -1.2296 -0.7383
8.3301 -1.0128 -0.8232
8.6441 -0.7156 -0.9500
8.3973 -0.9393 -0.8530
8.7294 -0.6384 -0.9838
8.4781 -0.8660 -0.8847
8.8163 -0.5596 -1.0183
8.5604 -0.7915 -0.9170
8.9048 -0.4794 -1.0536
9.2547 -0.2309 -1.1738
9.0096 -0.3983 -1.0914
9.3823 -0.1438 -1.2168
9.1305 -0.3157 -1.1320
9.5135 -0.0543 -1.2612
11.8560 0.3893 -1.7099
9.7358 0.0382 -1.3188
12.7255 0.5407 -1.8729
9.9924 0.1354 -1.3826
13.7340 0.7163 -2.0622
10.3946 0.2410 -1.4686
15.0107 0.9282 -2.2987
20.3015 1.8473 -3.2934
16.4541 1.1771 -2.5693
23.1125 2.3286 -3.8203
18.1420 1.4741 -2.8878
26.5494 2.9346 -4.4705
31.6168 3.8049 -5.4221
26.6956 16.4910 -9.2198
26.8832 16.9833 -9.4265
26.2279 16.9416 -9.3376
26.3373 17.3914 -9.5203
10.8307 12.8619 -6.1803
10.7837 13.0807 -6.2661
10.8527 12.6189 -6.0828
10.4205 12.9125 -6.1669
10.4132 13.1831 -6.2778
10.2928 13.9078 -6.5679
10.7951 13.9645 -6.6309
10.0332 13.8591 -6.5276
10.5660 13.9682 -6.6143
9.6492 13.6278 -6.4022
9.2539 14.3123 -6.6595
9.0400 14.3107 -6.6438
9.6478 13.9345 -6.5300
8.8286 14.3091 -6.6286
8.6199 14.3075 -6.6137
9.6242 14.2180 -6.6466
9.3894 14.1912 -6.6184
8.1066 -6.1517 0.9487
8.0815 -6.0090 0.9157
8.0569 -5.8692 0.8834
8.0329 -5.7324 0.8517
8.0093 -5.5983 0.8205
7.9862 -5.4669 0.7899
7.9635 -5.3381 0.7597
7.9413 -5.2117 0.7301
7.9195 -5.0877 0.7009
7.8981 -4.9660 0.6723
7.8770 -4.8464 0.6440
7.8564 -4.7290 0.6161
7.8448 -4.6187 0.5894
7.8153 -4.4996 0.5616
7.7863 -4.3828 0.5343
7.7579 -4.2682 0.5074
7.7299 -4.1556 0.4809
7.6954 -4.0414 0.4545
7.6614 -3.9292 0.4284
7.6280 -3.8192 0.4028
7.5953 -3.7113 0.3776
7.5631 -3.6053 0.3527
7.5423 -3.5062 0.3288
7.5245 -3.4099 0.3052
7.5070 -3.3148 0.2818
7.4897 -3.2211 0.2587
7.4727 -3.1285 0.2359
7.4558 -3.0372 0.2133
7.4392 -2.9470 0.1909
7.4457 -2.8668 0.1692
7.4555 -2.7883 0.1476
7.4653 -2.7102 0.1261
7.4751 -2.6325 0.1046
7.4848 -2.5551 0.0832
7.4944 -2.4780 0.0618
7.5040 -2.4013 0.0404
7.5136 -2.3248 0.0190
7.5232 -2.2486 -0.0024
7.5456 -2.1764 -0.0238
7.5820 -2.1081 -0.0454
7.6186 -2.0396 -0.0671
7.6554 -1.9707 -0.0890
7.6923 -1.9015 -0.1110
7.7294 -1.8320 -0.1332
7.7667 -1.7621 -0.1556
7.8042 -1.6919 -0.1782
7.8419 -1.6213 -0.2010
7.8815 -1.5507 -0.2240
7.9381 -1.4827 -0.2477
7.9954 -1.4141 -0.2718
8.0533 -1.3446 -0.2962
8.1119 -1.2744 -0.3209
8.1711 -1.2034 -0.3461
8.2311 -1.1315 -0.3715
8.2917 -1.0588 -0.3974
8.3532 -0.9851 -0.4236
8.4275 -0.9119 -0.4509
8.5090 -0.8381 -0.4791
8.5919 -0.7629 -0.5078
8.6763 -0.6864 -0.5371
8.7623 -0.6085 -0.5670
8.8499 -0.5292 -0.5976
8.9391 -0.4483 -0.6288
9.0556 -0.3669 -0.6626
9.1778 -0.2834 -0.6975
9.3034 -0.1977 -0.7335
9.4324 -0.1097 -0.7705
9.5845 -0.0192 -0.8103
9.8329 0.0750 -0.8594
10.0947 0.1742 -0.9113
10.7373 0.2887 -1.0003
12.1785 0.4450 -1.1699
13.0976 0.6050 -1.2962
14.2358 0.7952 -1.4504
15.5249 1.0175 -1.6273
17.0269 1.2810 -1.8349
18.8924 1.6048 -2.0918
21.2498 2.0119 -2.4160
24.2892 2.5366 -2.8342
28.2028 3.2211 -3.3756
33.8222 4.1944 -4.1504
41.7437 5.5872 -5.2493
44.1532 20.0320 -10.1138
43.4980 20.2550 -10.1384
26.4254 17.1248 -7.8064
27.0396 16.0265 -7.4708
25.8847 17.1449 -7.7754
27.1696 16.4720 -7.6336
27.2764 16.9116 -7.7930
26.7025 16.9275 -7.7576
11.6313 13.2132 -5.4634
10.5615 12.7731 -5.2446
10.8311 12.5625 -5.1819
10.4351 12.3584 -5.0859
10.6931 13.2076 -5.4111
10.6128 13.3890 -5.4736
10.0929 13.8775 -5.6278
10.6947 13.7828 -5.6228
9.9418 13.9725 -5.6557
10.5567 13.8998 -5.6590
9.7336 13.9855 -5.6506
10.1138 13.6071 -5.5289
9.5279 13.9983 -5.6457
8.9748 14.1152 -5.6641
9.3247 14.0113 -5.6412
8.7242 14.0427 -5.6261
9.1239 14.0243 -5.6369
8.9263 14.7088 -5.8838
19.3957 35.2058 -14.0016
20.3531 35.1777 -14.0299
18.9241 35.2195 -13.9882
19.8720 35.1919 -14.0155
16.9669 34.1160 -13.4983
16.5262 34.1266 -13.4863
16.0894 34.1371 -13.4748
15.6562 34.1474 -13.4637
15.1312 33.9437 -13.3688
8.0784 -5.9960 1.4001
8.0537 -5.8554 1.3625
8.0294 -5.7178 1.3257
8.0057 -5.5829 1.2896
7.9825 -5.4508 1.2541
7.9597 -5.3213 1.2194
7.9374 -5.1943 1.1852
7.9155 -5.0696 1.1517
7.8940 -4.9473 1.1188
7.8729 -4.8272 1.0864
7.8521 -4.7093 1.0546
7.8397 -4.5981 1.0243
7.8101 -4.4786 0.9923
7.7810 -4.3613 0.9608
7.7524 -4.2463 0.9299
7.7231 -4.1327 0.8994
7.6883 -4.0180 0.8687
7.6542 -3.9057 0.8386
7.6208 -3.7954 0.8090
7.5880 -3.6872 0.7800
7.5561 -3.5812 0.7515
7.5381 -3.4832 0.7248
7.5202 -3.3866 0.6984
7.5027 -3.2913 0.6723
7.4853 -3.1974 0.6466
7.4682 -3.1046 0.6212
7.4514 -3.0131 0.5961
7.4385 -2.9243 0.5715
7.4484 -2.8451 0.5489
7.4583 -2.7663 0.5264
7.4681 -2.6879 0.5039
7.4779 -2.6099 0.4816
7.4876 -2.5323 0.4593
7.4973 -2.4550 0.4371
7.5070 -2.3780 0.4149
7.5166 -2.3013 0.3928
7.5261 -2.2249 0.3708
7.5571 -2.1548 0.3498
7.5937 -2.0862 0.3289
7.6305 -2.0173 0.3080
7.6675 -1.9480 0.2869
7.7046 -1.8785 0.2657
7.7419 -1.8087 0.2444
7.7794 -1.7385 0.2229
7.8170 -1.6679 0.2013
7.8549 -1.5970 0.1796
7.9010 -1.5272 0.1579
7.9581 -1.4588 0.1361
8.0157 -1.3897 0.1141
8.0740 -1.3198 0.0918
8.1329 -1.2492 0.0693
8.1925 -1.1777 0.0464
8.2529 -1.1054 0.0233
8.3139 -1.0322 -0.0002
8.3764 -0.9582 -0.0240
8.4572 -0.8850 -0.0482
8.5393 -0.8106 -0.0729
8.6228 -0.7349 -0.0980
8.7079 -0.6578 -0.1236
8.7946 -0.5793 -0.1498
8.8828 -0.4993 -0.1764
8.9804 -0.4181 -0.2038
9.1008 -0.3360 -0.2323
9.2243 -0.2517 -0.2616
9.3511 -0.1651 -0.2918
9.4815 -0.0762 -0.3227
9.6759 0.0154 -0.3569
9.9291 0.1114 -0.3945
10.1961 0.2126 -0.4342
11.6688 0.3558 -0.5302
12.5088 0.5020 -0.6042
13.4802 0.6711 -0.6898
14.6836 0.8729 -0.7937
16.0586 1.1100 -0.9143
17.6662 1.3924 -1.0569
19.6817 1.7423 -1.2346
22.2575 2.1868 -1.4610
25.5490 2.7593 -1.7516
30.0829 3.5429 -2.1507
36.3462 4.6366 -2.7054
46.0576 6.3279 -3.5643
43.9559 19.0356 -7.3819
43.9952 19.5670 -7.5487
43.6169 19.9136 -7.6442
42.7173 20.0120 -7.6454
27.6941 15.3837 -5.7118
27.6626 15.7258 -5.8185
27.5988 16.0527 -5.9195
27.1337 16.1435 -5.9337
27.0662 16.4685 -6.0343
26.9656 16.7758 -6.1283
26.4405 16.8152 -6.1248
26.2151 17.0397 -6.1890
25.7063 17.0747 -6.1849
25.8588 17.5491 -6.3399
18.7744 14.1575 -5.0538
11.6463 13.1993 -4.5574
10.7950 12.4885 -4.3067
10.3513 12.2249 -4.2108
10.4737 12.6284 -4.3449
10.5555 12.9948 -4.4659
10.5316 13.2395 -4.5450
10.3547 13.2941 -4.5589
10.2743 13.4731 -4.6156
10.1930 13.6544 -4.6730
10.1106 13.8379 -4.7312
10.0824 14.1007 -4.8165
9.8781 14.1195 -4.8184
9.6761 14.1380 -4.8204
9.4764 14.1565 -4.8225
9.2297 14.0999 -4.7992
8.9962 14.0574 -4.7808
8.7671 14.0158 -4.7628
9.1228 14.9249 -5.0678
19.3351 33.1538 -11.2405
18.7350 32.9025 -11.1474
18.2365 32.8128 -11.1092
17.8750 32.9625 -11.1524
17.4845 33.0561 -11.1767
17.0295 33.0208 -11.1577
16.6327 33.0907 -11.1744
16.2091 33.1011 -11.1712
15.9393 33.4261 -11.2743
15.6315 33.6787 -11.3531
16.1582 35.7852 -12.0565
15.7990 35.9851 -12.1175
8.0504 -5.8420 1.8470
8.0261 -5.7035 1.8048
8.0022 -5.5679 1.7635
7.9789 -5.4350 1.7231
7.9560 -5.3048 1.6835
7.9335 -5.1771 1.6447
7.9115 -5.0518 1.6066
7.8899 -4.9289 1.5692
7.8687 -4.8083 1.5326
7.8479 -4.6899 1.4966
7.8347 -4.5777 1.4626
7.8049 -4.4577 1.4261
7.7757 -4.3401 1.3903
7.7471 -4.2247 1.3552
7.7162 -4.1099 1.3203
7.6813 -3.9950 1.2853
7.6471 -3.8823 1.2510
7.6136 -3.7718 1.2174
7.5808 -3.6634 1.1844
7.5520 -3.5587 1.1526
7.5338 -3.4604 1.1228
7.5160 -3.3636 1.0935
7.4984 -3.2681 1.0646
7.4810 -3.1739 1.0362
7.4639 -3.0810 1.0081
7.4470 -2.9893 0.9804
7.4412 -2.9030 0.9544
7.4511 -2.8235 0.9307
7.4610 -2.7445 0.9071
7.4709 -2.6658 0.8836
7.4807 -2.5875 0.8603
7.4905 -2.5096 0.8371
7.5002 -2.4321 0.8140
7.5099 -2.3548 0.7910
7.5195 -2.2779 0.7681
7.5319 -2.2021 0.7456
7.5686 -2.1333 0.7255
7.6054 -2.0643 0.7053
7.6424 -1.9951 0.6850
7.6795 -1.9255 0.6647
7.7168 -1.8556 0.6443
7.7543 -1.7854 0.6238
7.7920 -1.7149 0.6032
7.8298 -1.6440 0.5825
7.8678 -1.5727 0.5618
7.9205 -1.5038 0.5419
7.9779 -1.4350 0.5221
8.0359 -1.3655 0.5021
8.0946 -1.2952 0.4819
8.1539 -1.2241 0.4615
8.2139 -1.1522 0.4408
8.2746 -1.0794 0.4199
8.3360 -1.0057 0.3988
8.4053 -0.9320 0.3778
8.4867 -0.8583 0.3569
8.5694 -0.7833 0.3357
8.6537 -0.7070 0.3141
8.7394 -0.6293 0.2921
8.8267 -0.5502 0.2697
8.9157 -0.4696 0.2469
9.0243 -0.3882 0.2242
9.1459 -0.3052 0.2011
9.2707 -0.2201 0.1775
9.3988 -0.1326 0.1532
9.5305 -0.0427 0.1282
9.7678 0.0503 0.1037
10.0259 0.1481 0.0779
10.5047 0.2564 0.0518
11.9678 0.4074 0.0250
12.8529 0.5614 -0.0096
13.8803 0.7402 -0.0499
15.1537 0.9545 -0.0975
16.6218 1.2078 -0.1543
18.3452 1.5107 -0.2226
20.5414 1.8909 -0.3078
23.3533 2.3767 -0.4167
26.9557 3.0059 -0.5581
32.0132 3.8825 -0.7546
39.3875 5.1624 -1.0416
44.1465 18.2298 -4.7982
43.4324 18.4320 -4.8648
44.1057 19.2271 -5.0879
43.8170 19.6117 -5.2026
43.5719 20.0145 -5.3220
43.3287 20.4173 -5.4413
42.7704 20.6670 -5.5197
27.2148 15.1821 -4.0997
27.3427 15.6072 -4.2211
25.9393 15.1457 -4.1025
27.1201 16.1945 -4.3929
26.9901 16.4790 -4.4763
27.1663 16.9558 -4.6120
26.6690 17.0126 -4.6334
25.8384 16.8432 -4.5929
26.5681 17.6946 -4.8309
26.1108 17.7645 -4.8555
18.5654 15.5272 -4.2848
18.2151 18.2510 -5.0680
10.6288 12.2647 -3.4187
10.6513 12.5440 -3.4983
10.7530 12.9260 -3.6065
10.3036 12.6433 -3.5292
10.4098 13.0405 -3.6417
10.7149 13.7048 -3.8289
10.5546 13.7850 -3.8529
10.0800 13.4453 -3.7595
10.0515 13.6943 -3.8306
9.9277 13.8174 -3.8665
9.6883 13.7773 -3.8568
10.0121 14.5498 -4.0745
9.0773 13.4830 -3.7771
9.7247 14.7668 -4.1381
9.5382 14.8098 -4.1515
8.7210 13.8490 -3.8835
8.3038 13.4897 -3.7839
23.1775 39.4347 -11.0682
21.4675 37.3950 -10.4987
17.9663 32.0510 -9.0009
17.5361 32.0484 -9.0026
16.8876 31.6284 -8.8870
16.4729 31.6278 -8.8891
16.0623 31.6273 -8.8911
15.5627 31.4387 -8.8402
15.1619 31.4370 -8.8418
14.7706 31.4477 -8.8468
14.3814 31.4558 -8.8510
13.9954 31.4638 -8.8552
13.6125 31.4717 -8.8592
8.0226 -5.6888 2.2912
7.9987 -5.5524 2.2446
7.9752 -5.4188 2.1989
7.9522 -5.2879 2.1542
7.9296 -5.1595 2.1105
7.9075 -5.0337 2.0676
7.8858 -4.9102 2.0257
7.8645 -4.7890 1.9845
7.8436 -4.6700 1.9442
7.8295 -4.5569 1.9062
7.7996 -4.4365 1.8651
7.7703 -4.3185 1.8248
7.7416 -4.2027 1.7853
7.7092 -4.0868 1.7457
7.6742 -3.9716 1.7062
7.6400 -3.8586 1.6675
7.6064 -3.7479 1.6297
7.5734 -3.6393 1.5926
7.5477 -3.5358 1.5576
7.5296 -3.4373 1.5247
7.5117 -3.3402 1.4924
7.4940 -3.2445 1.4605
7.4766 -3.1501 1.4292
7.4595 -3.0570 1.3983
7.4425 -2.9651 1.3679
7.4439 -2.8814 1.3411
7.4539 -2.8016 1.3162
7.4638 -2.7223 1.2915
7.4737 -2.6434 1.2669
7.4835 -2.5648 1.2425
7.4933 -2.4867 1.2183
7.5031 -2.4089 1.1942
7.5128 -2.3314 1.1702
7.5225 -2.2542 1.1465
7.5433 -2.1806 1.1245
7.5802 -2.1116 1.1049
7.6172 -2.0422 1.0854
7.6544 -1.9726 1.0658
7.6917 -1.9027 1.0461
7.7292 -1.8325 1.0264
7.7669 -1.7619 1.0067
7.8047 -1.6911 0.9869
7.8427 -1.6198 0.9671
7.8831 -1.5487 0.9475
7.9403 -1.4801 0.9298
7.9980 -1.4109 0.9119
8.0564 -1.3409 0.8939
8.1154 -1.2702 0.8757
8.1751 -1.1986 0.8574
8.2354 -1.1263 0.8389
8.2965 -1.0531 0.8203
8.3583 -0.9790 0.8014
8.4346 -0.9054 0.7837
8.5166 -0.8312 0.7662
8.6000 -0.7556 0.7484
8.6849 -0.6787 0.7303
8.7713 -0.6004 0.7120
8.8592 -0.5207 0.6933
8.9492 -0.4395 0.6744
9.0689 -0.3578 0.6573
9.1917 -0.2740 0.6397
9.3177 -0.1879 0.6217
9.4472 -0.0996 0.6033
9.6121 -0.0088 0.5864
9.8619 0.0859 0.5735
10.1251 0.1857 0.5601
10.8661 0.3039 0.5702
12.2837 0.4619 0.6098
13.2176 0.6244 0.6188
14.3494 0.8163 0.6313
12.9503 0.8617 0.5332
12.9572 0.9874 0.4969
16.2137 1.3926 0.5762
16.2165 1.5501 0.5306
24.5023 2.5801 0.7328
28.5855 3.2883 0.7745
34.2651 4.2760 0.8319
12.5978 1.6953 0.2704
13.0763 1.8879 0.2439
15.4031 2.3753 0.2439
44.9587 18.1888 -2.4245
44.2584 18.4061 -2.5226
43.0794 18.4072 -2.5884
43.5989 19.1309 -2.7552
43.9486 19.7946 -2.9149
44.0441 20.3537 -3.0600
43.6563 20.6910 -3.1718
43.1109 20.9474 -3.2701
34.6745 18.1162 -2.9684
28.1334 15.4029 -2.5953
27.4140 15.3580 -2.6213
27.4432 15.7276 -2.7173
25.9255 15.1956 -2.6560
26.4580 15.8565 -2.8023
26.9724 16.5247 -2.9513
26.9206 16.8568 -3.0409
26.3968 16.8902 -3.0762
25.4078 16.6098 -3.0528
26.7692 17.8762 -3.3144
26.3945 18.0021 -3.3657
26.1374 18.2045 -3.4308
25.8816 18.4058 -3.4955
18.5528 15.5269 -3.1041
10.5706 12.4151 -2.6627
10.5925 12.6954 -2.7311
10.6301 13.0024 -2.8054
10.8555 13.5524 -2.9324
10.5870 13.4916 -2.9273
9.9821 12.9864 -2.8253
10.0810 13.3905 -2.9208
10.1644 13.7868 -3.0148
10.1101 14.0052 -3.0701
9.8412 13.9251 -3.0597
9.2691 13.3993 -2.9510
9.5169 14.0575 -3.1029
9.9391 15.0041 -3.3190
9.0037 13.8937 -3.0798
8.4335 13.3057 -2.9555
8.5080 13.7272 -3.0551
9.2945 15.3396 -3.4205
9.1507 15.4521 -3.4520
18.9854 32.8106 -7.3432
18.5134 32.7540 -7.3433
17.6925 32.0542 -7.1986
17.2802 32.0699 -7.2140
16.8717 32.0854 -7.2290
16.4669 32.1009 -7.2437
16.0656 32.1163 -7.2580
16.6183 34.0808 -7.7132
16.2988 34.3050 -7.7748
16.2062 35.0231 -7.9484
15.9378 35.3821 -8.0404
15.2888 34.8840 -7.9374
15.0304 35.2657 -8.0341
7.7909 -5.3946 2.6651
7.9182 -5.3655 2.6658
7.9482 -5.2699 2.6337
7.9255 -5.1409 2.5848
7.9033 -5.0144 2.5369
7.8815 -4.8904 2.4901
7.8601 -4.7687 2.4443
7.8391 -4.6492 2.3994
7.8241 -4.5351 2.3571
7.7941 -4.4143 2.3111
7.7647 -4.2958 2.2661
7.7359 -4.1797 2.2221
7.7018 -4.0627 2.1773
7.6668 -3.9472 2.1331
7.6325 -3.8340 2.0899
7.5988 -3.7230 2.0477
7.5658 -3.6142 2.0063
7.5434 -3.5120 1.9685
7.5252 -3.4133 1.9323
7.5072 -3.3159 1.8967
7.4895 -3.2200 1.8618
7.4721 -3.1254 1.8274
7.4549 -3.0321 1.7936
7.4379 -2.9401 1.7603
7.4467 -2.8591 1.7335
7.4567 -2.7790 1.7072
7.4667 -2.6994 1.6812
7.4766 -2.6202 1.6554
7.4865 -2.5414 1.6299
7.4963 -2.4630 1.6045
7.5061 -2.3849 1.5794
7.5158 -2.3072 1.5544
7.5255 -2.2299 1.5297
7.5551 -2.1585 1.5091
7.5922 -2.0890 1.4900
7.6294 -2.0193 1.4710
7.6668 -1.9494 1.4519
7.7043 -1.8791 1.4329
7.7419 -1.8086 1.4139
7.7798 -1.7377 1.3949
7.8178 -1.6665 1.3759
7.8560 -1.5949 1.3568
7.9032 -1.5247 1.3393
7.9607 -1.4557 1.3234
8.0188 -1.3860 1.3074
8.0775 -1.3156 1.2913
8.1369 -1.2444 1.2751
8.1969 -1.1725 1.2589
8.2577 -1.0996 1.2425
8.3191 -1.0260 1.2261
8.3836 -0.9517 1.2099
8.4648 -0.8781 1.1958
8.5474 -0.8032 1.1816
8.6315 -0.7271 1.1672
8.7170 -0.6496 1.1526
8.8041 -0.5707 1.1379
8.8928 -0.4903 1.1231
8.9939 -0.4089 1.1093
9.1148 -0.3264 1.0975
9.2389 -0.2417 1.0855
9.3663 -0.1548 1.0733
9.4971 -0.0655 1.0608
9.7051 0.0265 1.0561
9.9598 0.1231 1.0553
10.2876 0.2261 1.0607
11.7696 0.3720 1.1800
12.6235 0.5205 1.2298
13.6115 0.6924 1.2876
14.8092 0.8961 1.3592
12.9430 0.9081 1.1516
12.9185 1.0312 1.1133
12.9475 1.1588 1.0796
12.9281 1.2823 1.0420
12.9087 1.4057 1.0045
12.8893 1.5290 0.9673
12.8699 1.6521 0.9302
12.8505 1.7752 0.8932
12.7884 1.8919 0.8536
12.7638 2.0136 0.8168
12.7495 2.1370 0.7807
44.3508 18.5772 -0.2424
44.2987 19.0591 -0.3693
43.6595 19.2847 -0.4898
43.6864 19.8021 -0.6166
43.4378 20.1965 -0.7395
42.8228 20.4153 -0.8544
34.6724 18.2049 -1.1034
27.8746 15.6834 -1.1409
27.8480 16.0253 -1.2256
27.1278 15.9625 -1.2781
26.4342 15.9011 -1.3280
27.2035 16.7250 -1.4524
26.8368 16.8603 -1.5182
26.5877 17.0657 -1.5893
26.5300 17.3945 -1.6717
26.3241 17.6274 -1.7447
25.9190 17.7233 -1.8033
18.5387 15.5270 -1.9388
11.1733 12.5779 -1.8675
11.1542 12.8087 -1.9176
11.1343 13.0437 -1.9685
10.5125 12.5645 -1.9109
10.5337 12.8457 -1.9682
11.1545 13.8805 -2.1421
10.7308 13.6272 -2.1177
10.2089 13.2320 -2.0701
10.1772 13.4646 -2.1201
10.1689 13.7346 -2.1762
10.2292 14.1066 -2.2487
9.8615 13.8875 -2.2268
9.6147 13.8288 -2.2299
9.3730 13.7713 -2.2328
9.1363 13.7147 -2.2354
8.8824 13.6255 -2.2323
8.3207 13.0459 -2.1479
9.4277 15.1114 -2.4999
9.2868 15.2214 -2.5298
9.1456 15.3318 -2.5596
18.8839 32.3876 -5.4306
18.4895 32.4517 -5.4642
18.0979 32.5153 -5.4972
17.5895 32.3588 -5.4923
17.1730 32.3598 -5.5134
17.1856 33.1811 -5.6742
16.5523 32.7573 -5.6216
16.0329 32.5350 -5.6028
15.7604 32.8074 -5.6685
15.3960 32.8899 -5.7011
15.0022 32.9043 -5.7214
14.6115 32.9187 -5.7412
14.2237 32.9332 -5.7604
13.8389 32.9476 -5.7791
6.8059 -4.5980 2.7163
6.9093 -4.5665 2.7172
7.0139 -4.5342 2.7182
7.1199 -4.5011 2.7192
7.2272 -4.4673 2.7202
7.3359 -4.4328 2.7212
7.4461 -4.3974 2.7223
7.5578 -4.3613 2.7234
7.6710 -4.3243 2.7245
7.7587 -4.2716 2.7162
7.7298 -4.1551 2.6674
7.6940 -4.0369 2.6172
7.6589 -3.9211 2.5681
7.6245 -3.8077 2.5201
7.5908 -3.6965 2.4733
7.5578 -3.5875 2.4275
7.5387 -3.4868 2.3869
7.5205 -3.3878 2.3473
7.5025 -3.2903 2.3083
7.4847 -3.1941 2.2701
7.4673 -3.0994 2.2326
7.4500 -3.0059 2.1957
7.4395 -2.9163 2.1613
7.4496 -2.8355 2.1333
7.4597 -2.7551 2.1056
7.4697 -2.6752 2.0782
7.4797 -2.5958 2.0511
7.4896 -2.5167 2.0243
7.4994 -2.4381 1.9977
7.5092 -2.3598 1.9714
7.5190 -2.2818 1.9453
7.5305 -2.2047 1.9199
7.5676 -2.1352 1.9012
7.6048 -2.0654 1.8825
7.6422 -1.9953 1.8640
7.6798 -1.9250 1.8454
7.7175 -1.8544 1.8270
7.7553 -1.7835 1.8085
7.7934 -1.7123 1.7902
7.8316 -1.6407 1.7719
7.8699 -1.5688 1.7536
7.9241 -1.4995 1.7388
7.9820 -1.4301 1.7246
8.0405 -1.3600 1.7105
8.0996 -1.2891 1.6963
8.1594 -1.2175 1.6821
8.2198 -1.1450 1.6679
8.2809 -1.0717 1.6537
8.3428 -0.9976 1.6394
8.4146 -0.9236 1.6269
8.4965 -0.8494 1.6161
8.5798 -0.7739 1.6052
8.6645 -0.6972 1.5942
8.7507 -0.6191 1.5833
8.8385 -0.5395 1.5722
8.9279 -0.4585 1.5611
9.0409 -0.3769 1.5537
9.1631 -0.2935 1.5474
9.2885 -0.2079 1.5410
9.4172 -0.1200 1.5346
9.5566 -0.0298 1.5294
9.8035 0.0638 1.5403
10.0635 0.1624 1.5521
10.6297 0.2738 1.6088
12.0932 0.4278 1.7957
12.9960 0.5848 1.8928
14.0451 0.7673 2.0059
12.9549 0.8326 1.8136
14.0298 1.0370 1.9248
12.9595 1.0830 1.7418
12.9400 1.2065 1.7032
12.9206 1.3298 1.6649
12.9012 1.4529 1.6269
12.8819 1.5759 1.5891
12.8625 1.6988 1.5515
12.8432 1.8216 1.5142
12.8068 1.9418 1.4751
25.9954 4.1965 2.9239
12.7423 2.1824 1.3988
28.7267 5.2037 3.0763
29.4651 5.6292 3.0763
30.2404 6.0779 3.0763
31.0558 6.5516 3.0763
31.9145 7.0524 3.0763
32.8202 7.5826 3.0763
33.7771 8.1449 3.0763
34.7900 8.7422 3.0763
35.8638 9.3776 3.0763
37.0048 10.0552 3.0763
38.2196 10.7789 3.0763
39.5158 11.5537 3.0763
40.9021 12.3850 3.0763
42.3886 13.2791 3.0763
43.9870 14.2434 3.0763
45.7107 15.2863 3.0763
27.1766 16.0570 0.2203
26.9982 16.3039 0.1432
27.1089 16.7287 0.0673
26.6856 16.8243 -0.0094
26.3380 16.9618 -0.0844
25.9954 17.0976 -0.1579
18.5289 15.5336 -0.7840
11.0432 12.6544 -1.0906
11.0233 12.8835 -1.1327
11.0029 13.1170 -1.1753
11.0011 13.3784 -1.2206
11.0104 13.6600 -1.2680
10.2722 13.0026 -1.2271
10.2735 13.2694 -1.2723
10.5919 13.9612 -1.3591
10.3018 13.8589 -1.3689
10.2927 14.1342 -1.4156
9.8086 13.7510 -1.3958
9.4483 13.5248 -1.3906
9.8016 14.3284 -1.4915
9.6826 14.4573 -1.5228
8.6984 13.2683 -1.4136
9.4424 14.7170 -1.5852
9.1319 14.5462 -1.5834
8.6503 14.0852 -1.5489
8.3297 13.8680 -1.5400
8.7383 14.8786 -1.6678
20.0842 36.6400 -4.2162
19.6060 36.6214 -4.2484
18.6338 35.6478 -4.1679
18.4839 36.2293 -4.2679
18.2030 36.5681 -4.3392
17.7453 36.5511 -4.3676
17.3947 36.7509 -4.4212
17.0020 36.8613 -4.4634
18.0719 40.2245 -4.9013
16.5379 37.8087 -4.6348
16.4498 38.6470 -4.7653
14.8861 35.9597 -4.4588
6.0215 -3.9653 2.7516
6.1072 -3.9328 2.7524
6.1941 -3.9000 2.7535
6.2820 -3.8665 2.7546
6.3708 -3.8323 2.7557
6.4605 -3.7974 2.7569
6.5511 -3.7618 2.7581
6.6428 -3.7254 2.7593
6.7354 -3.6882 2.7606
6.8291 -3.6502 2.7619
6.9238 -3.6114 2.7632
7.0196 -3.5718 2.7646
7.1166 -3.5314 2.7659
7.2147 -3.4901 2.7674
7.3139 -3.4478 2.7688
7.4144 -3.4047 2.7703
7.5154 -3.3603 2.7716
7.4974 -3.2626 2.7291
7.4796 -3.1663 2.6875
7.4621 -3.0713 2.6466
7.4448 -2.9777 2.6064
7.4426 -2.8912 2.5721
7.4528 -2.8101 2.5425
7.4629 -2.7295 2.5133
7.4729 -2.6493 2.4844
7.4829 -2.5696 2.4558
7.4929 -2.4903 2.4276
7.5028 -2.4114 2.3997
7.5126 -2.3329 2.3721
7.5224 -2.2547 2.3447
7.5436 -2.1802 2.3212
7.5809 -2.1103 2.3028
7.6183 -2.0401 2.2846
7.6559 -1.9697 2.2664
7.6937 -1.8990 2.2483
7.7315 -1.8281 2.2303
7.7696 -1.7568 2.2125
7.8078 -1.6852 2.1947
7.8462 -1.6133 2.1770
7.8888 -1.5418 2.1605
7.9465 -1.4727 2.1481
8.0048 -1.4028 2.1357
8.0637 -1.3322 2.1234
8.1232 -1.2609 2.1112
8.1833 -1.1888 2.0989
8.2441 -1.1158 2.0868
8.3057 -1.0421 2.0746
8.3679 -0.9675 2.0625
8.4476 -0.8937 2.0545
8.5302 -0.8189 2.0469
8.6141 -0.7428 2.0394
8.6995 -0.6654 2.0320
8.7865 -0.5866 2.0245
8.8750 -0.5064 2.0172
8.9704 -0.4250 2.0111
9.0909 -0.3428 2.0102
9.2144 -0.2584 2.0094
9.3412 -0.1719 2.0088
9.4714 -0.0830 2.0084
9.6572 0.0083 2.0191
9.9093 0.1039 2.0425
10.1749 0.2046 2.0674
11.5418 0.3431 2.3116
12.4533 0.4900 2.4582
13.4123 0.6567 2.6091
14.5504 0.8525 2.7890
12.9469 0.8832 2.4450
12.9224 1.0061 2.4041
12.9331 1.1317 2.3700
12.9321 1.2566 2.3340
12.9128 1.3796 2.2949
12.8934 1.5025 2.2561
12.8741 1.6253 2.2177
12.8548 1.7479 2.1795
12.8355 1.8704 2.1417
12.7682 1.9854 2.0962
12.7540 2.1082 2.0599
18.4056 3.2232 2.9239
19.6920 3.6426 3.0763
20.0287 3.9030 3.0763
20.3755 4.1728 3.0763
20.7329 4.4525 3.0763
21.1014 4.7426 3.0763
21.4817 5.0438 3.0763
21.8744 5.3566 3.0763
22.2802 5.6816 3.0763
22.6997 6.0196 3.0763
23.1338 6.3713 3.0763
23.5833 6.7375 3.0763
24.0492 7.1191 3.0763
24.5324 7.5171 3.0763
25.0341 7.9325 3.0763
25.5552 8.3663 3.0763
26.0972 8.8198 3.0763
26.6614 9.2944 3.0763
27.2493 9.7914 3.0763
27.8625 10.3124 3.0763
28.5028 10.8591 3.0763
29.1723 11.4335 3.0763
29.8729 12.0376 3.0763
30.6072 12.6737 3.0763
31.3777 13.3443 3.0763
32.1874 14.0522 3.0763
33.0396 14.8005 3.0763
33.9376 15.5928 3.0763
34.8857 16.4328 3.0763
34.6872 16.7450 2.9733
35.1200 17.3686 2.9239
36.1916 18.3301 2.9239
37.3314 19.3568 2.9239
38.5465 20.4556 2.9239
41.9215 22.7616 3.0763
43.3846 24.0947 3.0763
18.5192 15.5447 0.3667
10.7412 12.7762 -0.3501
10.7077 12.9894 -0.3837
10.6732 13.2060 -0.4176
10.6281 13.4137 -0.4513
10.5516 13.5856 -0.4838
10.4741 13.7589 -0.5163
9.9969 13.3997 -0.5277
9.9946 13.6713 -0.5632
10.1581 14.1819 -0.6092
9.6440 13.7440 -0.6140
9.1977 13.3826 -0.6202
9.1006 13.5209 -0.6486
9.3143 14.1331 -0.7003
9.3882 14.5514 -0.7433
8.8539 14.0210 -0.7372
8.5323 13.8076 -0.7461
8.9018 14.7242 -0.8164
8.7372 14.7753 -0.8396
16.5369 38.3641 -2.7448
5.6656 -3.6323 2.9228
5.7422 -3.5987 2.9238
5.8195 -3.5644 2.9248
5.8387 -3.4943 2.8968
5.8337 -3.4107 2.8573
5.8291 -3.3285 2.8188
5.8390 -3.2556 2.7879
5.9141 -3.2188 2.7883
5.9920 -3.1826 2.7897
6.0703 -3.1454 2.7910
6.1492 -3.1076 2.7924
6.2311 -3.0700 2.7948
6.3130 -3.0313 2.7968
6.3950 -2.9916 2.7986
6.4779 -2.9510 2.8005
6.5616 -2.9096 2.8024
6.6462 -2.8674 2.8043
6.7316 -2.8242 2.8063
6.8178 -2.7802 2.8083
6.9058 -2.7357 2.8107
6.9993 -2.6919 2.8150
7.0940 -2.6472 2.8193
7.1866 -2.6003 2.8225
7.2788 -2.5518 2.8251
7.3720 -2.5023 2.8278
7.4729 -2.4539 2.8330
7.5064 -2.3825 2.8126
7.5163 -2.3037 2.7835
7.5261 -2.2254 2.7548
7.5578 -2.1536 2.7344
7.5953 -2.0833 2.7163
7.6330 -2.0127 2.6983
7.6708 -1.9419 2.6805
7.7087 -1.8709 2.6628
7.7468 -1.7995 2.6453
7.7850 -1.7279 2.6279
7.8234 -1.6560 2.6106
7.8620 -1.5837 2.5935
7.9126 -1.5133 2.5804
7.9707 -1.4437 2.5697
8.0294 -1.3733 2.5591
8.0887 -1.3023 2.5486
8.1486 -1.2304 2.5382
8.2091 -1.1578 2.5279
8.2704 -1.0844 2.5178
8.3323 -1.0101 2.5077
8.4013 -0.9357 2.4997
8.4832 -0.8615 2.4953
8.5665 -0.7860 2.4910
8.6512 -0.7092 2.4869
8.7374 -0.6311 2.4830
8.8251 -0.5517 2.4792
8.9144 -0.4707 2.4756
9.0230 -0.3891 2.4770
9.1449 -0.3059 2.4817
9.2699 -0.2206 2.4866
9.3982 -0.1330 2.4920
9.5300 -0.0430 2.4978
9.7669 0.0499 2.5302
10.0248 0.1477 2.5669
10.4995 0.2556 2.6572
11.6896 0.3970 2.9239
11.8279 0.5154 2.9239
11.9683 0.6366 2.9239
12.1107 0.7607 2.9239
12.2553 0.8877 2.9239
12.4021 1.0178 2.9239
12.5513 1.1510 2.9239
12.7028 1.2875 2.9239
12.8567 1.4274 2.9239
13.0131 1.5708 2.9239
13.1722 1.7177 2.9239
13.3339 1.8684 2.9239
13.4984 2.0229 2.9239
13.6657 2.1814 2.9239
12.7460 2.1593 2.6936
14.0093 2.5108 2.9239
14.9251 2.8219 3.0763
15.1141 3.0069 3.0763
15.3067 3.1969 3.0763
15.5029 3.3920 3.0763
15.7029 3.5926 3.0763
15.9067 3.7986 3.0763
16.1146 4.0105 3.0763
16.3267 4.2283 3.0763
16.5431 4.4524 3.0763
16.7640 4.6830 3.0763
16.9896 4.9203 3.0763
17.2201 5.1646 3.0763
17.4555 5.4162 3.0763
17.6961 5.6754 3.0763
17.9422 5.9425 3.0763
18.1939 6.2179 3.0763
18.4515 6.5019 3.0763
18.7152 6.7948 3.0763
18.9852 7.0972 3.0763
19.2619 7.4094 3.0763
19.5455 7.7318 3.0763
19.8363 8.0650 3.0763
20.1346 8.4094 3.0763
20.4408 8.7656 3.0763
20.7552 9.1341 3.0763
21.0783 9.5156 3.0763
21.4103 9.9107 3.0763
21.7518 10.3200 3.0763
22.1032 10.7443 3.0763
22.4650 11.1845 3.0763
22.8378 11.6412 3.0763
23.2220 12.1155 3.0763
23.6183 12.6084 3.0763
24.0274 13.1207 3.0763
24.4498 13.6536 3.0763
24.8865 14.2085 3.0763
25.3381 14.7864 3.0763
25.3637 15.1254 3.0236
24.9873 15.2238 2.9239
25.4643 15.8473 2.9239
25.9593 16.4988 2.9239
26.4734 17.1801 2.9239
27.0077 17.8931 2.9239
27.5635 18.6400 2.9239
29.6092 20.4355 3.0763
30.2442 21.3002 3.0763
30.9069 22.2088 3.0763
31.5993 23.1643 3.0763
32.3236 24.1705 3.0763
33.0822 25.2311 3.0763
33.8777 26.3507 3.0763
34.7134 27.5341 3.0763
35.5922 28.7864 3.0763
36.5181 30.1141 3.0763
18.5073 15.5598 1.5185
36.6194 31.3861 2.9239
36.4312 33.0759 2.6676
35.6611 33.0018 2.5321
34.8367 32.8605 2.3960
34.0354 32.7232 2.2648
33.2560 32.5896 2.1384
32.4976 32.4596 2.0165
31.6472 32.2192 1.8922
31.0284 32.1982 1.7847
30.3274 32.0780 1.6752
29.6438 31.9609 1.5695
28.9767 31.8466 1.4673
28.3256 31.7350 1.3687
27.6897 31.6260 1.2733
27.0684 31.5195 1.1811
26.3773 31.3161 1.0886
25.8733 31.3211 1.0061
25.2920 31.2215 0.9228
24.7231 31.1240 0.8421
10.2773 13.1957 0.3250
10.2395 13.4104 0.2985
10.2010 13.6289 0.2720
10.1615 13.8510 0.2454
9.9275 13.8080 0.2146
9.9783 14.1635 0.1901
9.6037 13.9138 0.1580
9.4314 13.9488 0.1304
9.1562 13.8264 0.1022
8.8890 13.7073 0.0752
16.8131 38.5420 -0.7673
16.4494 38.7266 -0.8151
5.1136 -3.1874 2.9465
5.1797 -3.1546 2.9475
5.2462 -3.1212 2.9484
5.3131 -3.0872 2.9494
5.3806 -3.0527 2.9506
5.4487 -3.0177 2.9518
5.5174 -2.9821 2.9531
5.5869 -2.9461 2.9547
5.6570 -2.9094 2.9563
5.7275 -2.8720 2.9580
5.7722 -2.8211 2.9462
5.7780 -2.7514 2.9149
5.7838 -2.6822 2.8841
5.7922 -2.6150 2.8552
5.8057 -2.5505 2.8292
5.8589 -2.5034 2.8227
5.9303 -2.4633 2.8249
6.0022 -2.4224 2.8271
6.0747 -2.3807 2.8293
6.1478 -2.3382 2.8315
6.2215 -2.2949 2.8338
6.2990 -2.2519 2.8375
6.3746 -2.2071 2.8402
6.4509 -2.1615 2.8429
6.5279 -2.1149 2.8456
6.6055 -2.0674 2.8484
6.6838 -2.0190 2.8512
6.7691 -1.9715 2.8566
6.8513 -1.9217 2.8605
6.9326 -1.8705 2.8638
7.0146 -1.8182 2.8670
7.0994 -1.7654 2.8711
7.1920 -1.7130 2.8780
7.2798 -1.6582 2.8827
7.3659 -1.6015 2.8864
7.4557 -1.5443 2.8912
7.5519 -1.4869 2.8983
7.6420 -1.4268 2.9026
7.7303 -1.3649 2.9059
7.8249 -1.3026 2.9113
7.9163 -1.2383 2.9151
8.0027 -1.1717 2.9169
8.0896 -1.1038 2.9186
8.1764 -1.0345 2.9200
8.2635 -0.9638 2.9212
8.3519 -0.8918 2.9226
8.4404 -0.8183 2.9238
8.5264 -0.7431 2.9239
8.6129 -0.6665 2.9239
8.7000 -0.5884 2.9239
8.7879 -0.5089 2.9239
8.8765 -0.4279 2.9239
8.9659 -0.3454 2.9239
9.0560 -0.2613 2.9239
9.1469 -0.1756 2.9239
9.2386 -0.0883 2.9239
9.3311 0.0007 2.9239
9.4244 0.0914 2.9239
9.5186 0.1838 2.9239
9.6136 0.2781 2.9239
9.7095 0.3741 2.9239
9.8062 0.4721 2.9239
9.9039 0.5719 2.9239
10.0025 0.6738 2.9239
10.1020 0.7776 2.9239
10.2025 0.8835 2.9239
10.3039 0.9916 2.9239
10.4063 1.1018 2.9239
10.5098 1.2142 2.9239
10.6142 1.3290 2.9239
10.7198 1.4460 2.9239
10.8263 1.5655 2.9239
10.9340 1.6874 2.9239
11.0428 1.8119 2.9239
11.1527 1.9389 2.9239
11.6353 2.1369 3.0203
11.9690 2.3158 3.0763
12.0885 2.4581 3.0763
12.2092 2.6035 3.0763
12.3312 2.7519 3.0763
12.4545 2.9036 3.0763
12.5793 3.0585 3.0763
12.7054 3.2169 3.0763
12.8330 3.3787 3.0763
12.9620 3.5441 3.0763
13.0926 3.7131 3.0763
13.2247 3.8860 3.0763
13.3583 4.0627 3.0763
13.4936 4.2434 3.0763
13.6305 4.4283 3.0763
13.7690 4.6174 3.0763
13.9093 4.8109 3.0763
14.0512 5.0088 3.0763
14.1950 5.2114 3.0763
14.3406 5.4188 3.0763
14.4881 5.6311 3.0763
14.6374 5.8485 3.0763
14.7887 6.0711 3.0763
14.9420 6.2991 3.0763
15.0973 6.5327 3.0763
15.2548 6.7720 3.0763
15.4143 7.0173 3.0763
15.5760 7.2687 3.0763
15.7400 7.5264 3.0763
15.9063 7.7906 3.0763
16.0749 8.0616 3.0763
16.2459 8.3395 3.0763
16.4193 8.6247 3.0763
16.5953 8.9173 3.0763
16.7739 9.2176 3.0763
16.9550 9.5259 3.0763
17.1390 9.8425 3.0763
17.3257 10.1676 3.0763
17.5152 10.5016 3.0763
17.7077 10.8447 3.0763
17.9031 11.1973 3.0763
18.1016 11.5598 3.0763
18.3033 11.9325 3.0763
18.5083 12.3157 3.0763
18.7165 12.7100 3.0763
18.9281 13.1156 3.0763
19.1432 13.5331 3.0763
19.3620 13.9629 3.0763
19.0963 14.0464 2.9996
18.8292 14.1250 2.9239
19.0479 14.5713 2.9239
19.2705 15.0313 2.9239
19.4969 15.5055 2.9239
19.7274 15.9944 2.9239
19.9619 16.4987 2.9239
18.5116 15.5959 2.6793
20.4440 17.5560 2.9239
21.7702 19.0543 3.0763
22.0357 19.6567 3.0763
22.3062 20.2789 3.0763
22.5819 20.9220 3.0763
22.8629 21.5867 3.0763
23.1494 22.2742 3.0763
23.4415 22.9852 3.0763
23.7394 23.7211 3.0763
24.0433 24.4828 3.0763
24.3534 25.2717 3.0763
24.6699 26.0889 3.0763
24.9928 26.9359 3.0763
25.3226 27.8141 3.0763
25.6594 28.7250 3.0763
25.7057 29.3308 3.0411
25.1564 29.2578 2.9364
25.3903 30.1014 2.9239
25.7391 31.1077 2.9239
25.3454 31.2294 2.8398
24.7816 31.1328 2.7384
24.2294 31.0382 2.6402
23.6885 30.9455 2.5451
23.1584 30.8547 2.4530
22.6386 30.7656 2.3637
10.0464 13.9278 1.0339
21.5579 30.4924 2.1863
21.0709 30.4119 2.1056
20.6535 30.4224 2.0334
20.1801 30.3413 1.9571
19.7150 30.2616 1.8832
19.2579 30.1833 1.8116
18.8084 30.1062 1.7422
18.3663 30.0305 1.6749
17.9315 29.9559 1.6097
17.5035 29.8826 1.5465
17.0822 29.8104 1.4853
16.6674 29.7393 1.4259
16.2050 29.5711 1.3639
15.8060 29.5067 1.3085
15.4571 29.5279 1.2585
15.0660 29.4609 1.2062
14.6803 29.3948 1.1555
14.2998 29.3296 1.1065
13.9245 29.2653 1.0590
13.5540 29.2018 1.0130
13.1883 29.1391 0.9685
12.8272 29.0772 0.9255
12.4705 29.0161 0.8838
12.1181 28.9557 0.8436
11.7699 28.8960 0.8047
11.4256 28.8370 0.7671
4.6472 -2.8116 2.9660
4.7049 -2.7800 2.9669
4.7629 -2.7478 2.9679
4.8211 -2.7150 2.9688
4.8796 -2.6818 2.9698
4.9384 -2.6479 2.9708
4.9974 -2.6135 2.9718
5.0568 -2.5785 2.9728
5.1164 -2.5428 2.9739
5.1763 -2.5066 2.9749
5.2365 -2.4698 2.9760
5.2971 -2.4324 2.9772
5.3582 -2.3944 2.9785
5.4204 -2.3561 2.9802
5.4829 -2.3172 2.9820
5.5459 -2.2776 2.9839
5.6098 -2.2375 2.9860
5.6740 -2.1967 2.9882
5.7385 -2.1552 2.9904
5.8035 -2.1129 2.9926
5.8286 -2.0557 2.9743
5.8433 -1.9949 2.9510
5.8600 -1.9350 2.9291
5.8766 -1.8753 2.9074
5.8931 -1.8157 2.8860
5.9146 -1.7577 2.8674
5.9572 -1.7057 2.8591
6.0227 -1.6596 2.8617
6.0890 -1.6128 2.8646
6.1557 -1.5651 2.8675
6.2229 -1.5165 2.8704
6.2906 -1.4671 2.8733
6.3607 -1.4171 2.8772
6.4299 -1.3659 2.8805
6.4997 -1.3138 2.8838
6.5697 -1.2606 2.8870
6.6400 -1.2064 2.8902
6.7126 -1.1515 2.8942
6.7857 -1.0955 2.8983
6.8569 -1.0381 2.9013
6.9280 -0.9795 2.9041
6.9991 -0.9198 2.9067
7.0734 -0.8594 2.9105
7.1455 -0.7974 2.9132
7.2169 -0.7342 2.9154
7.2870 -0.6698 2.9169
7.3574 -0.6042 2.9184
7.4275 -0.5373 2.9196
7.4979 -0.4694 2.9208
7.5680 -0.4002 2.9218
7.6390 -0.3298 2.9229
7.7091 -0.2582 2.9236
7.7787 -0.1854 2.9239
7.8477 -0.1113 2.9239
7.9171 -0.0360 2.9239
7.9868 0.0406 2.9239
8.0569 0.1184 2.9239
8.1274 0.1976 2.9239
8.1981 0.2781 2.9239
8.2692 0.3599 2.9239
8.3407 0.4430 2.9239
8.4125 0.5276 2.9239
8.4847 0.6136 2.9239
8.5572 0.7011 2.9239
8.6301 0.7901 2.9239
8.7034 0.8805 2.9239
8.7770 0.9725 2.9239
8.8510 1.0661 2.9239
8.9253 1.1613 2.9239
9.0000 1.2581 2.9239
9.0751 1.3566 2.9239
9.1506 1.4567 2.9239
9.2264 1.5587 2.9239
9.3026 1.6623 2.9239
9.8681 1.8600 3.0763
9.9491 1.9729 3.0763
10.0304 2.0878 3.0763
10.1122 2.2047 3.0763
10.1943 2.3237 3.0763
10.2769 2.4447 3.0763
10.3598 2.5680 3.0763
10.4432 2.6934 3.0763
10.5269 2.8210 3.0763
10.6110 2.9509 3.0763
10.6956 3.0831 3.0763
10.7805 3.2177 3.0763
10.8658 3.3548 3.0763
10.9514 3.4943 3.0763
11.0375 3.6363 3.0763
11.1240 3.7809 3.0763
11.2108 3.9282 3.0763
11.2980 4.0782 3.0763
11.3855 4.2308 3.0763
11.4734 4.3863 3.0763
11.5617 4.5447 3.0763
11.6503 4.7060 3.0763
11.7393 4.8703 3.0763
11.8286 5.0377 3.0763
11.9182 5.2081 3.0763
12.0082 5.3818 3.0763
12.0984 5.5587 3.0763
12.1890 5.7390 3.0763
12.2798 5.9226 3.0763
12.3710 6.1098 3.0763
12.4624 6.3004 3.0763
12.5541 6.4948 3.0763
12.6460 6.6928 3.0763
12.7381 6.8946 3.0763
12.8304 7.1003 3.0763
12.9229 7.3099 3.0763
13.0156 7.5236 3.0763
13.1085 7.7414 3.0763
13.2015 7.9634 3.0763
13.2946 8.1898 3.0763
13.3877 8.4205 3.0763
13.4810 8.6558 3.0763
13.5743 8.8957 3.0763
13.6675 9.1402 3.0763
13.7608 9.3896 3.0763
13.8540 9.6439 3.0763
13.9471 9.9031 3.0763
14.0402 10.1675 3.0763
14.1330 10.4372 3.0763
14.2256 10.7122 3.0763
14.3180 10.9926 3.0763
14.4101 11.2786 3.0763
14.5019 11.5703 3.0763
14.5933 11.8678 3.0763
14.6842 12.1712 3.0763
14.7747 12.4806 3.0763
14.8646 12.7963 3.0763
14.9539 13.1182 3.0763
14.8921 13.3121 3.0455
14.5694 13.2704 2.9622
14.4636 13.4234 2.9239
14.5457 13.7546 2.9239
14.6267 14.0924 2.9239
14.7067 14.4368 2.9239
14.7857 14.7882 2.9239
14.8635 15.1465 2.9239
14.9400 15.5119 2.9239
15.0152 15.8845 2.9239
15.0889 16.2645 2.9239
15.1611 16.6520 2.9239
16.0255 17.9356 3.0763
16.0978 18.3595 3.0763
16.1682 18.7915 3.0763
16.2363 19.2320 3.0763
16.3022 19.6810 3.0763
16.3658 20.1386 3.0763
16.4267 20.6049 3.0763
16.4849 21.0800 3.0763
16.5403 21.5642 3.0763
16.5925 22.0574 3.0763
16.6416 22.5597 3.0763
10.0248 13.8600 1.8481
9.9835 14.0792 1.8359
16.7673 24.1224 3.0763
16.8015 24.6621 3.0763
16.8314 25.2113 3.0763
16.8568 25.7700 3.0763
16.8932 26.9160 3.0763
16.8775 26.3382 3.0763
16.9038 27.5034 3.0763
16.0337 29.0666 2.9239
16.7144 27.7770 3.0409
16.0087 29.6781 2.9239
16.3293 27.7237 2.9710
15.9781 30.3004 2.9241
16.0644 27.8697 2.9239
15.1934 29.4817 2.7873
14.8108 29.4162 2.7250
16.0522 28.4638 2.9239
14.4334 29.3515 2.6647
14.0610 29.2877 2.6061
13.6934 29.2247 2.5494
13.3306 29.1625 2.4944
12.9723 29.1011 2.4411
12.6184 29.0404 2.3894
12.2688 28.9805 2.3395
11.9232 28.9213 2.2910
11.5817 28.8628 2.2442
11.2120 28.7229 2.1926
4.2467 -2.4890 2.9826
4.2977 -2.4586 2.9835
4.3488 -2.4278 2.9844
4.4000 -2.3965 2.9853
4.4515 -2.3647 2.9863
4.5031 -2.3324 2.9872
4.5549 -2.2995 2.9882
4.6069 -2.2661 2.9892
4.6590 -2.2322 2.9903
4.7113 -2.1977 2.9913
4.7639 -2.1627 2.9924
4.8165 -2.1272 2.9935
4.8694 -2.0910 2.9946
4.9225 -2.0543 2.9958
4.9758 -2.0170 2.9969
5.0293 -1.9791 2.9982
5.0829 -1.9407 2.9994
5.1368 -1.9016 3.0006
5.1908 -1.8618 3.0019
5.2451 -1.8215 3.0032
5.2996 -1.7805 3.0045
5.3542 -1.7389 3.0058
5.4091 -1.6966 3.0072
5.4643 -1.6536 3.0086
5.5196 -1.6100 3.0100
5.5781 -1.5665 3.0130
5.6355 -1.5219 3.0154
5.6936 -1.4766 3.0180
5.7518 -1.4306 3.0205
5.8103 -1.3838 3.0231
5.8689 -1.3362 3.0256
5.9279 -1.2878 3.0283
5.9875 -1.2387 3.0311
6.0474 -1.1888 3.0339
6.0843 -1.1337 3.0253
6.1119 -1.0765 3.0121
6.1403 -1.0192 2.9995
6.1687 -0.9616 2.9870
6.1973 -0.9038 2.9748
6.2293 -0.8461 2.9644
6.2615 -0.7880 2.9542
6.2939 -0.7296 2.9442
6.3278 -0.6710 2.9351
6.3643 -0.6121 2.9272
6.4030 -0.5529 2.9204
6.4458 -0.4935 2.9155
6.4915 -0.4336 2.9120
6.5480 -0.3735 2.9133
6.6061 -0.3127 2.9152
6.6632 -0.2508 2.9166
6.7204 -0.1879 2.9180
6.7772 -0.1240 2.9192
6.8341 -0.0591 2.9203
6.8906 0.0068 2.9212
6.9471 0.0736 2.9221
7.0036 0.1416 2.9229
7.0593 0.2105 2.9233
7.1147 0.2804 2.9236
7.1703 0.3514 2.9239
7.2253 0.4234 2.9239
7.2803 0.4964 2.9239
7.3353 0.5706 2.9239
7.3905 0.6458 2.9239
7.4456 0.7221 2.9239
7.5200 0.8016 2.9314
7.6029 0.8836 2.9419
7.7122 0.9706 2.9625
7.8296 1.0610 2.9859
7.9604 1.1556 3.0140
8.1144 1.2566 3.0504
8.2417 1.3562 3.0763
8.3001 1.4465 3.0763
8.3586 1.5382 3.0763
8.4171 1.6312 3.0763
8.4755 1.7256 3.0763
8.5340 1.8214 3.0763
8.5925 1.9187 3.0763
8.6509 2.0173 3.0763
8.7093 2.1174 3.0763
8.7677 2.2191 3.0763
8.8261 2.3222 3.0763
8.8844 2.4269 3.0763
8.9426 2.5331 3.0763
9.0008 2.6409 3.0763
9.0589 2.7503 3.0763
9.1169 2.8613 3.0763
9.1748 2.9740 3.0763
9.2326 3.0884 3.0763
9.2903 3.2044 3.0763
9.3479 3.3222 3.0763
9.4052 3.4418 3.0763
9.4625 3.5631 3.0763
9.5195 3.6862 3.0763
9.5764 3.8112 3.0763
9.6330 3.9380 3.0763
9.6894 4.0668 3.0763
9.7456 4.1974 3.0763
9.8015 4.3300 3.0763
9.8572 4.4645 3.0763
9.9125 4.6010 3.0763
9.9676 4.7396 3.0763
10.0223 4.8802 3.0763
10.0766 5.0229 3.0763
10.1306 5.1677 3.0763
10.1842 5.3147 3.0763
10.2373 5.4638 3.0763
10.2900 5.6151 3.0763
10.3423 5.7686 3.0763
10.3940 5.9244 3.0763
10.4453 6.0825 3.0763
10.4960 6.2429 3.0763
10.5460 6.4056 3.0763
10.5955 6.5707 3.0763
10.6444 6.7382 3.0763
10.6925 6.9081 3.0763
10.7400 7.0805 3.0763
10.7868 7.2554 3.0763
10.8327 7.4327 3.0763
10.8779 7.6127 3.0763
10.9222 7.7952 3.0763
10.9657 7.9802 3.0763
11.0081 8.1679 3.0763
11.0497 8.3583 3.0763
11.0902 8.5513 3.0763
11.1297 8.7470 3.0763
11.1681 8.9454 3.0763
11.2053 9.1465 3.0763
11.2414 9.3504 3.0763
11.2762 9.5571 3.0763
11.3097 9.7666 3.0763
11.3419 9.9789 3.0763
11.3727 10.1940 3.0763
11.4020 10.4120 3.0763
11.4298 10.6328 3.0763
11.4561 10.8565 3.0763
11.4807 11.0831 3.0763
11.5036 11.3126 3.0763
11.5248 11.5450 3.0763
11.5442 11.7803 3.0763
11.5616 12.0184 3.0763
11.5771 12.2595 3.0763
11.5906 12.5035 3.0763
11.5896 12.7368 3.0730
11.3489 12.7064 3.0068
11.1131 12.6765 2.9425
11.0471 12.8390 2.9239
11.0492 13.0845 2.9239
11.0490 13.3327 2.9239
11.0464 13.5835 2.9239
11.0412 13.8370 2.9239
11.0335 14.0930 2.9239
11.0231 14.3516 2.9239
11.0099 14.6127 2.9239
10.9939 14.8762 2.9239
10.0266 13.8337 2.6712
9.9388 13.9834 2.6531
10.9280 15.6810 2.9239
10.8998 15.9538 2.9239
11.4348 17.0747 3.0763
11.3982 17.3662 3.0763
11.3579 17.6597 3.0763
11.2661 18.2528 3.0763
11.3139 17.9553 3.0763
11.2144 18.5520 3.0763
10.8940 20.0707 3.0763
11.1587 18.8529 3.0763
10.8169 20.3780 3.0763
11.0989 19.1554 3.0763
10.7352 20.6861 3.0763
11.0349 19.4593 3.0763
10.6489 20.9948 3.0763
10.9666 19.7644 3.0763
10.5580 21.3041 3.0763
10.4622 21.6135 3.0763
10.3615 21.9231 3.0763
10.2558 22.2325 3.0763
10.1452 22.5416 3.0763
10.0294 22.8502 3.0763
9.9085 23.1580 3.0763
9.7824 23.4647 3.0763
9.6510 23.7702 3.0763
9.5143 24.0742 3.0763
9.3722 24.3764 3.0763
3.8979 -2.2080 2.9970
3.9433 -2.1790 2.9979
3.9888 -2.1497 2.9988
4.0343 -2.1198 2.9997
4.0799 -2.0895 3.0007
4.1257 -2.0587 3.0016
4.1715 -2.0275 3.0026
4.2174 -1.9957 3.0036
4.2634 -1.9635 3.0046
4.3095 -1.9308 3.0056
4.3558 -1.8976 3.0067
4.4021 -1.8639 3.0077
4.4485 -1.8297 3.0088
4.4951 -1.7950 3.0099
4.5417 -1.7597 3.0111
4.5884 -1.7239 3.0122
4.6353 -1.6876 3.0134
4.6822 -1.6508 3.0146
4.7293 -1.6134 3.0158
4.7764 -1.5754 3.0171
4.8237 -1.5369 3.0184
4.8712 -1.4978 3.0197
4.9187 -1.4582 3.0210
4.9663 -1.4179 3.0224
5.0141 -1.3771 3.0238
5.0619 -1.3357 3.0252
5.1099 -1.2936 3.0267
5.1579 -1.2509 3.0281
5.2061 -1.2076 3.0296
5.2545 -1.1637 3.0312
5.3030 -1.1191 3.0328
5.3516 -1.0739 3.0344
5.4004 -1.0280 3.0361
5.4492 -0.9815 3.0378
5.4980 -0.9342 3.0394
5.5470 -0.8862 3.0411
5.5961 -0.8376 3.0428
5.6453 -0.7882 3.0446
5.6946 -0.7381 3.0463
5.7418 -0.6870 3.0470
5.7898 -0.6353 3.0480
5.8414 -0.5832 3.0509
5.8921 -0.5302 3.0533
5.9424 -0.4764 3.0556
5.9922 -0.4217 3.0575
6.0421 -0.3662 3.0594
6.0921 -0.3099 3.0613
6.1416 -0.2528 3.0630
6.1909 -0.1948 3.0646
6.2402 -0.1361 3.0661
6.2898 -0.0764 3.0678
6.3385 -0.0159 3.0691
6.3872 0.0454 3.0704
6.4354 0.1076 3.0715
6.4836 0.1707 3.0725
6.5314 0.2346 3.0734
6.5788 0.2994 3.0741
6.6261 0.3650 3.0748
6.6733 0.4316 3.0755
6.7196 0.4990 3.0757
6.7657 0.5672 3.0760
6.8117 0.6364 3.0762
6.8574 0.7065 3.0763
6.9027 0.7774 3.0763
6.9479 0.8493 3.0763
6.9930 0.9221 3.0763
7.0380 0.9958 3.0763
7.0828 1.0705 3.0763
7.1275 1.1462 3.0763
7.1720 1.2228 3.0763
7.2164 1.3005 3.0763
7.2607 1.3791 3.0763
7.3047 1.4587 3.0763
7.3486 1.5394 3.0763
7.3923 1.6211 3.0763
7.4358 1.7039 3.0763
7.4791 1.7877 3.0763
7.5222 1.8726 3.0763
7.5651 1.9585 3.0763
7.6077 2.0456 3.0763
7.6501 2.1338 3.0763
7.6922 2.2230 3.0763
7.7341 2.3134 3.0763
7.7756 2.4050 3.0763
7.8169 2.4977 3.0763
7.8579 2.5916 3.0763
7.8985 2.6866 3.0763
7.9389 2.7828 3.0763
7.9789 2.8803 3.0763
8.0185 2.9789 3.0763
8.0577 3.0788 3.0763
8.0966 3.1799 3.0763
8.1351 3.2822 3.0763
8.1731 3.3858 3.0763
8.2108 3.4907 3.0763
8.2479 3.5968 3.0763
8.2847 3.7043 3.0763
8.3209 3.8130 3.0763
8.3566 3.9231 3.0763
8.3918 4.0345 3.0763
8.4265 4.1472 3.0763
8.4606 4.2612 3.0763
8.4942 4.3767 3.0763
8.5271 4.4935 3.0763
8.5594 4.6116 3.0763
8.5911 4.7312 3.0763
8.6222 4.8521 3.0763
8.6525 4.9744 3.0763
8.6821 5.0982 3.0763
8.7110 5.2234 3.0763
8.7392 5.3500 3.0763
8.7666 5.4780 3.0763
8.7932 5.6074 3.0763
8.8189 5.7383 3.0763
8.8438 5.8707 3.0763
8.8678 6.0045 3.0763
8.8910 6.1398 3.0763
8.9131 6.2765 3.0763
8.9343 6.4147 3.0763
8.9545 6.5544 3.0763
8.9737 6.6955 3.0763
8.9919 6.8382 3.0763
9.0089 6.9822 3.0763
9.0248 7.1278 3.0763
9.0396 7.2748 3.0763
9.0532 7.4233 3.0763
9.0655 7.5732 3.0763
9.0766 7.7247 3.0763
9.0864 7.8775 3.0763
9.0949 8.0318 3.0763
9.1021 8.1875 3.0763
9.1078 8.3447 3.0763
9.1121 8.5033 3.0763
9.1149 8.6632 3.0763
9.1163 8.8246 3.0763
9.1160 8.9874 3.0763
9.1142 9.1515 3.0763
9.1107 9.3169 3.0763
9.1056 9.4836 3.0763
9.0988 9.6517 3.0763
9.0902 9.8210 3.0763
9.0798 9.9916 3.0763
9.0676 10.1634 3.0763
9.0535 10.3364 3.0763
9.0374 10.5105 3.0763
9.0194 10.6858 3.0763
8.9994 10.8622 3.0763
8.9774 11.0397 3.0763
8.9532 11.2181 3.0763
8.9269 11.3975 3.0763
8.8984 11.5779 3.0763
8.8677 11.7591 3.0763
8.8348 11.9412 3.0763
8.7995 12.1241 3.0763
8.7153 12.2423 3.0600
8.5313 12.2191 3.0091
8.3502 12.1962 2.9597
8.2067 12.2251 2.9239
8.1615 12.4018 2.9239
8.1139 12.5789 2.9239
8.0638 12.7563 2.9239
8.0113 12.9340 2.9239
7.9562 13.1119 2.9239
7.8985 13.2899 2.9239
7.8381 13.4680 2.9239
7.7752 13.6459 2.9239
7.7095 13.8238 2.9239
7.5700 14.1788 2.9239
7.6411 14.0015 2.9239
7.4961 14.3558 2.9239
7.0843 15.2313 2.9239
7.4194 14.5322 2.9239
6.9933 15.4038 2.9239
7.3399 14.7081 2.9239
7.2590 16.3870 3.0763
7.1571 16.5661 3.0763
7.2576 14.8833 2.9239
7.0521 16.7438 3.0763
7.1724 15.0577 2.9239
6.9441 16.9200 3.0763
6.8329 17.0945 3.0763
6.7187 17.2672 3.0763
6.6013 17.4381 3.0763
3.5902 -1.9601 3.0098
3.6309 -1.9325 3.0107
3.6715 -1.9045 3.0116
3.7122 -1.8761 3.0124
3.7530 -1.8473 3.0134
3.7938 -1.8181 3.0143
3.8346 -1.7884 3.0152
3.8755 -1.7583 3.0162
3.9164 -1.7278 3.0172
3.9574 -1.6968 3.0182
3.9984 -1.6654 3.0192
4.0394 -1.6335 3.0203
4.0805 -1.6012 3.0214
4.1217 -1.5684 3.0225
4.1629 -1.5351 3.0236
4.2041 -1.5014 3.0247
4.2453 -1.4672 3.0259
4.2865 -1.4324 3.0270
4.3277 -1.3972 3.0280
4.3691 -1.3615 3.0293
4.4106 -1.3254 3.0306
4.4521 -1.2887 3.0319
4.4937 -1.2515 3.0332
4.5352 -1.2138 3.0346
4.5768 -1.1756 3.0359
4.6185 -1.1369 3.0373
4.6601 -1.0976 3.0387
4.7017 -1.0577 3.0401
4.7434 -1.0173 3.0415
4.7851 -0.9764 3.0429
4.8268 -0.9348 3.0444
4.8686 -0.8928 3.0459
4.9096 -0.8500 3.0470
4.9490 -0.8064 3.0471
4.9884 -0.7622 3.0471
5.0277 -0.7174 3.0472
5.0670 -0.6721 3.0473
5.1062 -0.6263 3.0474
5.1453 -0.5798 3.0475
5.1843 -0.5328 3.0476
5.2233 -0.4852 3.0477
5.2622 -0.4370 3.0478
5.3010 -0.3882 3.0479
5.3397 -0.3388 3.0480
5.3783 -0.2888 3.0481
5.4168 -0.2382 3.0482
5.4553 -0.1869 3.0483
5.4936 -0.1351 3.0484
5.5318 -0.0826 3.0485
5.5700 -0.0294 3.0486
5.6080 0.0244 3.0487
5.6458 0.0788 3.0488
5.6929 0.1341 3.0539
5.7351 0.1901 3.0565
5.7762 0.2468 3.0584
5.8172 0.3043 3.0604
5.8580 0.3625 3.0624
5.8981 0.4214 3.0640
5.9379 0.4811 3.0655
5.9774 0.5415 3.0670
6.0167 0.6027 3.0684
6.0553 0.6646 3.0696
6.0938 0.7272 3.0707
6.1317 0.7906 3.0717
6.1693 0.8547 3.0726
6.2065 0.9196 3.0734
6.2430 0.9852 3.0739
6.2794 1.0515 3.0745
6.3155 1.1187 3.0751
6.3511 1.1866 3.0756
6.3860 1.2551 3.0757
6.4206 1.3245 3.0759
6.4549 1.3946 3.0761
6.4889 1.4656 3.0763
6.5223 1.5372 3.0763
6.5554 1.6096 3.0763
6.5882 1.6829 3.0763
6.6206 1.7570 3.0763
6.6528 1.8318 3.0763
6.6846 1.9076 3.0763
6.7161 1.9841 3.0763
6.7472 2.0615 3.0763
6.7780 2.1397 3.0763
6.8083 2.2188 3.0763
6.8383 2.2987 3.0763
6.8680 2.3795 3.0763
6.8972 2.4611 3.0763
6.9259 2.5436 3.0763
6.9543 2.6270 3.0763
6.9821 2.7112 3.0763
7.0096 2.7964 3.0763
7.0365 2.8824 3.0763
7.0630 2.9693 3.0763
7.0890 3.0571 3.0763
7.1145 3.1459 3.0763
7.1394 3.2355 3.0763
7.1638 3.3260 3.0763
7.1876 3.4174 3.0763
7.2109 3.5097 3.0763
7.2336 3.6030 3.0763
7.2557 3.6971 3.0763
7.2771 3.7922 3.0763
7.2979 3.8882 3.0763
7.3181 3.9851 3.0763
7.3376 4.0829 3.0763
7.3564 4.1817 3.0763
7.3745 4.2814 3.0763
7.3920 4.3820 3.0763
7.4086 4.4836 3.0763
7.4245 4.5860 3.0763
7.4396 4.6894 3.0763
7.4539 4.7937 3.0763
7.4674 4.8989 3.0763
7.4801 5.0050 3.0763
7.4919 5.1121 3.0763
7.5028 5.2200 3.0763
7.5128 5.3288 3.0763
7.5219 5.4386 3.0763
7.5301 5.5492 3.0763
7.5373 5.6607 3.0763
7.5435 5.7732 3.0763
7.5488 5.8864 3.0763
7.5529 6.0006 3.0763
7.5560 6.1156 3.0763
7.5581 6.2314 3.0763
7.5591 6.3481 3.0763
7.5589 6.4656 3.0763
7.5576 6.5839 3.0763
7.5552 6.7030 3.0763
7.5331 7.1871 3.0763
7.5515 6.8229 3.0763
7.5244 7.3100 3.0763
7.5144 7.4335 3.0763
7.5466 6.9435 3.0763
7.5031 7.5578 3.0763
7.5405 7.0649 3.0763
7.4903 7.6827 3.0763
7.4607 7.9345 3.0763
7.4763 7.8083 3.0763
7.3365 8.7033 3.0763
7.4438 8.0613 3.0763
7.3104 8.8331 3.0763
7.4254 8.1886 3.0763
7.2826 8.9633 3.0763
7.4055 8.3166 3.0763
7.2532 9.0939 3.0763
7.1550 9.4874 3.0763
7.2222 9.2247 3.0763
7.3840 8.4450 3.0763
7.1189 9.6191 3.0763
7.1895 9.3559 3.0763
7.3610 8.5739 3.0763
7.0809 9.7509 3.0763
6.9112 10.2793 3.0763
6.8642 10.4114 3.0763
7.0412 9.8829 3.0763
6.6005 11.0697 3.0763
6.8153 10.5435 3.0763
6.1974 11.8062 3.0656
6.9997 10.0150 3.0763
6.5419 11.2006 3.0763
6.7644 10.6753 3.0763
6.9564 10.1472 3.0763
6.0522 11.7875 3.0281
6.7117 10.8071 3.0763
6.4814 11.3310 3.0763
5.9087 11.7688 2.9916
6.6571 10.9385 3.0763
6.4188 11.4610 3.0763
5.7668 11.7503 2.9561
6.3543 11.5904 3.0763
5.6310 11.7410 2.9239
6.2877 11.7193 3.0763
