ply
format ascii 1.0
element vertex 1788
property float32 x
property float32 y
property float32 z
end_header
-14.5758 7.0424 -5.1544
-14.5982 6.8729 -5.0919
-14.8531 6.8114 -5.1102
-23.3557 8.7893 -7.3018
-23.1140 8.4364 -7.1281
-23.0931 8.1693 -7.0249
-23.2113 7.9524 -6.9650
-23.8192 7.8972 -7.0502
-24.1783 7.7509 -7.0591
-24.1350 7.4741 -6.9504
-24.0162 7.1775 -6.8218
-24.1912 6.9699 -6.7775
-23.9425 6.6428 -6.6160
-23.8698 6.3695 -6.5054
-40.6477 5.4479 -9.2184
-40.6536 5.0455 -9.0864
-40.4273 4.6177 -8.9044
-27.5327 -6.8366 -3.1500
-40.0259 -9.1269 -4.7895
-23.7721 -6.1456 -2.6576
-20.8734 -5.6104 -2.2791
-32.5573 -7.7533 -3.8102
-18.6956 -5.2179 -1.9927
-16.0019 -4.6320 -1.6640
-15.3426 -4.6012 -1.5557
-14.2760 -4.7331 -1.3368
-14.0446 -4.8065 -1.2790
-14.9016 -4.6252 -1.4724
-14.5774 -4.6783 -1.4027
-13.8192 -4.8779 -1.2228
-13.5995 -4.9476 -1.1684
-13.4189 -5.0282 -1.1183
-12.7856 -5.3591 -0.9340
-13.2504 -5.1106 -1.0702
-12.6624 -5.4509 -0.8924
-13.0849 -5.1915 -1.0232
-12.9222 -5.2711 -0.9772
-12.5405 -5.5417 -0.8515
-12.4199 -5.6316 -0.8112
-12.3006 -5.7205 -0.7717
-11.9950 -6.1496 -0.6281
-12.2215 -5.8272 -0.7351
-11.9199 -6.2566 -0.5931
-12.1458 -5.9350 -0.6991
-11.8561 -6.3692 -0.5590
-12.0703 -6.0424 -0.6634
-11.8145 -6.4941 -0.5260
-11.7728 -6.6194 -0.4932
-11.6220 -7.1370 -0.3637
-11.5926 -7.2737 -0.3317
-11.7309 -6.7452 -0.4606
-11.6888 -6.8716 -0.4280
-11.5630 -7.4114 -0.2998
-11.6512 -7.0013 -0.3957
-11.5325 -7.5497 -0.2678
-11.4961 -7.6853 -0.2357
-11.3570 -8.2439 -0.1077
-11.4595 -7.8218 -0.2037
-11.3296 -8.3923 -0.0758
-11.4225 -7.9593 -0.1717
-11.3020 -8.5423 -0.0438
-11.2740 -8.6937 -0.0117
-11.3841 -8.0968 -0.1396
-11.2458 -8.8467 0.0205
-11.2173 -9.0014 0.0528
-11.1885 -9.1577 0.0851
-40.7273 25.1462 -14.0612
-41.0125 24.7532 -13.9458
-41.1383 24.2659 -13.7776
-41.5396 23.9412 -13.7025
-14.9946 8.4420 -4.8718
-41.9087 22.4966 -13.2096
-23.1554 9.0562 -6.0794
-23.2679 8.8350 -6.0154
-22.5793 8.3184 -5.7477
-23.0418 8.2305 -5.7750
-23.4132 8.1029 -5.7773
-23.2558 7.7918 -5.6493
-23.9840 7.7731 -5.7353
-23.7126 7.4274 -5.5816
-23.8649 7.2175 -5.5290
-23.7847 6.9382 -5.4232
-23.2301 6.5290 -5.2125
-23.5740 6.3761 -5.2050
-40.1036 5.9257 -7.2292
-40.3358 5.5589 -7.1423
-39.9504 5.1098 -6.9475
-40.4617 4.7755 -6.9091
-40.8767 4.4218 -6.8524
-40.7684 4.0095 -6.7078
-40.7571 3.6089 -6.5805
-40.6481 3.2018 -6.4387
-43.5242 -9.7671 -3.0678
-35.0430 -8.2191 -2.3748
-29.2136 -7.1493 -1.9005
-24.9654 -6.3651 -1.5564
-19.3226 -5.3248 -1.0998
-21.8082 -5.7844 -1.3004
-16.5428 -4.7307 -0.8967
-14.6813 -4.6613 -0.6762
-15.5440 -4.6075 -0.8004
-14.3639 -4.7134 -0.6225
-15.0109 -4.6072 -0.7322
-14.1170 -4.7835 -0.5733
-13.6661 -4.9265 -0.4803
-13.8887 -4.8559 -0.5261
-13.4702 -5.0031 -0.4366
-13.3000 -5.0864 -0.3946
-12.9684 -5.2485 -0.3133
-13.1327 -5.1681 -0.3535
-12.8204 -5.3332 -0.2742
-12.4515 -5.6081 -0.1623
-12.6961 -5.4258 -0.2363
-12.5731 -5.5174 -0.1991
-12.3311 -5.6978 -0.1262
-12.0883 -6.0169 -0.0212
-12.2405 -5.8001 -0.0908
-12.0124 -6.1248 0.0132
-12.1643 -5.9086 -0.0558
-11.9368 -6.2325 0.0474
-11.8233 -6.4676 0.1153
-11.8651 -6.3420 0.0813
-11.7813 -6.5937 0.1492
-11.6565 -6.9765 0.2509
-11.7392 -6.7203 0.1831
-11.6271 -7.1131 0.2850
-11.6968 -6.8475 0.2170
-11.5976 -7.2506 0.3192
-11.5378 -7.5288 0.3879
-11.5678 -7.3892 0.3535
-11.5014 -7.6655 0.4221
-11.3871 -8.0788 0.5250
-11.4645 -7.8030 0.4564
-11.3598 -8.2269 0.5601
-11.4273 -7.9414 0.4908
-11.3322 -8.3765 0.5952
-11.3043 -8.5275 0.6305
-11.2762 -8.6801 0.6660
-11.2477 -8.8343 0.7017
-11.2190 -8.9902 0.7376
-15.4126 11.6071 -5.1192
-41.2142 25.5375 -11.7697
-41.5509 25.1727 -11.6680
-41.7732 24.7384 -11.5345
-41.6408 24.1001 -11.3056
-41.8498 23.6653 -11.1718
-41.5953 22.9758 -10.9173
-42.4626 22.9045 -10.9571
-23.0245 9.0774 -4.8181
-23.2417 8.8989 -4.7762
-22.3348 8.3000 -4.5068
-22.8184 8.2247 -4.5205
-23.0063 8.0372 -4.4740
-23.4020 7.9179 -4.4667
-24.1354 7.9023 -4.5206
-23.6865 7.4985 -4.3528
-23.6810 7.2416 -4.2690
-23.6178 6.9696 -4.1758
-24.0000 6.8272 -4.1609
-23.6311 6.4727 -4.0166
-39.4644 5.1904 -4.9343
-40.0650 4.8738 -4.8872
-39.9983 5.6567 -5.1238
-40.4816 4.5259 -4.8153
-40.6423 3.7467 -4.5899
-40.6277 4.1433 -4.7101
-40.3822 3.3280 -4.4400
-47.7382 -10.5473 -1.0351
-37.5899 -8.6868 -0.7094
-22.7925 -5.9682 -0.2372
-30.9454 -7.4670 -0.4968
-20.0814 -5.4662 -0.1522
-17.5049 -4.9472 -0.0829
-26.2555 -6.6045 -0.3475
-15.7415 -4.6137 -0.0298
-15.1326 -4.5946 0.0146
-13.9556 -4.8347 0.1740
-14.7819 -4.6448 0.0565
-13.7304 -4.9061 0.2111
-14.4595 -4.6977 0.0968
-13.5196 -4.9790 0.2472
-14.1868 -4.7614 0.1359
-13.3476 -5.0631 0.2831
-13.1786 -5.1457 0.3183
-12.6043 -5.4942 0.4546
-13.0126 -5.2269 0.3528
-12.4816 -5.5856 0.4879
-12.8536 -5.3084 0.3866
-12.3602 -5.6761 0.5207
-12.7282 -5.4018 0.4209
-12.2586 -5.7744 0.5539
-12.1818 -5.8836 0.5879
-11.8768 -6.3180 0.7219
-12.1053 -5.9926 0.6217
-11.8316 -6.4427 0.7569
-12.0289 -6.1013 0.6553
-11.7894 -6.5695 0.7922
-11.9528 -6.2097 0.6887
-11.7469 -6.6969 0.8274
-11.7043 -6.8249 0.8627
-11.5722 -7.3686 1.0079
-11.6615 -6.9534 0.8980
-11.6319 -7.0908 0.9345
-11.5420 -7.5092 1.0449
-11.6022 -7.2292 0.9711
-11.5063 -7.6474 1.0816
-11.4691 -7.7858 1.1182
-11.4317 -7.9252 1.1551
-11.3897 -8.0626 1.1916
-11.3622 -8.2118 1.2299
-11.3344 -8.3624 1.2685
-11.3063 -8.5146 1.3073
-11.2780 -8.6683 1.3464
-11.2493 -8.8238 1.3859
-32.6359 25.1347 -8.9524
-33.2461 25.0767 -8.9513
-38.6347 26.7806 -9.6505
-39.1687 26.5747 -9.6009
-39.1274 25.9795 -9.4108
-38.8492 25.2395 -9.1679
-39.0853 24.8419 -9.0491
-39.3850 24.4847 -8.9452
-40.1898 24.4334 -8.9537
-40.3875 24.0064 -8.8250
-40.3967 23.4715 -8.6566
-40.4058 22.9429 -8.4904
-22.5337 8.9516 -3.5337
-22.9077 8.8407 -3.5119
-22.5413 8.4459 -3.3773
-22.9963 8.3601 -3.3662
-22.7890 8.0327 -3.2581
-23.1924 7.9203 -3.2372
-24.4341 8.0780 -3.3285
-23.7365 7.5905 -3.1544
-23.5255 7.2702 -3.0486
-23.0124 6.8659 -2.9067
-24.6616 7.0964 -3.0348
-24.6694 6.8385 -2.9561
-24.7470 6.6007 -2.8861
-40.9504 6.3407 -3.3843
-39.6993 5.7530 -3.1622
-39.5728 5.3431 -3.0343
-39.7843 4.9792 -2.9325
-40.3665 4.6550 -2.8561
-40.3503 4.2572 -2.7363
-39.5525 3.7857 -2.5662
-41.4590 3.5632 -2.5687
-40.8432 2.7144 -2.2930
-40.2780 -9.1728 1.2036
-32.7638 -7.7964 1.0750
-27.6022 -6.8516 0.9867
-23.8038 -6.1544 0.9212
-20.8799 -5.6150 0.8699
-18.6574 -5.2120 0.8328
-15.9450 -4.6217 0.7594
-15.3134 -4.6003 0.7753
-14.8812 -4.6285 0.7983
-14.5537 -4.6822 0.8248
-14.2553 -4.7397 0.8514
-14.0214 -4.8138 0.8804
-13.7934 -4.8861 0.9086
-13.5711 -4.9566 0.9361
-13.3942 -5.0403 0.9657
-13.2235 -5.1237 0.9950
-13.0559 -5.2057 1.0237
-12.8911 -5.2863 1.0518
-12.7596 -5.3784 1.0820
-12.6346 -5.4716 1.1123
-12.5110 -5.5638 1.1422
-12.3886 -5.6550 1.1717
-12.2761 -5.7493 1.2017
-12.1989 -5.8594 1.2349
-12.1218 -5.9691 1.2679
-12.0450 -6.0785 1.3009
-11.9683 -6.1877 1.3336
-11.8917 -6.2967 1.3663
-11.8396 -6.4186 1.4017
-11.7971 -6.5462 1.4384
-11.7544 -6.6744 1.4752
-11.7116 -6.8032 1.5120
-11.6685 -6.9325 1.5490
-11.6365 -7.0694 1.5877
-11.6066 -7.2087 1.6270
-11.5764 -7.3490 1.6664
-11.5460 -7.4905 1.7062
-11.5109 -7.6302 1.7455
-11.4735 -7.7696 1.7848
-11.4358 -7.9100 1.8243
-11.3921 -8.0475 1.8632
-11.3644 -8.1977 1.9050
-11.3364 -8.3494 1.9471
-11.3081 -8.5027 1.9897
-11.2796 -8.6577 2.0327
-31.2385 24.5900 -6.7685
-34.8532 25.7866 -7.0780
-34.3820 24.9127 -6.8312
-34.9148 24.7733 -6.7860
-38.8935 27.0196 -7.3934
-39.1250 26.6087 -7.2728
-39.3559 26.1988 -7.1525
-39.5863 25.7898 -7.0324
-39.2723 25.0349 -6.8180
-39.8997 24.8831 -6.7679
-40.6085 24.2237 -6.5705
-42.3370 24.6913 -6.6876
-42.6284 24.3009 -6.5718
-41.0797 22.8843 -6.1789
-41.2835 22.4678 -6.0565
-41.2197 21.9099 -5.8959
-40.9974 21.2770 -5.7153
-41.6726 21.1100 -5.6597
-42.4730 20.9935 -5.6174
-44.6829 20.4719 -5.4424
-22.6122 9.0491 -2.3740
-22.5760 8.7796 -2.2961
-22.3465 8.4400 -2.2001
-22.4647 8.2349 -2.1391
-22.8802 8.1349 -2.1053
-23.9036 8.2370 -2.1233
-24.0234 8.0171 -2.0580
-23.4772 7.5814 -1.9374
-24.1328 7.5344 -1.9162
-23.9798 7.2312 -1.8296
-24.5648 7.1475 -1.7985
-24.1379 6.7694 -1.6932
-24.1211 6.5123 -1.6184
-24.0402 6.2405 -1.5400
-23.9602 5.9718 -1.4625
-32.9811 6.2075 -1.4246
-39.4290 5.8492 -1.2426
-39.8241 5.5142 -1.1396
-39.7527 5.1125 -1.0226
-40.3874 4.7972 -0.9224
-40.5294 4.4166 -0.8089
-40.6091 4.0280 -0.6937
-40.7849 3.6472 -0.5797
-40.6723 3.2408 -0.4615
-48.0608 -8.3585 3.0599
-45.9118 -8.4446 3.0599
-41.7504 -8.0990 2.9075
-40.0226 -8.1680 2.9075
-38.4250 -8.2315 2.9075
-36.9427 -8.2903 2.9075
-34.9543 -8.2019 2.8577
-29.0862 -7.1241 2.4672
-24.8993 -6.3561 2.1889
-21.7367 -5.7747 1.9783
-19.2652 -5.3195 1.8135
-16.4361 -4.7112 1.5988
-15.4970 -4.6060 1.5565
-14.9810 -4.6121 1.5524
-14.6484 -4.6667 1.5648
-14.3280 -4.7192 1.5769
-14.0872 -4.7930 1.5962
-13.8565 -4.8661 1.6155
-13.6316 -4.9374 1.6343
-13.4407 -5.0176 1.6561
-13.2684 -5.1018 1.6794
-13.0991 -5.1846 1.7024
-12.9327 -5.2659 1.7249
-12.7909 -5.3551 1.7501
-12.6649 -5.4490 1.7769
-12.5402 -5.5420 1.8035
-12.4168 -5.6339 1.8297
-12.2947 -5.7250 1.8558
-12.2158 -5.8352 1.8881
-12.1382 -5.9457 1.9205
-12.0609 -6.0559 1.9528
-11.9836 -6.1658 1.9851
-11.9066 -6.2756 2.0173
-11.8476 -6.3948 2.0526
-11.8048 -6.5231 2.0909
-11.7619 -6.6521 2.1293
-11.7187 -6.7817 2.1680
-11.6754 -6.9119 2.2068
-11.6410 -7.0483 2.2476
-11.6109 -7.1885 2.2897
-11.5806 -7.3297 2.3320
-11.5499 -7.4721 2.3747
-11.5155 -7.6133 2.4171
-11.4778 -7.7536 2.4592
-11.4398 -7.8951 2.5016
-11.3945 -8.0326 2.5428
-11.3666 -8.1839 2.5883
-11.3384 -8.3368 2.6343
-11.3099 -8.4913 2.6808
-32.0456 25.7711 -5.0942
-31.5991 24.9013 -4.8926
-32.3483 24.9774 -4.8768
-32.4843 24.5741 -4.7668
-32.5544 24.1256 -4.6481
-32.7542 23.7767 -4.5485
-36.9204 26.2491 -4.9845
-37.2836 25.9582 -4.8915
-40.7166 27.7572 -5.1886
-40.6810 27.1505 -5.0327
-41.2213 25.7881 -4.6501
-15.1416 9.2671 -1.6543
-42.1987 25.2611 -4.4619
-42.5899 24.9314 -4.3550
-40.3941 22.5955 -3.8534
-40.5760 22.1787 -3.7335
-40.8937 21.8357 -3.6257
-42.4045 22.1124 -3.6189
-42.4593 21.6160 -3.4838
-42.5136 21.1234 -3.3494
-44.7285 21.6822 -3.3791
-22.8178 8.6862 -1.0821
-22.3564 8.2628 -0.9926
-23.2313 8.3306 -0.9614
-23.0900 8.0278 -0.8864
-23.3825 7.8760 -0.8279
-23.4816 7.6565 -0.7618
-23.9738 7.5606 -0.7069
-23.8862 7.2791 -0.6341
-23.5565 6.9298 -0.5563
-23.9622 6.7976 -0.4960
-23.8901 6.5277 -0.4250
-23.8188 6.2610 -0.3547
-48.9158 3.1180 2.0539
-49.4100 -0.1990 3.0599
-47.2201 -0.6471 3.0599
-45.2112 -1.0572 3.0599
-43.3612 -1.4339 3.0599
-41.6517 -1.7812 3.0599
-40.0670 -2.1023 3.0599
-38.5938 -2.4001 3.0599
-37.2201 -2.6769 3.0599
-35.9363 -2.9349 3.0599
-34.7333 -3.1759 3.0599
-33.6037 -3.4015 3.0599
-32.5408 -3.6131 3.0599
-31.5385 -3.8120 3.0599
-30.5918 -3.9993 3.0599
-29.6959 -4.1758 3.0599
-28.8466 -4.3426 3.0599
-28.0404 -4.5004 3.0599
-27.2739 -4.6499 3.0599
-26.5439 -4.7916 3.0599
-24.5606 -4.6809 2.9075
-23.9294 -4.8025 2.9075
-23.3259 -4.9183 2.9075
-22.7485 -5.0286 2.9075
-22.1952 -5.1338 2.9075
-21.6646 -5.2343 2.9075
-21.1551 -5.3304 2.9075
-20.6655 -5.4222 2.9075
-19.9701 -5.4489 2.8752
-17.2073 -4.8764 2.5344
-15.6873 -4.6120 2.3628
-15.0833 -4.5953 2.3225
-14.7454 -4.6508 2.3205
-14.4202 -4.7041 2.3187
-14.1545 -4.7716 2.3248
-13.9210 -4.8457 2.3349
-13.6934 -4.9178 2.3449
-13.4882 -4.9943 2.3577
-13.3142 -5.0794 2.3750
-13.1432 -5.1630 2.3921
-12.9752 -5.2452 2.4090
-12.8229 -5.3313 2.4282
-12.6958 -5.4260 2.4516
-12.5700 -5.5197 2.4748
-12.4456 -5.6125 2.4979
-12.3224 -5.7043 2.5209
-12.2331 -5.8106 2.5505
-12.1550 -5.9218 2.5823
-12.0771 -6.0328 2.6142
-11.9993 -6.1435 2.6461
-11.9217 -6.2540 2.6780
-11.8557 -6.3704 2.7126
-11.8126 -6.4996 2.7526
-11.7471 -6.6168 2.7876
-11.5097 -6.6350 2.7812
-11.2706 -6.6479 2.7730
-11.0539 -6.6697 2.7690
-10.8436 -6.6916 2.7655
-10.6391 -6.7133 2.7622
-10.4393 -6.7342 2.7591
-10.2434 -6.7542 2.7559
-10.0519 -6.7735 2.7528
-9.8652 -6.7928 2.7499
-9.7591 -6.8653 2.7689
-9.7271 -6.9901 2.8090
-9.6948 -7.1160 2.8495
-31.5378 25.9027 -3.1838
-31.6266 25.4602 -3.0769
-31.7139 25.0220 -2.9707
-31.8000 24.5880 -2.8651
-33.0511 25.0420 -2.8611
-33.0713 24.5515 -2.7474
-33.7380 24.5382 -2.6863
-33.2209 23.6688 -2.5317
-33.0796 23.0840 -2.4092
-41.8589 26.2715 -2.3617
-15.1138 9.2817 -0.8045
-23.5528 8.2627 0.2818
-23.6262 8.0329 0.3490
-23.0899 7.6026 0.4058
-23.7422 7.5640 0.4837
-23.6716 7.2905 0.5483
-23.6017 7.0203 0.6124
-33.0014 6.1074 1.8608
-47.3067 7.3464 3.0599
-45.3630 6.5971 3.0599
-41.4005 5.6136 2.9075
-39.8246 5.0092 2.9075
-38.3618 4.4496 2.9075
-37.0002 3.9303 2.9075
-37.5175 3.6195 3.0530
-36.3510 3.1531 3.0599
-35.1774 2.7095 3.0599
-34.0744 2.2938 3.0599
-33.0357 1.9036 3.0599
-32.0555 1.5366 3.0599
-31.1289 1.1909 3.0599
-30.2515 0.8647 3.0599
-29.4192 0.5564 3.0599
-28.6286 0.2645 3.0599
-27.8764 -0.0120 3.0599
-27.1599 -0.2745 3.0599
-26.4763 -0.5239 3.0599
-25.8234 -0.7611 3.0599
-25.1990 -0.9871 3.0599
-24.6013 -1.2025 3.0599
-24.0284 -1.4080 3.0599
-23.4787 -1.6044 3.0599
-22.9507 -1.7921 3.0599
-22.4432 -1.9718 3.0599
-21.9548 -2.1439 3.0599
-21.4844 -2.3089 3.0599
-21.0310 -2.4671 3.0599
-20.5935 -2.6190 3.0599
-20.1711 -2.7650 3.0599
-19.7630 -2.9053 3.0599
-19.3684 -3.0403 3.0599
-18.9865 -3.1702 3.0599
-18.6167 -3.2954 3.0599
-18.2583 -3.4160 3.0599
-17.0188 -3.3564 2.9075
-16.6984 -3.4630 2.9075
-16.3875 -3.5659 2.9075
-16.0853 -3.6653 2.9075
-15.7917 -3.7614 2.9075
-15.5061 -3.8542 2.9075
-15.2282 -3.9440 2.9075
-14.9576 -4.0309 2.9075
-14.7089 -4.1192 2.9105
-14.4532 -4.2011 2.9107
-14.2035 -4.2805 2.9110
-13.9597 -4.3572 2.9111
-13.7198 -4.4311 2.9108
-13.4818 -4.5014 2.9098
-13.2444 -4.5678 2.9076
-13.0063 -4.6298 2.9040
-12.7690 -4.6880 2.8994
-12.5439 -4.7466 2.8964
-12.3237 -4.8032 2.8933
-12.0994 -4.8543 2.8880
-11.8786 -4.9030 2.8825
-11.6553 -4.9468 2.8751
-11.4449 -4.9922 2.8697
-11.2263 -5.0302 2.8612
-11.0219 -5.0709 2.8551
-10.8136 -5.1062 2.8468
-10.6160 -5.1429 2.8403
-10.4232 -5.1785 2.8340
-10.2896 -5.2409 2.8429
-10.2285 -5.3392 2.8717
-10.1690 -5.4384 2.9011
-10.1167 -5.5414 2.9327
-10.0436 -5.6330 2.9583
-9.8693 -5.6662 2.9538
-9.6995 -5.6991 2.9496
-9.5348 -5.7321 2.9461
-9.3754 -5.7655 2.9434
-9.2189 -5.7981 2.9407
-9.0650 -5.8298 2.9382
-8.9138 -5.8606 2.9356
-8.7651 -5.8906 2.9331
-8.6188 -5.9198 2.9307
-8.4749 -5.9483 2.9283
-8.3334 -5.9760 2.9260
-32.9218 27.6088 -1.3947
-31.3477 25.7733 -1.2281
-31.5784 25.4523 -1.1375
-31.8092 25.1322 -1.0464
-34.2235 26.5037 -1.0199
-34.4830 26.1729 -0.9219
-34.8603 25.9298 -0.8260
-35.1798 25.6411 -0.7275
-35.3647 25.2542 -0.6256
-35.5490 24.8690 -0.5234
-15.1036 9.3090 0.0399
-35.6421 20.5665 0.3953
-35.6313 20.1041 0.4945
-36.3615 20.0558 0.6054
-36.9922 19.9405 0.7181
-37.6380 19.8223 0.8341
-38.2997 19.7013 0.9536
-38.9780 19.5773 1.0768
-39.6737 19.4500 1.2039
-40.3876 19.3195 1.3350
-40.9893 19.1242 1.4656
-41.8826 19.0519 1.6103
-42.6567 18.9103 1.7547
-43.4527 18.7647 1.9039
-44.2719 18.6149 2.0582
-45.1154 18.4607 2.2179
-45.8814 18.2606 2.3778
-46.5553 16.4840 2.9075
-46.8411 16.0800 3.0496
-45.1615 15.0196 3.0599
-23.7462 7.6446 1.6719
-41.8851 13.0410 3.0599
-40.4186 12.1594 3.0599
-39.0509 11.3397 3.0599
-37.7719 10.5757 3.0599
-36.5729 9.8618 3.0599
-35.4469 9.1936 3.0599
-34.3866 8.5667 3.0599
-31.7239 7.5802 2.9075
-30.8261 7.0531 2.9075
-29.9762 6.5560 2.9075
-29.1704 6.0864 2.9075
-28.4051 5.6423 2.9075
-28.2770 5.3346 2.9705
-28.3987 5.0752 3.0599
-27.7031 4.6763 3.0599
-27.0388 4.2970 3.0599
-26.4037 3.9360 3.0599
-25.7959 3.5919 3.0599
-25.2134 3.2636 3.0599
-24.6548 2.9502 3.0599
-24.1183 2.6506 3.0599
-23.6026 2.3641 3.0599
-23.1066 2.0896 3.0599
-22.6289 1.8267 3.0599
-22.1686 1.5745 3.0599
-21.7245 1.3325 3.0599
-21.2959 1.1000 3.0599
-20.8818 0.8766 3.0599
-20.4814 0.6617 3.0599
-20.0941 0.4549 3.0599
-19.7190 0.2558 3.0599
-19.3557 0.0639 3.0599
-19.0035 -0.1211 3.0599
-18.6618 -0.2996 3.0599
-18.3302 -0.4718 3.0599
-18.0081 -0.6381 3.0599
-17.6951 -0.7989 3.0599
-17.3908 -0.9542 3.0599
-17.0946 -1.1044 3.0599
-16.8065 -1.2498 3.0599
-16.5258 -1.3904 3.0599
-16.2523 -1.5267 3.0599
-15.9858 -1.6586 3.0599
-15.7259 -1.7865 3.0599
-15.4722 -1.9105 3.0599
-15.2246 -2.0307 3.0599
-14.9828 -2.1474 3.0599
-14.7466 -2.2606 3.0599
-14.5157 -2.3705 3.0599
-14.2900 -2.4773 3.0599
-14.0692 -2.5810 3.0599
-13.8532 -2.6817 3.0599
-13.6417 -2.7797 3.0599
-13.4340 -2.8748 3.0598
-13.1870 -2.9575 3.0496
-12.9381 -3.0354 3.0377
-12.7212 -3.1167 3.0321
-12.5280 -3.2003 3.0311
-12.3529 -3.2854 3.0337
-12.1918 -3.3715 3.0390
-12.0421 -3.4583 3.0465
-11.8688 -3.5357 3.0473
-11.6861 -3.6073 3.0449
-11.5061 -3.6768 3.0423
-11.3288 -3.7441 3.0395
-11.1537 -3.8092 3.0365
-10.9812 -3.8723 3.0334
-10.8103 -3.9330 3.0298
-10.6403 -3.9914 3.0257
-10.4785 -4.0500 3.0231
-10.3194 -4.1070 3.0206
-10.1612 -4.1618 3.0175
-10.0058 -4.2152 3.0145
-9.8531 -4.2672 3.0115
-9.7030 -4.3179 3.0087
-9.5551 -4.3672 3.0058
-9.4085 -4.4147 3.0026
-9.2643 -4.4609 2.9995
-9.1225 -4.5060 2.9964
-8.9830 -4.5500 2.9934
-8.8457 -4.5929 2.9905
-8.7104 -4.6346 2.9876
-8.5769 -4.6751 2.9846
-8.4454 -4.7147 2.9817
-8.3159 -4.7532 2.9789
-8.1882 -4.7909 2.9761
-8.0624 -4.8276 2.9734
-7.9385 -4.8635 2.9708
-7.8167 -4.8986 2.9683
-7.6963 -4.9329 2.9659
-7.5775 -4.9663 2.9634
-7.4603 -4.9989 2.9610
-7.3446 -5.0307 2.9587
-7.2304 -5.0618 2.9564
-25.6242 21.9383 0.4372
-26.1231 21.9323 0.5164
-26.5466 21.8548 0.5961
-26.9768 21.7762 0.6777
-27.4141 21.6962 0.7615
-27.8586 21.6149 0.8473
-28.3107 21.5322 0.9352
-28.7708 21.4481 1.0255
-29.2389 21.3624 1.1181
-29.7155 21.2753 1.2130
-30.2010 21.1865 1.3105
-30.5962 21.0278 1.4060
-31.1981 21.0029 1.5132
-31.7119 20.9089 1.6188
-32.2360 20.8131 1.7271
-32.7709 20.7152 1.8385
-15.1128 9.3513 0.8859
-33.8743 20.5134 2.0708
-34.4438 20.4093 2.1919
-35.0259 20.3028 2.3164
-35.5686 20.1641 2.4410
-36.1145 20.0185 2.5684
-36.8476 19.9656 2.7122
-38.2146 20.2349 2.9077
-37.0060 19.1432 2.9075
-35.8929 18.1334 2.9090
-36.4718 17.9896 3.0463
-35.5803 17.1282 3.0599
-34.5848 16.2428 3.0599
-33.6434 15.4093 3.0599
-32.7518 14.6232 3.0599
-31.9059 13.8808 3.0599
-31.1022 13.1784 3.0599
-30.3372 12.5132 3.0599
-29.6084 11.8822 3.0599
-28.9130 11.2831 3.0599
-28.2485 10.7134 3.0599
-27.6130 10.1712 3.0599
-25.6594 9.1737 2.9075
-25.1050 8.7054 2.9075
-24.5730 8.2583 2.9075
-23.6739 7.7047 2.8607
-23.5705 7.4223 2.9075
-23.0975 7.0311 2.9075
-22.6418 6.6562 2.9075
-22.5431 6.3934 2.9522
-22.9202 6.2638 3.0599
-22.4894 5.9152 3.0599
-22.0731 5.5802 3.0599
-21.6704 5.2581 3.0599
-21.2808 4.9481 3.0599
-20.9034 4.6497 3.0599
-20.5377 4.3622 3.0599
-20.1830 4.0850 3.0599
-19.8389 3.8177 3.0599
-19.5048 3.5597 3.0599
-19.1802 3.3106 3.0599
-18.8647 3.0700 3.0599
-18.5579 2.8375 3.0599
-18.2593 2.6126 3.0599
-17.9687 2.3951 3.0599
-17.6856 2.1846 3.0599
-17.4097 1.9807 3.0599
-17.1408 1.7833 3.0599
-16.8784 1.5920 3.0599
-16.6224 1.4065 3.0599
-16.3725 1.2267 3.0599
-16.1284 1.0522 3.0599
-15.8899 0.8829 3.0599
-15.6560 0.7186 3.0598
-15.4269 0.5589 3.0596
-15.2027 0.4039 3.0593
-14.9834 0.2532 3.0591
-14.7688 0.1068 3.0589
-14.5586 -0.0355 3.0586
-14.3528 -0.1739 3.0584
-14.1511 -0.3085 3.0582
-13.9534 -0.4395 3.0580
-13.7600 -0.5670 3.0579
-13.5703 -0.6912 3.0578
-13.3843 -0.8121 3.0576
-13.2017 -0.9298 3.0576
-13.0225 -1.0445 3.0575
-12.8465 -1.1563 3.0574
-12.6736 -1.2653 3.0573
-12.5037 -1.3715 3.0572
-12.3322 -1.4746 3.0560
-12.1625 -1.5749 3.0544
-11.9948 -1.6724 3.0527
-11.8288 -1.7673 3.0507
-11.6646 -1.8596 3.0484
-11.5020 -1.9494 3.0458
-11.3415 -2.0367 3.0431
-11.1820 -2.1215 3.0400
-11.0231 -2.2037 3.0363
-10.8749 -2.2855 3.0349
-10.7330 -2.3662 3.0346
-10.5933 -2.4450 3.0344
-10.4555 -2.5220 3.0341
-10.3198 -2.5973 3.0339
-10.1859 -2.6708 3.0337
-10.0540 -2.7427 3.0334
-9.9238 -2.8130 3.0332
-9.7954 -2.8818 3.0330
-9.6687 -2.9490 3.0328
-9.5436 -3.0148 3.0326
-9.4202 -3.0791 3.0324
-9.2983 -3.1420 3.0322
-9.1780 -3.2035 3.0320
-9.0592 -3.2638 3.0318
-8.9418 -3.3227 3.0316
-8.8259 -3.3804 3.0314
-8.7113 -3.4368 3.0312
-8.5942 -3.4906 3.0297
-8.4768 -3.5423 3.0275
-8.3609 -3.5929 3.0254
-8.2464 -3.6424 3.0233
-8.1327 -3.6904 3.0210
-8.0190 -3.7367 3.0182
-7.9076 -3.7824 3.0158
-7.7976 -3.8271 3.0134
-7.6890 -3.8708 3.0111
-7.5817 -3.9135 3.0088
-7.4754 -3.9552 3.0065
-7.3697 -3.9955 3.0039
-7.2652 -4.0350 3.0014
-7.1620 -4.0736 2.9989
-7.0599 -4.1114 2.9965
-6.9590 -4.1483 2.9941
-6.8592 -4.1844 2.9918
-6.7605 -4.2197 2.9895
-6.6629 -4.2543 2.9872
-6.5661 -4.2879 2.9849
-6.4703 -4.3208 2.9826
-6.3755 -4.3530 2.9803
-25.2570 22.0753 1.9602
-25.5950 21.9426 2.0431
-26.0895 21.9374 2.1402
-26.5086 21.8607 2.2330
-26.9343 21.7829 2.3282
-27.3670 21.7037 2.4257
-27.8068 21.6233 2.5258
-28.2541 21.5414 2.6284
-28.7091 21.4582 2.7337
-29.8498 21.8700 2.9078
-29.1909 20.9622 2.9075
-28.5625 20.1009 2.9075
-28.2980 19.5139 2.9426
-28.7343 19.4132 3.0510
-28.2349 18.6864 3.0599
-27.6742 17.9384 3.0599
-27.1349 17.2239 3.0599
-26.6156 16.5407 3.0599
-26.1151 15.8868 3.0599
-25.6325 15.2607 3.0599
-25.1665 14.6605 3.0599
-24.7164 14.0848 3.0599
-24.2814 13.5322 3.0599
-23.8604 13.0015 3.0599
-23.4527 12.4914 3.0599
-23.0579 12.0007 3.0599
-22.6751 11.5286 3.0599
-22.3038 11.0739 3.0599
-20.8507 10.1062 2.9075
-20.5179 9.7049 2.9075
-20.1948 9.3180 2.9075
-19.8805 8.9445 2.9075
-19.5749 8.5839 2.9075
-19.2774 8.2356 2.9075
-18.9877 7.8990 2.9075
-18.7054 7.5735 2.9075
-18.4303 7.2587 2.9075
-18.5886 7.1174 2.9758
-18.8386 7.0082 3.0599
-18.5698 6.7076 3.0599
-18.3074 6.4164 3.0599
-18.0510 6.1341 3.0599
-17.8004 5.8604 3.0599
-17.5555 5.5950 3.0599
-17.3160 5.3374 3.0599
-17.0817 5.0874 3.0599
-16.8524 4.8447 3.0599
-16.6280 4.6089 3.0599
-16.4081 4.3799 3.0599
-16.1928 4.1573 3.0599
-15.9817 3.9409 3.0599
-15.7744 3.7304 3.0599
-15.5709 3.5256 3.0597
-15.3713 3.3263 3.0596
-15.1754 3.1324 3.0595
-14.9833 2.9437 3.0593
-14.7947 2.7599 3.0592
-14.6095 2.5810 3.0591
-14.4276 2.4067 3.0590
-14.2489 2.2368 3.0589
-14.0733 2.0713 3.0588
-13.9007 1.9099 3.0586
-13.7311 1.7526 3.0585
-13.5642 1.5992 3.0584
-13.4001 1.4496 3.0583
-13.2386 1.3036 3.0582
-13.0797 1.1611 3.0581
-12.9233 1.0221 3.0580
-12.7694 0.8863 3.0579
-12.6177 0.7538 3.0579
-12.4684 0.6244 3.0578
-12.3185 0.4979 3.0570
-12.1688 0.3742 3.0557
-12.0202 0.2536 3.0541
-11.8728 0.1357 3.0523
-11.7265 0.0207 3.0502
-11.5814 -0.0917 3.0479
-11.4378 -0.2013 3.0454
-11.2937 -0.3082 3.0423
-11.1524 -0.4127 3.0393
-11.0227 -0.5150 3.0390
-10.8947 -0.6152 3.0387
-10.7684 -0.7131 3.0385
-10.6436 -0.8090 3.0382
-10.5205 -0.9027 3.0379
-10.3989 -0.9945 3.0377
-10.2788 -1.0843 3.0374
-10.1602 -1.1722 3.0371
-10.0431 -1.2583 3.0369
-9.9273 -1.3426 3.0366
-9.8128 -1.4251 3.0364
-9.6997 -1.5059 3.0362
-9.5879 -1.5851 3.0359
-9.4774 -1.6626 3.0357
-9.3680 -1.7385 3.0355
-9.2599 -1.8130 3.0353
-9.1530 -1.8859 3.0351
-9.0472 -1.9573 3.0348
-8.9425 -2.0273 3.0346
-8.8389 -2.0959 3.0344
-8.7364 -2.1632 3.0342
-8.6350 -2.2291 3.0340
-8.5345 -2.2937 3.0338
-8.4350 -2.3571 3.0336
-8.3366 -2.4192 3.0334
-8.2391 -2.4801 3.0332
-8.1425 -2.5398 3.0331
-8.0468 -2.5984 3.0329
-7.9520 -2.6558 3.0327
-7.8581 -2.7122 3.0325
-7.7650 -2.7674 3.0323
-7.6728 -2.8216 3.0322
-7.5814 -2.8748 3.0320
-7.4908 -2.9270 3.0318
-7.4010 -2.9781 3.0317
-7.3119 -3.0283 3.0315
-7.2236 -3.0776 3.0314
-7.1360 -3.1259 3.0312
-7.0487 -3.1731 3.0309
-6.9588 -3.2178 3.0290
-6.8696 -3.2617 3.0273
-6.7813 -3.3047 3.0255
-6.6938 -3.3468 3.0238
-6.6065 -3.3877 3.0218
-6.5189 -3.4273 3.0194
-6.4324 -3.4663 3.0171
-6.3473 -3.5047 3.0151
-6.2629 -3.5424 3.0132
-6.1792 -3.5793 3.0113
-6.0963 -3.6155 3.0094
-6.0140 -3.6510 3.0076
-5.9318 -3.6854 3.0054
-5.8503 -3.7190 3.0033
-5.7696 -3.7521 3.0013
-5.6895 -3.7844 2.9993
-21.9229 19.5622 3.0599
-21.6575 18.9599 3.0599
-21.3969 18.3767 3.0599
-21.1412 17.8119 3.0599
-20.8900 17.2648 3.0599
-20.6433 16.7345 3.0599
-20.4010 16.2205 3.0599
-20.1630 15.7221 3.0599
-19.9290 15.2387 3.0599
-19.6991 14.7697 3.0599
-19.4731 14.3145 3.0599
-19.2509 13.8726 3.0599
-19.0324 13.4435 3.0599
-18.8176 13.0268 3.0599
-18.6062 12.6219 3.0599
-18.3982 12.2284 3.0599
-18.1936 11.8460 3.0599
-17.0961 10.9027 2.9075
-16.9078 10.5591 2.9075
-15.1387 9.2565 2.6322
-16.5398 9.8997 2.9075
-16.3600 9.5832 2.9075
-16.1830 9.2752 2.9075
-16.0085 8.9753 2.9075
-15.8367 8.6832 2.9075
-15.6673 8.3987 2.9075
-15.5005 8.1216 2.9075
-15.3360 7.8516 2.9075
-15.4100 7.7065 2.9528
-15.6595 7.6470 3.0326
-15.6351 7.4528 3.0599
-15.4715 7.1961 3.0599
-15.3101 6.9457 3.0599
-15.1510 6.7014 3.0599
-14.9939 6.4631 3.0599
-14.8390 6.2304 3.0599
-14.6861 6.0034 3.0599
-14.5352 5.7817 3.0599
-14.3861 5.5653 3.0599
-14.2385 5.3537 3.0598
-14.0928 5.1471 3.0597
-13.9489 4.9453 3.0596
-13.8068 4.7481 3.0595
-13.6665 4.5554 3.0594
-13.5279 4.3671 3.0593
-13.3910 4.1831 3.0592
-13.2558 4.0032 3.0591
-13.1221 3.8273 3.0590
-12.9901 3.6553 3.0589
-12.8596 3.4871 3.0588
-12.7306 3.3226 3.0587
-12.6030 3.1616 3.0586
-12.4770 3.0041 3.0585
-12.3523 2.8500 3.0584
-12.2261 2.6986 3.0576
-12.0998 2.5500 3.0564
-11.9739 2.4046 3.0549
-11.8482 2.2621 3.0531
-11.7230 2.1224 3.0511
-11.5986 1.9858 3.0489
-11.4730 1.8517 3.0461
-11.3530 1.7211 3.0444
-11.2393 1.5941 3.0440
-11.1269 1.4697 3.0437
-11.0157 1.3478 3.0434
-10.9056 1.2284 3.0430
-10.7966 1.1114 3.0427
-10.6887 0.9968 3.0424
-10.5819 0.8844 3.0421
-10.4762 0.7743 3.0418
-10.3714 0.6664 3.0415
-10.2677 0.5605 3.0412
-10.1650 0.4568 3.0409
-10.0633 0.3550 3.0406
-9.9625 0.2553 3.0404
-9.8627 0.1575 3.0401
-9.7638 0.0615 3.0398
-9.6658 -0.0325 3.0396
-9.5686 -0.1249 3.0393
-9.4724 -0.2154 3.0391
-9.3770 -0.3043 3.0388
-9.2824 -0.3914 3.0386
-9.1887 -0.4770 3.0383
-9.0957 -0.5609 3.0381
-9.0036 -0.6433 3.0379
-8.9122 -0.7241 3.0376
-8.8216 -0.8035 3.0374
-8.7317 -0.8814 3.0372
-8.6426 -0.9578 3.0370
-8.5542 -1.0329 3.0368
-8.4665 -1.1066 3.0366
-8.3795 -1.1789 3.0364
-8.2932 -1.2500 3.0362
-8.2075 -1.3197 3.0360
-8.1225 -1.3882 3.0358
-8.0382 -1.4555 3.0356
-7.9544 -1.5215 3.0354
-7.8713 -1.5864 3.0352
-7.7889 -1.6501 3.0350
-7.7070 -1.7127 3.0348
-7.6257 -1.7742 3.0346
-7.5450 -1.8346 3.0344
-7.4649 -1.8939 3.0343
-7.3853 -1.9522 3.0341
-7.3063 -2.0094 3.0339
-7.2278 -2.0657 3.0337
-7.1499 -2.1209 3.0336
-7.0725 -2.1752 3.0334
-6.9956 -2.2286 3.0333
-6.6929 -2.4328 3.0326
-6.9192 -2.2810 3.0331
-6.6185 -2.4817 3.0325
-6.8433 -2.3325 3.0329
-6.5445 -2.5297 3.0323
-6.7678 -2.3831 3.0328
-6.4709 -2.5769 3.0322
-6.1098 -2.8008 3.0315
-6.3978 -2.6233 3.0321
-6.0388 -2.8433 3.0314
-6.3252 -2.6688 3.0319
-5.9682 -2.8851 3.0312
-5.8981 -2.9261 3.0311
-6.2530 -2.7136 3.0318
-5.8274 -2.9659 3.0305
-6.1811 -2.7576 3.0316
-5.7553 -3.0042 3.0290
-5.6837 -3.0417 3.0275
-5.5420 -3.1147 3.0245
-5.6126 -3.0785 3.0260
-5.4715 -3.1500 3.0229
-5.4007 -3.1842 3.0209
-5.3302 -3.2177 3.0189
-5.2604 -3.2506 3.0169
-5.1914 -3.2832 3.0152
-5.1230 -3.3152 3.0136
-15.0515 13.7138 3.0599
-14.9636 13.3789 3.0599
-14.8750 13.0507 3.0599
-14.7858 12.7289 3.0599
-14.6959 12.4134 3.0599
-13.8780 11.5012 2.9075
-13.7917 11.2131 2.9075
-13.7048 10.9307 2.9075
-13.6177 10.6538 2.9075
-13.5302 10.3823 2.9075
-13.4424 10.1161 2.9075
-13.3544 9.8551 2.9075
-13.2662 9.5992 2.9075
-13.1779 9.3483 2.9075
-13.0895 9.1023 2.9075
-13.0010 8.8611 2.9075
-12.9124 8.6245 2.9075
-12.8238 8.3926 2.9075
-12.7832 8.1959 2.9185
-12.9767 8.1492 2.9834
-13.1737 8.1017 3.0501
-13.1233 7.9020 3.0599
-13.0304 7.6805 3.0599
-12.9376 7.4632 3.0599
-12.8447 7.2498 3.0599
-12.7519 7.0405 3.0598
-12.6592 6.8351 3.0597
-12.5668 6.6337 3.0596
-12.4746 6.4360 3.0595
-12.3827 6.2421 3.0594
-12.2910 6.0518 3.0593
-12.1994 5.8650 3.0592
-12.1052 5.6803 3.0583
-12.0099 5.4985 3.0571
-11.9137 5.3196 3.0555
-11.8166 5.1435 3.0536
-11.7213 4.9714 3.0521
-11.6307 4.8044 3.0516
-11.5405 4.6405 3.0512
-11.4507 4.4797 3.0508
-11.3613 4.3218 3.0504
-11.2723 4.1668 3.0500
-11.1837 4.0147 3.0496
-11.0955 3.8653 3.0492
-11.0077 3.7187 3.0489
-10.9204 3.5748 3.0485
-10.8335 3.4334 3.0481
-10.7470 3.2947 3.0478
-10.6609 3.1584 3.0474
-10.5753 3.0246 3.0471
-10.4901 2.8931 3.0467
-10.4053 2.7641 3.0464
-10.3209 2.6373 3.0460
-10.2370 2.5128 3.0457
-10.1535 2.3905 3.0454
-10.0704 2.2704 3.0451
-9.9878 2.1523 3.0448
-9.9056 2.0364 3.0445
-9.8239 1.9225 3.0442
-9.7425 1.8105 3.0439
-9.6616 1.7005 3.0436
-9.5811 1.5924 3.0433
-9.5010 1.4862 3.0430
-9.4213 1.3818 3.0428
-9.3421 1.2793 3.0425
-9.2632 1.1784 3.0422
-9.1848 1.0793 3.0419
-9.1068 0.9819 3.0417
-9.0292 0.8862 3.0414
-8.9520 0.7921 3.0412
-8.8752 0.6996 3.0409
-8.7988 0.6086 3.0407
-8.7229 0.5191 3.0405
-8.6473 0.4313 3.0402
-8.5721 0.3448 3.0400
-8.4973 0.2598 3.0398
-8.4229 0.1761 3.0395
-8.3488 0.0940 3.0393
-8.2751 0.0132 3.0391
-8.2018 -0.0663 3.0389
-8.1289 -0.1445 3.0387
-8.0564 -0.2213 3.0384
-7.9842 -0.2969 3.0382
-7.9124 -0.3713 3.0380
-7.8410 -0.4445 3.0378
-7.7699 -0.5164 3.0376
-7.6991 -0.5872 3.0374
-7.6288 -0.6568 3.0372
-7.5587 -0.7253 3.0371
-7.4890 -0.7926 3.0369
-7.4196 -0.8589 3.0367
-7.3506 -0.9241 3.0365
-7.2819 -0.9882 3.0363
-7.2136 -1.0513 3.0361
-7.1455 -1.1134 3.0359
-7.0778 -1.1745 3.0358
-7.0105 -1.2346 3.0356
-6.9434 -1.2937 3.0354
-6.8766 -1.3519 3.0353
-6.8102 -1.4091 3.0351
-6.7440 -1.4654 3.0349
-6.6782 -1.5208 3.0348
-6.6127 -1.5753 3.0346
-6.5474 -1.6290 3.0345
-6.4825 -1.6818 3.0343
-6.4178 -1.7337 3.0342
-6.3535 -1.7848 3.0340
-6.2894 -1.8351 3.0339
-6.2256 -1.8846 3.0337
-6.1621 -1.9333 3.0336
-6.0988 -1.9812 3.0334
-6.0358 -2.0284 3.0333
-5.9731 -2.0748 3.0332
-5.9107 -2.1204 3.0330
-5.8485 -2.1653 3.0329
-5.7865 -2.2095 3.0327
-5.7249 -2.2530 3.0326
-5.6634 -2.2958 3.0325
-5.6023 -2.3379 3.0324
-5.5413 -2.3793 3.0322
-5.4807 -2.4201 3.0321
-5.4202 -2.4602 3.0320
-5.3600 -2.4997 3.0319
-5.3000 -2.5385 3.0318
-5.2402 -2.5767 3.0316
-5.1807 -2.6142 3.0315
-5.1214 -2.6512 3.0314
-5.0623 -2.6875 3.0313
-5.0034 -2.7233 3.0312
-4.9448 -2.7585 3.0311
-4.8858 -2.7928 3.0306
-4.8257 -2.8257 3.0293
-4.7658 -2.8580 3.0280
-4.7062 -2.8898 3.0268
-4.6469 -2.9210 3.0255
-10.8032 10.0530 2.9075
-10.7768 9.8432 2.9075
-10.7490 9.6362 2.9075
-10.7198 9.4319 2.9075
-10.6892 9.2302 2.9075
-10.6574 9.0313 2.9075
-10.6242 8.8350 2.9075
-10.5900 8.6414 2.9075
-10.7074 8.5728 2.9496
-10.8651 8.5346 3.0035
-11.0251 8.4958 3.0586
-10.9878 8.3055 3.0595
-10.9446 8.1142 3.0590
-10.9004 7.9256 3.0586
-10.8554 7.7397 3.0581
-10.8095 7.5564 3.0577
-10.7628 7.3758 3.0572
-10.7153 7.1978 3.0568
-10.6671 7.0224 3.0564
-10.6182 6.8495 3.0560
-10.5686 6.6792 3.0555
-10.5184 6.5113 3.0551
-10.4675 6.3459 3.0547
-10.4161 6.1830 3.0543
-10.3642 6.0224 3.0539
-10.3117 5.8642 3.0535
-10.2588 5.7083 3.0531
-10.2053 5.5548 3.0528
-10.1515 5.4035 3.0524
-10.0972 5.2544 3.0520
-10.0425 5.1076 3.0517
-9.9875 4.9630 3.0513
-9.9321 4.8205 3.0509
-9.8764 4.6801 3.0506
-9.8204 4.5418 3.0503
-9.7641 4.4056 3.0499
-9.7076 4.2714 3.0496
-9.6508 4.1392 3.0492
-9.5938 4.0090 3.0489
-9.5365 3.8807 3.0486
-9.4791 3.7543 3.0483
-9.4215 3.6299 3.0480
-9.3637 3.5072 3.0477
-9.3058 3.3865 3.0474
-9.2477 3.2675 3.0471
-9.1895 3.1503 3.0468
-9.1312 3.0348 3.0465
-9.0728 2.9211 3.0462
-9.0143 2.8091 3.0459
-8.9558 2.6987 3.0456
-8.8972 2.5900 3.0453
-8.8385 2.4829 3.0451
-8.7797 2.3774 3.0448
-8.7210 2.2734 3.0445
-8.6622 2.1711 3.0443
-8.6034 2.0702 3.0440
-8.5446 1.9709 3.0437
-8.4857 1.8730 3.0435
-8.4269 1.7766 3.0432
-8.3681 1.6816 3.0430
-8.3093 1.5880 3.0428
-8.2506 1.4958 3.0425
-8.1918 1.4050 3.0423
-8.1332 1.3155 3.0420
-8.0745 1.2274 3.0418
-8.0160 1.1404 3.0416
-7.9574 1.0549 3.0414
-7.8990 0.9706 3.0411
-7.8405 0.8876 3.0409
-7.7822 0.8057 3.0407
-7.7239 0.7251 3.0405
-7.6658 0.6457 3.0403
-7.6077 0.5674 3.0401
-7.5497 0.4903 3.0399
-7.4917 0.4143 3.0397
-7.4339 0.3395 3.0395
-7.3762 0.2657 3.0393
-7.3185 0.1930 3.0391
-7.2610 0.1215 3.0389
-7.2035 0.0509 3.0387
-7.1462 -0.0186 3.0385
-7.0890 -0.0871 3.0383
-7.0319 -0.1546 3.0382
-6.9749 -0.2211 3.0380
-6.9180 -0.2866 3.0378
-6.8612 -0.3512 3.0376
-6.8046 -0.4148 3.0374
-6.7480 -0.4775 3.0373
-6.6916 -0.5392 3.0371
-6.6353 -0.6001 3.0369
-6.5791 -0.6600 3.0368
-6.5231 -0.7191 3.0366
-6.4672 -0.7773 3.0364
-6.4114 -0.8347 3.0363
-6.3557 -0.8912 3.0361
-6.3001 -0.9469 3.0360
-6.2448 -1.0018 3.0358
-6.1895 -1.0559 3.0356
-6.1343 -1.1092 3.0355
-6.0793 -1.1617 3.0353
-6.0244 -1.2134 3.0352
-5.9696 -1.2643 3.0351
-5.9150 -1.3145 3.0349
-5.8605 -1.3640 3.0348
-5.8061 -1.4128 3.0346
-5.7519 -1.4608 3.0345
-5.6977 -1.5081 3.0344
-5.6437 -1.5547 3.0342
-5.5899 -1.6006 3.0341
-5.5362 -1.6459 3.0340
-5.4826 -1.6905 3.0338
-5.4291 -1.7344 3.0337
-5.3758 -1.7776 3.0336
-5.3226 -1.8202 3.0334
-5.2695 -1.8622 3.0333
-5.2165 -1.9036 3.0332
-5.1637 -1.9443 3.0331
-5.1110 -1.9844 3.0330
-5.0584 -2.0239 3.0328
-5.0059 -2.0628 3.0327
-4.9536 -2.1012 3.0326
-4.9014 -2.1389 3.0325
-4.8493 -2.1761 3.0324
-4.7973 -2.2127 3.0323
-4.7455 -2.2488 3.0322
-4.6938 -2.2843 3.0321
-4.6422 -2.3192 3.0320
-4.5907 -2.3536 3.0319
-4.5393 -2.3875 3.0318
-4.4881 -2.4209 3.0317
-4.4369 -2.4537 3.0316
-4.3859 -2.4861 3.0315
-4.3350 -2.5179 3.0314
-4.2842 -2.5492 3.0313
-4.2335 -2.5800 3.0312
-9.0648 8.6183 3.0594
-9.0609 8.4573 3.0590
-9.0555 8.2979 3.0586
-9.0487 8.1399 3.0583
-9.0405 7.9833 3.0579
-9.0310 7.8283 3.0575
-9.0201 7.6747 3.0572
-9.0079 7.5227 3.0568
-8.9945 7.3721 3.0565
-8.9799 7.2231 3.0561
-8.9641 7.0756 3.0558
-8.9471 6.9295 3.0554
-8.9291 6.7850 3.0551
-8.9099 6.6421 3.0547
-8.8898 6.5006 3.0544
-8.8686 6.3606 3.0541
-8.8464 6.2221 3.0537
-8.8233 6.0852 3.0534
-8.7992 5.9497 3.0531
-8.7743 5.8158 3.0528
-8.7485 5.6833 3.0524
-8.6371 5.1683 3.0512
-8.7218 5.5523 3.0521
-8.6074 5.0431 3.0509
-8.6944 5.4228 3.0518
-8.5769 4.9195 3.0506
-8.6661 5.2948 3.0515
-8.5458 4.7973 3.0503
-8.3805 4.2074 3.0489
-8.5140 4.6765 3.0500
-8.3456 4.0937 3.0486
-8.4815 4.5571 3.0497
-8.3103 3.9812 3.0483
-8.4484 4.4392 3.0494
-8.2744 3.8702 3.0480
-8.2380 3.7604 3.0478
-8.4147 4.3226 3.0491
-8.2011 3.6522 3.0475
-8.0878 3.3349 3.0467
-8.1638 3.5451 3.0472
-8.0492 3.2317 3.0465
-8.1260 3.4393 3.0470
-8.0102 3.1299 3.0462
-7.9708 3.0293 3.0460
-7.9310 2.9299 3.0457
-7.6012 2.1786 3.0438
-7.7685 2.5447 3.0447
-7.7271 2.4514 3.0445
-7.8909 2.8318 3.0455
-7.5586 2.0899 3.0436
-7.6854 2.3593 3.0443
-7.5159 2.0024 3.0434
-7.8504 2.7349 3.0452
-7.6434 2.2684 3.0440
-7.4729 1.9160 3.0432
-7.8096 2.6392 3.0450
-7.4297 1.8307 3.0429
-7.2550 1.5003 3.0421
-7.3863 1.7465 3.0427
-7.0774 1.1865 3.0413
-7.3427 1.6633 3.0425
-7.2108 1.4203 3.0419
-7.0327 1.1106 3.0411
-7.2989 1.5813 3.0423
-7.1665 1.3413 3.0417
-6.8976 0.8887 3.0405
-6.9878 1.0356 3.0409
-7.1221 1.2634 3.0415
-6.8524 0.8166 3.0403
-6.9428 0.9617 3.0407
-6.8071 0.7455 3.0402
-6.7161 0.6060 3.0398
-6.7616 0.6753 3.0400
-6.5331 0.3378 3.0391
-6.6705 0.5376 3.0396
-6.3492 0.0835 3.0384
-6.4872 0.2730 3.0389
-6.6248 0.4701 3.0394
-6.4412 0.2090 3.0387
-6.5790 0.4035 3.0393
-6.3952 0.1458 3.0386
-6.1645 -0.1577 3.0377
-5.9793 -0.3864 3.0371
-6.1182 -0.2161 3.0376
-5.9330 -0.4417 3.0370
-6.0719 -0.2736 3.0374
-6.0256 -0.3304 3.0373
-5.8867 -0.4962 3.0368
-5.7940 -0.6031 3.0365
-5.8403 -0.5500 3.0367
-5.7477 -0.6555 3.0364
-5.6087 -0.8084 3.0360
-5.7013 -0.7072 3.0362
-5.5623 -0.8581 3.0358
-5.6550 -0.7582 3.0361
-5.5160 -0.9070 3.0357
-5.4234 -1.0029 3.0354
-5.4697 -0.9553 3.0355
-5.3772 -1.0499 3.0353
-5.2385 -1.1870 3.0349
-5.3310 -1.0962 3.0352
-5.1924 -1.2315 3.0348
-5.2847 -1.1419 3.0350
-5.1462 -1.2753 3.0346
-5.0540 -1.3613 3.0344
-5.1001 -1.3186 3.0345
-5.0080 -1.4033 3.0343
-4.8700 -1.5261 3.0339
-4.9620 -1.4448 3.0342
-4.8241 -1.5658 3.0338
-4.9160 -1.4857 3.0340
-4.7783 -1.6051 3.0337
-4.6866 -1.6818 3.0335
-4.7324 -1.6437 3.0336
-4.6409 -1.7194 3.0334
-4.5039 -1.8290 3.0331
-4.5952 -1.7565 3.0333
-4.4583 -1.8645 3.0329
-4.5495 -1.7930 3.0332
-4.4128 -1.8995 3.0328
-4.3218 -1.9680 3.0326
-4.3673 -1.9340 3.0327
-4.2764 -2.0015 3.0325
-4.2311 -2.0345 3.0324
-4.1858 -2.0670 3.0323
-4.1405 -2.0990 3.0323
-4.0953 -2.1306 3.0322
-4.0502 -2.1617 3.0321
-4.0050 -2.1923 3.0320
-3.9600 -2.2225 3.0319
-3.9150 -2.2522 3.0318
-3.8700 -2.2815 3.0317
-6.3030 0.0219 3.0382
-6.2569 -0.0387 3.0381
-6.2107 -0.0986 3.0379
-7.4735 7.2627 3.0556
-7.4815 7.1394 3.0553
-7.4882 7.0168 3.0550
-7.4936 6.8950 3.0547
-7.4978 6.7740 3.0544
-7.5008 6.6538 3.0542
-7.5026 6.5344 3.0539
-7.5032 6.4158 3.0536
-7.5026 6.2981 3.0533
-7.5010 6.1812 3.0531
-7.4982 6.0651 3.0528
-7.4944 5.9500 3.0525
-7.4895 5.8357 3.0523
-7.4836 5.7223 3.0520
-7.4767 5.6098 3.0517
-7.4689 5.4982 3.0515
-7.4600 5.3875 3.0512
-7.4156 4.9540 3.0502
-7.4023 4.8479 3.0499
-7.4503 5.2778 3.0509
-7.3881 4.7428 3.0497
-7.4396 5.1689 3.0507
-7.3732 4.6386 3.0494
-7.4280 5.0610 3.0504
-7.3575 4.5354 3.0492
-7.3410 4.4331 3.0489
-7.2871 4.1318 3.0482
-7.3238 4.3317 3.0487
-7.2677 4.0332 3.0480
-7.3058 4.2313 3.0485
-7.2056 3.7433 3.0473
-7.2476 3.9357 3.0477
-7.1836 3.6485 3.0471
-7.2269 3.8390 3.0475
-7.1610 3.5546 3.0468
-7.1378 3.4617 3.0466
-7.1140 3.3697 3.0464
-7.0135 3.0110 3.0455
-7.0897 3.2786 3.0462
-6.9870 2.9236 3.0453
-6.9601 2.8371 3.0451
-7.0648 3.1885 3.0459
-6.9327 2.7515 3.0449
-7.0394 3.0993 3.0457
-6.9049 2.6668 3.0447
-6.7891 2.3369 3.0438
-6.8766 2.5830 3.0445
-6.8479 2.5001 3.0442
-6.7592 2.2567 3.0436
-6.8187 2.4181 3.0440
-6.7288 2.1773 3.0434
-6.6670 2.0210 3.0431
-6.6981 2.0987 3.0433
-6.6356 1.9442 3.0429
-6.6038 1.8682 3.0427
-6.5393 1.7188 3.0423
-6.5717 1.7931 3.0425
-6.5065 1.6452 3.0421
-6.4065 1.4297 3.0416
-6.4735 1.5726 3.0419
-6.3726 1.3594 3.0414
-6.3385 1.2899 3.0412
-6.4401 1.5007 3.0418
-6.3041 1.2213 3.0410
-6.2694 1.1534 3.0409
-6.1284 0.8895 3.0402
-6.2345 1.0863 3.0407
-6.0926 0.8254 3.0400
-6.0566 0.7621 3.0399
-6.1994 1.0199 3.0405
-6.0205 0.6995 3.0397
-6.1640 0.9543 3.0404
-5.9841 0.6377 3.0395
-5.9475 0.5765 3.0394
-5.8369 0.3974 3.0389
-5.9108 0.5161 3.0392
-5.7996 0.3390 3.0387
-5.8739 0.4564 3.0391
-5.7623 0.2814 3.0386
-5.6871 0.1682 3.0383
-5.6493 0.1126 3.0381
-5.7248 0.2245 3.0384
-5.6114 0.0577 3.0380
-5.5352 -0.0501 3.0377
-5.5734 0.0035 3.0379
-5.4970 -0.1031 3.0376
-5.3815 -0.2581 3.0371
-5.3428 -0.3086 3.0370
-5.4586 -0.1554 3.0374
-5.3040 -0.3584 3.0369
-5.4201 -0.2071 3.0373
-5.2652 -0.4076 3.0367
-5.0697 -0.6446 3.0361
-5.2262 -0.4562 3.0366
-5.0304 -0.6903 3.0360
-5.1872 -0.5042 3.0365
-4.9910 -0.7353 3.0358
-5.1481 -0.5516 3.0364
-4.9515 -0.7799 3.0357
-4.9120 -0.8238 3.0356
-5.1089 -0.5984 3.0362
-4.8726 -0.8672 3.0355
-4.7535 -0.9941 3.0351
-4.8329 -0.9101 3.0354
-4.7138 -1.0354 3.0350
-4.7932 -0.9524 3.0352
-4.5943 -1.1559 3.0347
-4.6740 -1.0761 3.0349
-4.5545 -1.1951 3.0346
-4.6342 -1.1162 3.0348
-4.5145 -1.2337 3.0345
-4.4346 -1.3095 3.0342
-4.4746 -1.2718 3.0343
-4.2745 -1.4551 3.0338
-4.3946 -1.3466 3.0341
-4.1141 -1.5931 3.0334
-4.2344 -1.4903 3.0337
-4.3546 -1.3833 3.0340
-4.0739 -1.6265 3.0333
-4.1943 -1.5251 3.0336
-4.0338 -1.6594 3.0332
-4.3146 -1.4194 3.0339
-4.1542 -1.5593 3.0335
-3.9534 -1.7238 3.0330
-3.9936 -1.6918 3.0331
-3.9133 -1.7554 3.0330
-3.8731 -1.7865 3.0329
-3.8329 -1.8172 3.0328
-3.7927 -1.8474 3.0327
-3.7525 -1.8772 3.0326
-3.7124 -1.9066 3.0325
-3.6722 -1.9356 3.0324
-3.6320 -1.9642 3.0323
-3.5918 -1.9923 3.0322
-3.5517 -2.0201 3.0322
-6.3109 6.2724 3.0528
-6.3591 5.8814 3.0519
-6.3247 6.1741 3.0525
-6.3685 5.7847 3.0517
-6.3372 6.0761 3.0523
-6.3768 5.6885 3.0514
-6.3487 5.9786 3.0521
-6.3841 5.5927 3.0512
-6.3904 5.4973 3.0510
-6.3957 5.4025 3.0508
-6.4059 5.1210 3.0501
-6.4001 5.3082 3.0506
-6.4074 5.0283 3.0499
-6.4080 4.9361 3.0497
-6.4034 5.2143 3.0504
-6.4077 4.8444 3.0495
-6.4065 4.7533 3.0493
-6.3934 4.3947 3.0484
-6.4045 4.6628 3.0491
-6.3881 4.3066 3.0482
-6.4016 4.5728 3.0489
-6.3820 4.2190 3.0480
-6.3979 4.4835 3.0487
-6.3752 4.1321 3.0478
-6.3676 4.0458 3.0476
-6.2230 3.0600 3.0453
-6.3592 3.9601 3.0474
-6.3299 3.7068 3.0468
-6.1554 2.7523 3.0445
-6.2069 2.9821 3.0451
-6.3502 3.8750 3.0472
-6.2815 3.3782 3.0460
-6.3188 3.6237 3.0466
-6.1372 2.6770 3.0444
-6.1903 2.9048 3.0449
-6.3404 3.7906 3.0470
-6.2677 3.2977 3.0458
-6.3070 3.5412 3.0464
-6.1185 2.6024 3.0442
-6.1731 2.8282 3.0447
-6.2534 3.2178 3.0457
-6.2945 3.4594 3.0462
-6.0795 2.4552 3.0438
-6.0992 2.5285 3.0440
-6.2385 3.1385 3.0455
-5.9055 1.8926 3.0424
-5.9960 2.1687 3.0431
-6.0593 2.3826 3.0436
-5.7062 1.3714 3.0411
-5.8819 1.8252 3.0423
-5.8087 1.6269 3.0418
-5.9740 2.0987 3.0429
-6.0386 2.3106 3.0435
-5.6798 1.3091 3.0410
-5.8579 1.7585 3.0421
-5.7836 1.5621 3.0416
-6.0175 2.2393 3.0433
-5.9516 2.0293 3.0428
-5.6530 1.2474 3.0408
-5.8335 1.6923 3.0419
-5.7582 1.4979 3.0414
-5.4864 0.8902 3.0399
-5.6260 1.1863 3.0407
-5.9287 1.9606 3.0426
-5.5986 1.1259 3.0405
-5.4576 0.8328 3.0397
-5.3699 0.6642 3.0393
-5.7324 1.4343 3.0413
-5.5710 1.0661 3.0403
-5.2498 0.4476 3.0387
-5.4286 0.7760 3.0396
-5.3402 0.6092 3.0392
-5.1262 0.2401 3.0382
-5.5431 1.0069 3.0402
-5.3994 0.7198 3.0395
-5.2192 0.3948 3.0386
-5.3103 0.5547 3.0390
-5.5148 0.9483 3.0400
-5.0949 0.1896 3.0381
-5.2801 0.5009 3.0389
-4.9997 0.0415 3.0377
-5.1884 0.3427 3.0385
-4.7389 -0.3300 3.0367
-4.9676 -0.0068 3.0375
-4.8705 -0.1485 3.0372
-5.0633 0.1397 3.0379
-5.1574 0.2911 3.0383
-4.7057 -0.3742 3.0366
-4.9354 -0.0546 3.0374
-4.8378 -0.1947 3.0370
-5.0316 0.0903 3.0378
-4.6724 -0.4177 3.0364
-4.9030 -0.1018 3.0373
-4.6053 -0.5034 3.0362
-4.8050 -0.2403 3.0369
-4.4698 -0.6689 3.0358
-4.6389 -0.4608 3.0363
-4.3326 -0.8267 3.0353
-4.5716 -0.5455 3.0361
-4.7720 -0.2854 3.0368
-4.1941 -0.9771 3.0349
-4.2981 -0.8650 3.0352
-4.4356 -0.7091 3.0357
-4.1592 -1.0136 3.0348
-4.5377 -0.5872 3.0360
-4.0542 -1.1203 3.0345
-4.2635 -0.9028 3.0351
-4.4014 -0.7488 3.0355
-4.1243 -1.0496 3.0347
-4.2288 -0.9402 3.0350
-4.0191 -1.1549 3.0344
-4.5038 -0.6283 3.0359
-4.0893 -1.0851 3.0346
-4.3671 -0.7880 3.0354
-3.9134 -1.2564 3.0341
-3.6289 -1.5087 3.0334
-3.9839 -1.1892 3.0343
-3.7715 -1.3858 3.0338
-3.8780 -1.2894 3.0340
-3.5931 -1.5384 3.0333
-3.9487 -1.2230 3.0342
-3.8425 -1.3220 3.0339
-3.7359 -1.4172 3.0337
-3.5573 -1.5677 3.0332
-3.8070 -1.3541 3.0338
-3.5214 -1.5966 3.0331
-3.4855 -1.6252 3.0331
-3.7003 -1.4481 3.0336
-3.4496 -1.6533 3.0330
-3.6646 -1.4786 3.0335
-3.4136 -1.6811 3.0329
-3.3776 -1.7084 3.0328
-3.3416 -1.7355 3.0327
-3.3056 -1.7621 3.0327
-3.2694 -1.7883 3.0326
