ply
format ascii 1.0
element vertex 1426
property float32 x
property float32 y
property float32 z
end_header
-4.7538 13.8248 -7.0163
-5.1948 13.6406 -6.9533
-4.9122 13.7947 -7.0109
-4.9076 13.3208 -6.7800
-5.3834 13.6864 -6.9876
-5.6956 13.2009 -6.7737
-5.4937 13.5333 -6.9207
-5.9519 13.3939 -6.8851
-5.5610 13.2834 -6.8042
-6.0811 13.2946 -6.8467
-6.0462 12.8489 -6.6298
-6.0053 12.4119 -6.4169
-6.7194 12.4839 -6.5091
-6.4500 12.9717 -6.7199
-6.4591 12.6459 -6.5648
-6.4877 12.3708 -6.4359
-21.9721 12.1069 -8.3610
-22.3551 10.8926 -7.9413
-22.4091 12.0551 -8.4103
-22.7625 11.9517 -8.4259
-22.9674 11.7666 -8.3857
-23.0678 11.5273 -8.3075
-4.3172 12.7508 -5.7094
-4.6168 13.1677 -5.9028
-4.8536 13.3807 -6.0053
-5.2087 13.8926 -6.2426
-5.1690 13.3490 -6.0059
-5.4939 13.7484 -6.1937
-5.6382 13.6820 -6.1721
-5.8047 13.6689 -6.1748
-5.9669 13.6432 -6.1721
-6.1453 13.6516 -6.1850
-6.1132 13.2018 -5.9904
-5.9829 12.5669 -5.7113
-6.3949 13.0713 -5.9503
-6.4454 12.8263 -5.8485
-6.4897 12.5790 -5.7457
-6.5176 12.3098 -5.6328
-6.8134 12.5444 -5.7507
-21.7502 12.0461 -6.9927
-22.3532 12.6741 -7.2957
-22.1490 11.9791 -7.0144
-23.0554 11.5913 -6.9788
-22.3645 11.8085 -6.9768
-23.1847 11.3686 -6.9130
-22.8392 11.7693 -7.0184
-23.1141 11.0501 -6.7887
-22.9551 10.4191 -6.5413
-23.0120 10.7217 -6.6574
-39.6645 10.9143 -8.8208
-39.0096 10.3250 -8.5367
-39.8403 10.1296 -8.5785
-39.9955 9.7545 -8.4727
-4.5087 14.0123 -5.4677
-4.2246 12.6664 -4.9464
-4.4411 12.8592 -5.0257
-4.6658 13.0593 -5.1081
-5.1322 13.8981 -5.4409
-5.3000 13.8977 -5.4456
-5.4776 13.9190 -5.4589
-5.4457 13.4196 -5.2681
-5.6984 13.6271 -5.3548
-5.8449 13.5729 -5.3389
-5.9020 13.3168 -5.2437
-5.9583 13.0698 -5.1520
-6.0133 12.8306 -5.0634
-6.6801 12.8203 -5.0838
-6.4129 13.3162 -5.2611
-6.7722 12.6707 -5.0310
-6.8630 12.5227 -4.9790
-6.2879 12.7127 -5.0286
-7.1666 12.7575 -5.0793
-6.5867 12.9718 -5.1374
-13.8802 11.1805 -4.8672
-22.2299 12.6606 -5.9651
-21.9512 13.0873 -6.0914
-21.8846 12.1774 -5.7744
-22.0682 12.8609 -6.0220
-22.4638 12.2092 -5.8280
-22.6689 11.7443 -5.6851
-22.3512 11.8622 -5.7014
-22.8310 11.5429 -5.6290
-22.8433 10.7108 -5.3491
-22.8613 11.2757 -5.5408
-22.6396 10.3440 -5.2102
-23.5253 10.4696 -5.3205
-22.9045 11.0168 -5.4568
-39.0175 11.2832 -6.8239
-39.2855 10.9470 -6.7374
-38.8614 10.4220 -6.5338
-39.0819 10.0744 -6.4404
-4.2656 13.9587 -4.6776
-4.4223 13.9465 -4.6752
-4.5796 13.9342 -4.6728
-4.3469 12.7734 -4.2852
-4.5650 12.9676 -4.3521
-5.0516 13.8844 -4.6617
-5.2029 13.8481 -4.6515
-5.3227 13.7292 -4.6137
-5.4177 13.5526 -4.5564
-5.5465 13.4654 -4.5292
-5.5898 13.1785 -4.4349
-5.9556 13.6435 -4.5938
-5.8660 13.0653 -4.4014
-6.3373 13.7308 -4.6281
-6.5053 13.7179 -4.6264
-6.3925 13.1257 -4.4292
-6.4986 12.9989 -4.3890
-6.5913 12.8491 -4.3411
-6.6828 12.7012 -4.2939
-6.7731 12.5554 -4.2473
-7.0686 12.7844 -4.3277
-14.1693 14.2809 -4.9690
-14.1334 13.9595 -4.8643
-14.1210 13.6682 -4.7700
-14.0857 13.3614 -4.6702
-14.0424 13.0539 -4.5701
-14.0219 12.7739 -4.4794
-39.7706 28.3140 -10.1714
-22.0600 12.9073 -4.7556
-21.3098 12.1874 -4.5053
-21.6931 12.1240 -4.4974
-22.0532 12.0413 -4.4827
-22.4848 11.9908 -4.4805
-22.4855 11.7083 -4.3919
-22.7703 11.5731 -4.3587
-21.5586 10.4292 -3.9615
-23.1702 10.9294 -4.1703
-22.6710 11.2435 -4.2523
-22.6861 10.4302 -3.9986
-32.2184 12.5788 -4.9842
-32.0765 11.1022 -4.5229
-32.1838 12.2046 -4.8671
-32.1135 11.4666 -4.6366
-39.1758 11.0478 -4.7519
-38.3406 10.4117 -4.5280
-4.2123 13.9836 -3.9437
-4.3669 13.9716 -3.9398
-4.5222 13.9596 -3.9359
-4.6781 13.9475 -3.9319
-4.4747 12.8972 -3.6352
-4.6037 12.8393 -3.6183
-4.8169 13.0098 -3.6658
-5.0375 13.1861 -3.7148
-5.2512 13.3314 -3.7550
-5.4544 13.4393 -3.7848
-5.6132 13.4319 -3.7820
-5.8388 13.5770 -3.8221
-5.9052 13.3514 -3.7578
-6.0013 13.1999 -3.7144
-6.0959 13.0506 -3.6715
-6.1894 12.9034 -3.6293
-6.2817 12.7582 -3.5877
-6.5672 13.0000 -3.6548
-6.6740 12.8816 -3.6206
-6.8894 12.9704 -3.6446
-6.9497 12.7667 -3.5864
-7.4678 13.3905 -3.7607
-7.5240 13.1730 -3.6986
-7.6491 13.0799 -3.6714
-28.2226 31.4189 -8.7500
-28.5249 31.1204 -8.6624
-28.8268 30.8226 -8.5748
-29.1283 30.5252 -8.4874
-29.4296 30.2282 -8.4000
-29.7307 29.9316 -8.3126
-32.0684 31.6451 -8.7832
-30.8604 29.8498 -8.2797
-32.6731 29.1707 -8.0694
-36.6334 32.0564 -8.8612
-36.9700 31.7068 -8.7579
-36.2347 30.4559 -8.4058
-36.6609 30.1976 -8.3278
-37.2051 30.0307 -8.2749
-37.2579 29.4677 -8.1128
-38.2461 29.6377 -8.1523
-38.2937 29.0720 -7.9893
-38.3407 28.5138 -7.8285
-39.6790 28.3080 -7.7564
-21.0751 12.3783 -3.3542
-21.5460 12.3722 -3.3475
-21.5021 12.0682 -3.2602
-21.8678 11.9932 -3.2347
-22.2414 11.9164 -3.2085
-22.6413 11.8469 -3.1842
-22.7803 11.6374 -3.1221
-22.6279 11.2821 -3.0210
-21.5041 10.4608 -2.7954
-23.6853 11.2374 -2.9966
-23.4950 10.8676 -2.8916
-32.0457 10.8447 -2.7890
-38.3522 11.3439 -2.8617
-38.5248 10.9909 -2.7568
-4.0430 14.1410 -3.2604
-4.1992 14.1391 -3.2574
-4.3562 14.1370 -3.2543
-4.4907 14.0614 -3.2341
-4.5638 13.8026 -3.1718
-4.7103 13.7727 -3.1620
-4.8572 13.7427 -3.1521
-4.7587 13.0396 -2.9878
-5.1519 13.6823 -3.1319
-5.2998 13.6519 -3.1216
-5.2311 13.0788 -2.9873
-5.4595 13.2572 -3.0245
-5.6962 13.4419 -3.0630
-5.8121 13.3366 -3.0353
-5.9209 13.2180 -3.0045
-6.0287 13.1005 -2.9739
-6.2121 13.1461 -2.9803
-6.4100 13.2164 -2.9920
-6.5273 13.1179 -2.9655
-6.6440 13.0201 -2.9390
-6.7600 12.9227 -2.9125
-7.1420 13.3231 -2.9980
-7.2660 13.2312 -2.9725
-7.3894 13.1396 -2.9469
-26.5597 32.6394 -7.0469
-26.7495 32.2105 -6.9340
-26.9380 31.7869 -6.8223
-27.1251 31.3683 -6.7115
-27.3108 30.9544 -6.6018
-27.3404 30.3731 -6.4564
-27.8195 30.2939 -6.4176
-28.3048 30.2139 -6.3781
-28.0913 29.3953 -6.1827
-29.4194 30.1795 -6.3238
-29.7309 29.8999 -6.2408
-30.5114 30.0825 -6.2537
-36.5809 32.0190 -6.4771
-36.8425 31.6117 -6.3620
-37.0400 31.1526 -6.2363
-38.5887 28.1634 -5.3978
-38.5823 27.5832 -5.2483
-38.6235 27.0448 -5.1070
-38.4270 26.3503 -4.9367
-39.8527 26.7585 -4.9720
-40.3795 26.5430 -4.8897
-40.9691 26.3609 -4.8126
-41.5307 26.1523 -4.7297
-21.5123 12.9673 -2.2981
-21.5334 12.6954 -2.2256
-21.2271 12.2377 -2.1210
-21.6006 12.1744 -2.0848
-21.9828 12.1095 -2.0475
-22.9435 12.3493 -2.0603
-22.7159 11.9435 -1.9647
-22.5806 11.5937 -1.8788
-23.1355 11.5961 -1.8497
-23.1622 11.3296 -1.7770
-23.6778 11.2985 -1.7407
-23.3916 10.8847 -1.6453
-23.2051 10.5256 -1.5590
-23.1416 10.2276 -1.4822
-23.0788 9.9339 -1.4064
-4.1187 14.0642 -2.5302
-4.2725 14.0621 -2.5252
-4.4272 14.0599 -2.5200
-4.5358 13.9137 -2.4888
-4.7392 14.0555 -2.5089
-4.9135 14.1018 -2.5118
-5.1341 14.2710 -2.5362
-5.0676 13.6532 -2.4208
-5.1404 13.4338 -2.3761
-5.2847 13.4055 -2.3652
-5.4294 13.3770 -2.3540
-5.5215 13.2212 -2.3203
-5.7592 13.4103 -2.3470
-5.8763 13.3129 -2.3232
-5.9927 13.2161 -2.2995
-6.1084 13.1200 -2.2757
-6.4208 13.4375 -2.3233
-6.5724 13.4080 -2.3106
-6.7247 13.3781 -2.2976
-6.2678 12.1643 -2.0818
-6.1711 11.6881 -1.9930
-7.0988 13.1259 -2.2297
-7.1731 12.9524 -2.1917
-7.3275 12.9251 -2.1782
-7.4410 12.8253 -2.1524
-7.5540 12.7260 -2.1266
-28.1281 33.1051 -5.0051
-28.0680 32.3815 -4.8571
-28.6221 32.3706 -4.8157
-28.6149 31.7270 -4.6799
-28.3380 30.8047 -4.5039
-27.7822 29.6105 -4.2897
-28.3241 29.5993 -4.2473
-29.0827 29.8003 -4.2340
-29.3574 29.4965 -4.1478
-30.2978 29.8496 -4.1527
-30.5891 29.5509 -4.0654
-30.8691 29.2419 -3.9764
-30.9912 28.7867 -3.8673
-33.8866 30.8636 -4.0941
-32.5789 29.0945 -3.8087
-33.0189 28.9121 -3.7329
-33.4633 28.7283 -3.6560
-37.9978 30.7350 -3.7296
-39.3386 30.5704 -3.5791
-40.1500 29.3616 -3.2336
-40.2279 27.6555 -2.8332
-41.2971 27.8040 -2.7721
-40.8687 26.9430 -2.6097
-21.5715 12.7673 -1.0340
-21.7849 12.6106 -0.9766
-21.5702 12.2094 -0.9005
-21.8860 12.1103 -0.8467
-22.1691 11.9887 -0.7903
-22.4562 11.8651 -0.7328
-22.7995 11.7663 -0.6756
-22.6712 11.4244 -0.6043
-23.0055 11.3160 -0.5451
-22.6669 10.8793 -0.4703
-23.0436 10.7880 -0.4107
-22.9913 10.4947 -0.3428
-22.9397 10.2053 -0.2756
-4.2161 14.0724 -1.8276
-4.3754 14.0922 -1.8234
-4.4473 13.8362 -1.7832
-4.5920 13.8133 -1.7731
-4.7372 13.7903 -1.7626
-4.8827 13.7671 -1.7519
-5.0287 13.7437 -1.7409
-5.1752 13.7202 -1.7297
-5.3222 13.6964 -1.7181
-5.4989 13.7455 -1.7154
-5.7179 13.8917 -1.7244
-5.9191 13.9850 -1.7264
-5.8843 13.5276 -1.6603
-5.9626 13.3446 -1.6281
-6.0735 13.2390 -1.6052
-6.2935 13.3678 -1.6104
-6.4185 13.2906 -1.5904
-6.5433 13.2137 -1.5703
-6.1694 12.1548 -1.4341
-6.0775 11.6863 -1.3686
-6.9498 13.0472 -1.5161
-7.0915 13.0021 -1.4988
-7.2039 12.9038 -1.4751
-7.3158 12.8058 -1.4513
-7.4541 12.7543 -1.4326
-28.5610 33.5350 -2.9616
-27.0931 31.1895 -2.7008
-27.5869 31.1392 -2.6415
-27.9480 30.9339 -2.5678
-28.5962 31.0379 -2.5184
-29.2057 31.0863 -2.4626
-29.1623 30.4409 -2.3512
-29.7137 30.4184 -2.2875
-29.5679 29.6861 -2.1702
-30.4497 29.9829 -2.1272
-30.6685 29.6171 -2.0354
-31.1553 29.5080 -1.9604
-30.7876 28.5981 -1.8325
-32.6680 29.7598 -1.8347
-22.4309 12.4702 0.3520
-22.5264 12.2417 0.4154
-22.6214 12.0137 0.4791
-22.3467 11.5944 0.5342
-22.7527 11.5295 0.6057
-22.7027 11.2320 0.6658
-22.6532 10.9386 0.7254
-32.0629 10.8195 2.1337
-46.9647 15.3496 3.2491
0.3859 45.6086 -4.0786
-0.0642 45.5592 -4.0745
-0.5134 45.5077 -4.0694
-0.9616 45.4543 -4.0631
-1.4089 45.3988 -4.0558
-1.8552 45.3414 -4.0475
-2.3007 45.2819 -4.0380
-2.7453 45.2205 -4.0276
-3.1890 45.1570 -4.0160
-3.6319 45.0916 -4.0035
-4.0740 45.0242 -3.9898
-4.5153 44.9548 -3.9752
-4.9558 44.8834 -3.9594
-5.3956 44.8101 -3.9427
-5.8347 44.7347 -3.9248
-6.2731 44.6574 -3.9060
-6.7108 44.5781 -3.8861
-7.1479 44.4968 -3.8651
-7.5843 44.4135 -3.8432
-8.0201 44.3282 -3.8201
-8.4553 44.2409 -3.7960
-8.8900 44.1516 -3.7709
-9.3241 44.0603 -3.7447
-9.7576 43.9670 -3.7175
-10.1907 43.8717 -3.6893
-10.6232 43.7744 -3.6600
-11.0553 43.6750 -3.6296
-11.4870 43.5737 -3.5982
-11.9181 43.4703 -3.5657
-12.3489 43.3649 -3.5322
-4.2786 13.9758 -1.1214
-4.4352 13.9948 -1.1139
-4.5932 14.0138 -1.1060
-4.7526 14.0330 -1.0978
-4.8964 14.0037 -1.0854
-5.0324 13.9517 -1.0710
-5.1682 13.8996 -1.0563
-5.0809 13.2653 -0.9975
-5.2791 13.3883 -0.9957
-5.5863 13.7705 -1.0124
-5.6902 13.6414 -0.9909
-5.7840 13.4930 -0.9679
-6.0469 13.7334 -0.9723
-5.9617 13.1887 -0.9210
-6.0833 13.1143 -0.9028
-6.3399 13.3246 -0.9036
-6.4801 13.2833 -0.8868
-6.0726 12.1454 -0.7976
-6.7115 13.1017 -0.8458
-6.8263 13.0114 -0.8249
-6.9407 12.9214 -0.8039
-7.0546 12.8316 -0.7826
-7.2021 12.8027 -0.7648
-24.5406 42.6464 -2.4925
-25.0415 42.5526 -2.4305
-25.5453 42.4575 -2.3671
-26.0520 42.3611 -2.3022
-26.5618 42.2632 -2.2358
-26.8538 41.8196 -2.1503
-27.3986 41.7695 -2.0840
-27.4559 32.1707 -0.8276
-27.7760 31.9165 -0.7495
-28.0959 31.6616 -0.6705
-28.4154 31.4059 -0.5906
-30.7155 33.2970 -0.5450
-28.7932 30.6156 -0.4243
-28.6326 29.8629 -0.3368
-29.6993 30.3840 -0.2620
-29.9579 30.0641 -0.1771
-30.8570 30.3760 -0.0935
-31.9636 30.8655 -0.0056
-32.7263 30.9995 0.0868
-32.8742 30.5454 0.1793
-30.6707 25.3708 0.6687
-31.2065 25.3141 0.7634
-31.7523 25.2563 0.8606
-32.3087 25.1975 0.9605
-32.8760 25.1374 1.0632
-33.4547 25.0762 1.1688
-33.9404 24.9366 1.2735
-34.6435 24.9464 1.3889
-35.2591 24.8813 1.5039
-35.8881 24.8147 1.6222
-36.5311 24.7466 1.7440
-37.1886 24.6771 1.8694
-37.8613 24.6059 1.9987
-38.5497 24.5330 2.1319
-39.1391 24.3864 2.2625
-39.9851 24.3869 2.4113
-40.7255 24.3085 2.5575
-41.4849 24.2281 2.7083
-42.2640 24.1457 2.8641
-42.5865 23.2645 3.0967
-41.5772 22.2013 3.1260
-22.5556 11.7694 1.7515
-40.5541 20.6719 3.2491
-39.3445 19.5854 3.2491
-38.2054 18.5665 3.2491
-37.1307 17.6092 3.2491
-36.1150 16.7082 3.2491
-35.1533 15.8588 3.2491
-34.2410 15.0566 3.2491
-33.3745 14.2981 3.2491
-32.5503 13.5798 3.2491
-30.2751 12.2936 3.0967
-29.5612 11.6773 3.0967
-28.8793 11.0915 3.0967
-28.2272 10.5339 3.0967
-27.6030 10.0028 3.0967
-27.5185 9.6769 3.1557
-27.7313 9.4562 3.2491
-0.0599 43.0473 -1.8373
-0.4787 43.0088 -1.8350
-0.8969 42.9704 -1.8317
-1.3144 42.9320 -1.8274
-1.7314 42.8936 -1.8220
-2.1481 42.8553 -1.8157
-2.5643 42.8171 -1.8083
-2.9803 42.7788 -1.8000
-3.3961 42.7406 -1.7906
-3.8117 42.7024 -1.7802
-4.2273 42.6641 -1.7688
-4.6429 42.6259 -1.7564
-5.0586 42.5877 -1.7430
-5.4745 42.5495 -1.7286
-5.8906 42.5112 -1.7131
-6.3070 42.4729 -1.6966
-6.7238 42.4346 -1.6791
-7.1411 42.3962 -1.6605
-7.5590 42.3578 -1.6409
-7.9775 42.3193 -1.6202
-8.3966 42.2808 -1.5985
-8.8166 42.2422 -1.5758
-9.2374 42.2035 -1.5519
-9.6591 42.1647 -1.5270
-10.0819 42.1258 -1.5010
-10.5057 42.0868 -1.4739
-10.9308 42.0478 -1.4457
-11.3571 42.0086 -1.4164
-4.4654 13.8192 -0.4140
-4.6132 13.8171 -0.4024
-4.7617 13.8149 -0.3903
-4.9111 13.8124 -0.3778
-5.0613 13.8098 -0.3649
-5.1165 13.5528 -0.3450
-5.2473 13.5024 -0.3303
-5.3781 13.4518 -0.3152
-5.5997 13.6224 -0.3048
-5.7539 13.6214 -0.2898
-5.9671 13.7538 -0.2771
-5.9663 13.3958 -0.2543
-6.0813 13.3067 -0.2366
-6.0046 12.8101 -0.2119
-5.9568 12.3952 -0.1893
-5.9115 12.0029 -0.1675
-6.5355 12.9532 -0.1633
-6.6881 12.9437 -0.1451
-6.7873 12.8308 -0.1255
-7.2392 13.3716 -0.1111
-23.5195 42.4611 -0.2885
-23.4589 41.4059 -0.2168
-24.6295 42.5125 -0.1545
-25.1507 42.4646 -0.0844
-25.6764 42.4163 -0.0125
-26.2068 42.3675 0.0612
-26.9190 40.8388 0.2843
-27.4840 40.8371 0.3636
-20.5087 26.4527 0.6369
-20.8857 26.4128 0.6997
-21.2671 26.3725 0.7640
-21.6530 26.3316 0.8299
-22.0438 26.2903 0.8975
-22.4394 26.2484 0.9667
-22.8402 26.2060 1.0377
-23.1724 26.0801 1.1069
-23.5826 26.0367 1.1812
-24.0692 26.0694 1.2611
-24.4920 26.0247 1.3395
-24.9208 25.9793 1.4198
-25.3558 25.9333 1.5022
-25.7973 25.8866 1.5866
-26.2455 25.8391 1.6733
-26.7006 25.7910 1.7622
-27.1629 25.7420 1.8533
-27.6326 25.6923 1.9469
-28.1099 25.6418 2.0429
-28.5099 25.5140 2.1351
-29.0877 25.5371 2.2426
-29.5899 25.4840 2.3464
-30.1010 25.4299 2.4531
-30.6214 25.3748 2.5627
-31.1514 25.3187 2.6752
-31.6912 25.2616 2.7909
-32.2415 25.2033 2.9098
-33.5052 25.6825 3.0970
-32.7306 24.5993 3.0967
-31.9936 23.5737 3.0967
-32.1241 23.2030 3.1794
-32.1219 22.7410 3.2491
-31.4445 21.8168 3.2491
-30.7948 20.9365 3.2491
-30.1712 20.0970 3.2491
-29.5718 19.2958 3.2491
-28.9954 18.5304 3.2491
-28.4404 17.7985 3.2491
-27.9056 17.0982 3.2491
-27.3898 16.4275 3.2491
-26.8919 15.7846 3.2491
-26.4111 15.1681 3.2491
-25.9462 14.5762 3.2491
-24.3005 13.3507 3.0967
-23.8855 12.8299 3.0967
-22.4979 11.8116 2.9668
-22.7212 11.6559 3.0468
-22.7160 11.3830 3.0967
-22.3491 10.9358 3.0967
-21.9928 10.5047 3.0967
-22.0255 10.2656 3.1509
-22.3589 10.1645 3.2491
-22.0154 9.7581 3.2491
-21.6811 9.3655 3.2491
-21.3556 8.9860 3.2491
-21.0385 8.6192 3.2491
-20.7295 8.2644 3.2491
-20.4281 7.9210 3.2491
-20.1341 7.5885 3.2491
-19.8472 7.2665 3.2491
-19.5671 6.9546 3.2491
4.8058 45.9176 0.2536
4.3566 45.8763 0.2401
3.9089 45.8352 0.2280
3.4628 45.7942 0.2172
3.0181 45.7533 0.2076
2.5747 45.7125 0.1994
2.1325 45.6719 0.1924
1.6915 45.6313 0.1868
1.2506 45.5538 0.1822
0.8132 45.5784 0.1794
0.3888 47.2138 0.1840
-0.0591 43.0542 0.1674
-0.4723 43.0159 0.1680
-0.8848 42.9778 0.1698
-1.2968 42.9396 0.1728
-1.7082 42.9016 0.1770
-2.1193 42.8635 0.1823
-2.5300 42.8255 0.1888
-2.9404 42.7876 0.1965
-3.3506 42.7496 0.2054
-3.7606 42.7117 0.2155
-4.1706 42.6737 0.2268
-4.5806 42.6358 0.2392
-4.9906 42.5979 0.2528
-5.4009 42.5599 0.2677
-5.8114 42.5219 0.2837
-6.2221 42.4839 0.3009
-6.6332 42.4459 0.3193
-7.0448 42.4078 0.3389
-7.4569 42.3697 0.3598
-7.8696 42.3315 0.3819
-8.2829 42.2933 0.4051
-8.6970 42.2549 0.4297
-9.1119 42.2165 0.4554
-9.5277 42.1781 0.4825
-9.9445 42.1395 0.5107
-10.3623 42.1008 0.5403
-10.7813 42.0621 0.5711
-11.2014 42.0232 0.6033
-11.6228 41.9842 0.6367
-9.9551 27.5605 0.6303
-5.0092 13.4635 0.3230
-5.1546 13.4595 0.3385
-5.3009 13.4552 0.3546
-5.4481 13.4507 0.3711
-5.5962 13.4459 0.3881
-5.7717 13.5028 0.4076
-5.7248 13.0470 0.4115
-5.7814 12.8416 0.4230
-5.7407 12.4329 0.4275
-6.1519 12.9966 0.4662
-6.2673 12.9203 0.4832
-6.6119 13.3063 0.5186
-6.7373 13.2407 0.5374
-14.1320 27.1307 1.1465
-14.4444 27.0976 1.1915
-14.7592 27.0643 1.2378
-15.0763 27.0308 1.2852
-15.3960 26.9969 1.3340
-15.7182 26.9628 1.3839
-16.0431 26.9285 1.4352
-16.3708 26.8938 1.4878
-16.7013 26.8588 1.5417
-17.0348 26.8235 1.5970
-17.3713 26.7879 1.6537
-17.7109 26.7520 1.7119
-17.9981 26.6331 1.7660
-18.3433 26.5966 1.8269
-18.7472 26.6381 1.8949
-19.1006 26.6007 1.9591
-19.4576 26.5629 2.0249
-19.8186 26.5247 2.0923
-20.1834 26.4861 2.1614
-20.5525 26.4471 2.2323
-20.9257 26.4076 2.3049
-21.3033 26.3676 2.3793
-21.6855 26.3272 2.4555
-22.0724 26.2862 2.5337
-22.4641 26.2448 2.6138
-22.8608 26.2028 2.6960
-23.1890 26.0773 2.7714
-23.5949 26.0343 2.8574
-24.0774 26.0675 2.9544
-24.9125 26.4659 3.0969
-24.5915 25.6356 3.0967
-24.2781 24.8354 3.0967
-24.0037 24.0956 3.1010
-24.3924 24.0282 3.1913
-24.5251 23.7073 3.2491
-24.2213 22.9759 3.2491
-23.9234 22.2686 3.2491
-23.6312 21.5846 3.2491
-14.0799 12.6192 1.9595
-23.0629 20.2818 3.2491
-22.7866 19.6614 3.2491
-22.5153 19.0604 3.2491
-22.2489 18.4782 3.2491
-21.9874 17.9139 3.2491
-21.7303 17.3669 3.2491
-21.4778 16.8363 3.2491
-21.2297 16.3217 3.2491
-20.9858 15.8223 3.2491
-20.7460 15.3376 3.2491
-20.5103 14.8671 3.2491
-19.3273 13.7343 3.0967
-19.1100 13.3112 3.0967
-18.8963 12.9002 3.0967
-18.6859 12.5007 3.0967
-18.4790 12.1124 3.0967
-18.2753 11.7348 3.0967
-18.0748 11.3676 3.0967
-17.8774 11.0104 3.0967
-17.7867 10.7252 3.1149
-18.0906 10.6780 3.2028
-18.1547 10.4870 3.2491
-17.9598 10.1506 3.2491
-17.7678 9.8229 3.2491
-17.5787 9.5038 3.2491
-17.3923 9.1928 3.2491
-17.2085 8.8898 3.2491
-17.0274 8.5944 3.2491
-16.8488 8.3065 3.2491
-16.6727 8.0257 3.2491
-16.4990 7.7519 3.2491
-16.3277 7.4848 3.2491
-16.1587 7.2242 3.2491
-15.9919 6.9700 3.2491
-15.8274 6.7218 3.2491
-15.6651 6.4796 3.2491
-15.5047 6.2430 3.2491
-15.3458 6.0118 3.2490
-15.1888 5.7860 3.2488
-15.0339 5.5654 3.2486
2.9860 28.9310 1.5141
2.6985 28.8143 1.4986
2.4211 28.7870 1.4886
2.1507 28.8407 1.4838
1.8743 28.8115 1.4755
1.5987 28.7824 1.4683
1.3240 28.7533 1.4619
1.0501 28.7244 1.4565
0.7769 28.6955 1.4520
0.5044 28.6667 1.4484
0.2325 28.6380 1.4458
-0.0387 28.6093 1.4440
-0.3095 28.5807 1.4431
-0.5798 28.5521 1.4431
-0.8496 28.5236 1.4441
-1.1190 28.4951 1.4459
-1.3881 28.4667 1.4486
-1.6569 28.4382 1.4523
-1.9254 28.4098 1.4568
-2.1937 28.3815 1.4622
-2.4547 28.2696 1.4642
-2.7219 28.2414 1.4713
-2.9992 28.3083 1.4844
-3.2673 28.2799 1.4934
-3.5354 28.2516 1.5033
-3.8036 28.2232 1.5140
-4.0719 28.1948 1.5257
-4.3404 28.1665 1.5383
-4.6091 28.1380 1.5518
-4.8781 28.1096 1.5662
-5.1473 28.0811 1.5816
-5.4169 28.0526 1.5978
-5.6870 28.0241 1.6150
-5.9574 27.9955 1.6331
-6.2284 27.9668 1.6522
-6.4999 27.9381 1.6722
-6.7720 27.9093 1.6931
-7.0448 27.8805 1.7150
-7.3182 27.8516 1.7379
-7.5666 27.7280 1.7558
-7.8406 27.6990 1.7805
-8.1193 27.6826 1.8071
-8.4161 27.7224 1.8384
-8.6937 27.6930 1.8662
-8.9722 27.6635 1.8951
-9.2519 27.6340 1.9249
-9.5326 27.6043 1.9559
-9.8145 27.5744 1.9878
-10.0977 27.5445 2.0209
-10.3821 27.5144 2.0550
-10.6678 27.4842 2.0902
-10.9550 27.4538 2.1266
-11.2436 27.4233 2.1640
-5.6837 13.4987 1.0854
-5.5584 12.8610 1.0540
-12.1189 27.3307 2.2833
-6.0016 13.1980 1.1243
-6.1230 13.1353 1.1411
-12.9714 27.1562 2.4063
-13.2712 27.1245 2.4520
-13.6188 27.1841 2.5074
-13.9237 27.1518 2.5558
-14.2307 27.1193 2.6056
-14.5400 27.0866 2.6567
-14.8515 27.0536 2.7091
-15.1655 27.0204 2.7630
-15.4819 26.9869 2.8182
-15.8008 26.9532 2.8750
-16.1224 26.9191 2.9332
-16.4468 26.8848 2.9928
-17.0089 27.2262 3.0968
-16.9936 26.6420 3.0967
-16.9738 26.0684 3.0967
-16.9493 25.5043 3.0967
-16.9202 24.9499 3.0967
-17.1668 24.8095 3.1481
-17.4807 24.7638 3.2128
-17.6352 24.4923 3.2491
-17.5879 23.9502 3.2491
-17.5370 23.4180 3.2491
-17.4826 22.8953 3.2491
-17.4250 22.3823 3.2491
-17.3642 21.8787 3.2491
-17.3006 21.3844 3.2491
-17.2342 20.8994 3.2491
-17.1652 20.4235 3.2491
-17.0938 19.9567 3.2491
-17.0201 19.4987 3.2491
-16.9443 19.0494 3.2491
-16.8665 18.6087 3.2491
-16.7868 18.1765 3.2491
-16.7053 17.7526 3.2491
-16.6222 17.3370 3.2491
-16.5376 16.9293 3.2491
-16.4516 16.5296 3.2491
-16.3642 16.1377 3.2491
-16.2756 15.7534 3.2491
-16.1860 15.3766 3.2491
-15.3403 14.3032 3.0967
-15.2529 13.9580 3.0967
-14.0330 12.6031 2.8656
-15.0758 13.2876 3.0967
-14.9861 12.9622 3.0967
-14.8958 12.6432 3.0967
-14.8049 12.3304 3.0967
-14.7136 12.0237 3.0967
-14.6217 11.7230 3.0967
-14.5296 11.4282 3.0967
-14.4370 11.1391 3.0967
-14.6120 11.0583 3.1546
-14.8483 11.0210 3.2265
-14.8545 10.8123 3.2491
-14.7564 10.5319 3.2491
-14.6581 10.2569 3.2491
-14.5598 9.9872 3.2491
-14.4614 9.7227 3.2491
-14.3630 9.4633 3.2491
-14.2645 9.2089 3.2491
-14.1661 8.9594 3.2491
-14.0678 8.7146 3.2491
-13.9695 8.4745 3.2491
-13.8708 8.2387 3.2490
-13.5759 7.5579 3.2487
-13.7724 8.0074 3.2489
-13.4780 7.3396 3.2486
-13.6741 7.7805 3.2488
-13.3804 7.1253 3.2485
-13.1858 6.7089 3.2483
-13.2830 6.9151 3.2484
-13.0889 6.5065 3.2482
-12.8000 5.9216 3.2479
-12.9923 6.3078 3.2481
-12.7043 5.7338 3.2478
-12.8960 6.1129 3.2480
-12.6090 5.5496 3.2477
-12.4194 5.1911 3.2475
-12.5140 5.3687 3.2476
-12.3251 5.0168 3.2475
-12.2312 4.8456 3.2474
-12.1377 4.6776 3.2473
2.9434 28.9256 2.8741
2.6600 28.8094 2.8520
2.3866 28.7825 2.8398
2.1202 28.8366 2.8366
1.8477 28.8078 2.8262
1.5761 28.7791 2.8170
1.3053 28.7505 2.8087
1.0353 28.7220 2.8015
0.7660 28.6935 2.7953
0.4973 28.6651 2.7902
0.2293 28.6368 2.7861
-0.0382 28.6085 2.7829
-0.3051 28.5803 2.7808
-0.5716 28.5521 2.7798
-0.8377 28.5240 2.7797
-1.1033 28.4959 2.7806
-1.3687 28.4679 2.7825
-1.6337 28.4398 2.7855
-1.8985 28.4118 2.7894
-2.1631 28.3839 2.7943
-2.4214 28.2843 2.7932
-2.6839 28.2446 2.7989
-2.9573 28.3118 2.8163
-3.2216 28.2839 2.8253
-3.4860 28.2559 2.8352
-3.7504 28.2280 2.8462
-4.0150 28.2000 2.8581
-4.2797 28.1720 2.8711
-4.5446 28.1440 2.8851
-4.8097 28.1160 2.9001
-5.0752 28.0879 2.9162
-5.3409 28.0598 2.9333
-5.6071 28.0317 2.9514
-5.8737 28.0035 2.9705
-6.1407 27.9752 2.9907
-6.5893 28.7363 3.0970
-6.8143 28.4950 3.0969
-7.0342 28.2473 3.0968
-7.2488 27.9935 3.0967
-7.4585 27.7352 3.0967
-7.6628 27.4712 3.0967
-7.8617 27.2020 3.0967
-8.0551 26.9280 3.0967
-8.2431 26.6495 3.0967
-8.4256 26.3669 3.0967
-8.6025 26.0803 3.0967
-8.7739 25.7902 3.0967
-9.0069 25.6879 3.1200
-9.2642 25.6543 3.1525
-9.5224 25.6204 3.1862
-9.7817 25.5862 3.2209
-10.0186 25.4922 3.2491
-10.1641 25.1718 3.2491
-5.6034 13.5136 1.7669
-5.7176 13.4347 1.7798
-10.5668 24.2017 3.2491
-10.6901 23.8763 3.2491
-10.8080 23.5502 3.2491
-10.9205 23.2238 3.2491
-11.0279 22.8971 3.2491
-11.1300 22.5705 3.2491
-11.2271 22.2441 3.2491
-11.3192 21.9182 3.2491
-11.4064 21.5930 3.2491
-11.4888 21.2686 3.2491
-11.5665 20.9451 3.2491
-11.6395 20.6229 3.2491
-11.7080 20.3019 3.2491
-11.7721 19.9824 3.2491
-11.8318 19.6645 3.2491
-11.8873 19.3483 3.2491
-11.9387 19.0340 3.2491
-11.9860 18.7216 3.2491
-12.0294 18.4114 3.2491
-12.0689 18.1033 3.2491
-12.1047 17.7975 3.2491
-12.1368 17.4941 3.2491
-12.1654 17.1931 3.2491
-12.1905 16.8946 3.2491
-12.2122 16.5988 3.2491
-12.2308 16.3055 3.2491
-12.2461 16.0151 3.2491
-12.2584 15.7274 3.2491
-11.6922 14.7181 3.0967
-11.6983 14.4493 3.0967
-11.7017 14.1832 3.0967
-11.7025 13.9200 3.0967
-11.7008 13.6595 3.0967
-11.6967 13.4019 3.0967
-11.6903 13.1472 3.0967
-11.6815 12.8953 3.0967
-11.6706 12.6463 3.0967
-11.6575 12.4002 3.0967
-11.6424 12.1571 3.0967
-11.6253 11.9168 3.0967
-11.6063 11.6795 3.0967
-11.5854 11.4450 3.0967
-11.7240 11.3698 3.1399
-11.9116 11.3402 3.1969
-12.0790 11.2887 3.2491
-12.0501 11.0549 3.2491
-12.0196 10.8242 3.2491
-11.9874 10.5964 3.2491
-11.9536 10.3715 3.2491
-11.9183 10.1494 3.2490
-11.8816 9.9303 3.2489
-11.8436 9.7142 3.2488
-11.8043 9.5010 3.2488
-11.7638 9.2907 3.2487
-11.7222 9.0832 3.2486
-11.6794 8.8787 3.2485
-11.6356 8.6769 3.2484
-11.5907 8.4780 3.2483
-11.5448 8.2818 3.2483
-11.4981 8.0884 3.2482
-11.4495 7.8971 3.2479
-11.3991 7.7078 3.2472
-11.3474 7.5210 3.2465
-11.2946 7.3376 3.2457
-11.2406 7.1546 3.2447
-11.1856 6.9751 3.2436
-11.1295 6.7980 3.2424
-11.0727 6.6235 3.2411
-11.0146 6.4511 3.2397
-10.9553 6.2809 3.2381
-10.8962 6.1137 3.2366
-10.8401 5.9510 3.2362
-10.7835 5.7906 3.2359
-10.7266 5.6327 3.2355
-10.6691 5.4770 3.2351
-10.6113 5.3236 3.2347
-10.5531 5.1725 3.2343
-10.4945 5.0236 3.2340
-10.4357 4.8769 3.2336
-10.3765 4.7324 3.2333
-10.3171 4.5901 3.2329
-10.2573 4.4498 3.2326
-10.1973 4.3117 3.2322
-10.1371 4.1755 3.2319
-10.0767 4.0415 3.2316
2.2196 22.1314 3.2491
2.0196 22.1928 3.2491
1.8183 22.2485 3.2491
1.6159 22.2984 3.2491
1.4125 22.3425 3.2491
1.2081 22.3807 3.2491
1.0030 22.4130 3.2491
0.7972 22.4393 3.2491
0.5910 22.4596 3.2491
0.3843 22.4739 3.2491
0.1775 22.4820 3.2491
-0.0295 22.4842 3.2491
-0.2365 22.4803 3.2491
-0.4434 22.4704 3.2491
-0.6499 22.4544 3.2491
-0.8560 22.4324 3.2491
-1.0616 22.4044 3.2491
-1.2665 22.3704 3.2491
-1.4706 22.3305 3.2491
-1.6738 22.2848 3.2491
-1.8759 22.2332 3.2491
-2.0768 22.1758 3.2491
-2.2764 22.1128 3.2491
-2.4746 22.0441 3.2491
-2.6713 21.9699 3.2491
-2.8663 21.8902 3.2491
-3.0595 21.8052 3.2491
-3.2508 21.7149 3.2491
-3.4402 21.6193 3.2491
-3.6275 21.5188 3.2491
-3.8126 21.4132 3.2491
-3.9955 21.3028 3.2491
-4.1760 21.1876 3.2491
-4.3541 21.0679 3.2491
-4.5297 20.9437 3.2491
-4.7026 20.8151 3.2491
-4.8729 20.6822 3.2491
-5.0405 20.5453 3.2491
-5.2053 20.4044 3.2491
-5.3672 20.2596 3.2491
-5.5262 20.1112 3.2491
-5.6822 19.9592 3.2491
-5.8352 19.8038 3.2491
-5.9852 19.6451 3.2491
-6.1320 19.4833 3.2491
-6.2757 19.3184 3.2491
-6.4163 19.1507 3.2491
-6.5548 18.9795 3.2491
-6.6879 18.8074 3.2491
-6.8189 18.6320 3.2491
-6.9466 18.4543 3.2491
-7.0711 18.2744 3.2491
-7.1923 18.0925 3.2491
-5.5359 13.5618 2.4605
-5.6486 13.4831 2.4718
-5.7610 13.4049 2.4837
-7.6446 17.3474 3.2491
-7.7495 17.1573 3.2491
-7.8512 16.9661 3.2491
-7.9497 16.7736 3.2491
-8.0450 16.5802 3.2491
-8.1371 16.3859 3.2491
-8.2260 16.1907 3.2491
-7.9220 15.2447 3.0967
-8.0008 15.0576 3.0967
-8.0767 14.8700 3.0967
-8.1497 14.6821 3.0967
-8.2198 14.4939 3.0967
-8.2870 14.3056 3.0967
-8.3515 14.1172 3.0967
-8.4131 13.9288 3.0967
-8.4720 13.7406 3.0967
-8.5283 13.5525 3.0967
-8.5818 13.3647 3.0967
-8.6327 13.1772 3.0967
-8.6811 12.9901 3.0967
-8.7269 12.8035 3.0967
-8.7702 12.6174 3.0967
-8.8110 12.4319 3.0967
-8.8494 12.2471 3.0967
-8.8854 12.0631 3.0967
-8.9191 11.8797 3.0967
-8.9505 11.6973 3.0967
-9.0869 11.6531 3.1337
-9.2406 11.6294 3.1772
-9.3958 11.6053 3.2217
-9.4992 11.5162 3.2490
-9.5195 11.3283 3.2485
-9.5378 11.1416 3.2481
-9.5539 10.9561 3.2477
-9.5680 10.7719 3.2472
-9.5801 10.5891 3.2468
-9.5903 10.4075 3.2464
-9.5985 10.2274 3.2460
-9.6049 10.0486 3.2456
-9.6096 9.8712 3.2451
-9.6124 9.6953 3.2447
-9.6136 9.5208 3.2443
-9.6130 9.3478 3.2439
-9.6108 9.1763 3.2435
-9.6071 9.0063 3.2431
-9.6018 8.8379 3.2427
-9.5949 8.6709 3.2423
-9.5866 8.5055 3.2419
-9.5769 8.3417 3.2415
-9.5658 8.1794 3.2412
-9.5533 8.0187 3.2408
-9.5395 7.8596 3.2404
-9.5245 7.7020 3.2400
-9.5082 7.5461 3.2397
-9.4521 7.0877 3.2386
-9.4906 7.3917 3.2393
-9.4312 6.9381 3.2382
-9.4719 7.2389 3.2389
-9.4092 6.7901 3.2379
-9.3621 6.4987 3.2372
-9.3861 6.6436 3.2375
-9.3371 6.3555 3.2368
-9.2564 5.9350 3.2358
-9.3111 6.2137 3.2365
-9.2278 5.7979 3.2355
-9.2842 6.0736 3.2361
-9.1983 5.6624 3.2352
-9.1370 5.3960 3.2345
-9.1680 5.5285 3.2348
-9.1052 5.2651 3.2342
-9.0054 4.8814 3.2333
-9.0726 5.1357 3.2339
-8.9708 4.7565 3.2330
-9.0393 5.0078 3.2336
-8.9356 4.6331 3.2327
-8.8633 4.3905 3.2321
-8.8997 4.5111 3.2324
-8.8262 4.2714 3.2318
-8.7887 4.1538 3.2315
-8.7506 4.0375 3.2312
-8.7119 3.9227 3.2310
-8.6728 3.8092 3.2307
-8.6332 3.6971 3.2304
-8.5932 3.5864 3.2301
1.5699 15.8893 3.0967
1.4278 15.9255 3.0967
1.2849 15.9584 3.0967
1.1414 15.9878 3.0967
0.9974 16.0138 3.0967
0.8529 16.0363 3.0967
0.7078 16.0553 3.0967
0.5625 16.0707 3.0967
0.4169 16.0827 3.0967
0.2712 16.0911 3.0967
0.1252 16.0959 3.0967
-0.0209 16.0972 3.0967
-0.1751 16.8869 3.2491
-0.3282 16.8808 3.2491
-0.4811 16.8709 3.2491
-0.6338 16.8574 3.2491
-0.7862 16.8401 3.2491
-0.9382 16.8191 3.2491
-1.0897 16.7945 3.2491
-1.2406 16.7662 3.2491
-1.3258 15.9494 3.0967
-1.4687 15.9155 3.0967
-1.6104 15.8783 3.0967
-1.7517 15.8377 3.0967
-1.8918 15.7938 3.0967
-2.0311 15.7465 3.0967
-2.1695 15.6961 3.0967
-2.3068 15.6424 3.0967
-2.4430 15.5856 3.0967
-2.5780 15.5256 3.0967
-2.7118 15.4626 3.0967
-2.8444 15.3966 3.0967
-2.9756 15.3276 3.0967
-3.1054 15.2558 3.0967
-3.2337 15.1811 3.0967
-3.3606 15.1036 3.0967
-3.4859 15.0234 3.0967
-3.6097 14.9406 3.0967
-3.7318 14.8551 3.0967
-3.8523 14.7672 3.0967
-3.9711 14.6768 3.0967
-4.0881 14.5840 3.0967
-4.2034 14.4888 3.0967
-4.3168 14.3915 3.0967
-4.4284 14.2919 3.0967
-4.5382 14.1903 3.0967
-4.6460 14.0866 3.0967
-4.7520 13.9810 3.0967
-4.8560 13.8734 3.0967
-4.9580 13.7641 3.0967
-5.0581 13.6530 3.0967
-5.1562 13.5402 3.0967
-5.2522 13.4258 3.0967
-5.3462 13.3099 3.0967
-5.4382 13.1926 3.0967
-5.5282 13.0738 3.0967
-5.6161 12.9538 3.0967
-5.7020 12.8325 3.0967
-5.7857 12.7100 3.0967
-5.8675 12.5864 3.0967
-5.9471 12.4617 3.0967
-6.0248 12.3361 3.0967
-6.1003 12.2096 3.0967
-6.1738 12.0823 3.0967
-6.2496 11.9626 3.0989
-6.3780 11.9440 3.1278
-6.5072 11.9252 3.1575
-6.6371 11.9062 3.1879
-6.7679 11.8869 3.2191
-6.8954 11.8603 3.2491
-6.9570 11.7212 3.2488
-7.0165 11.5817 3.2485
-7.0740 11.4420 3.2482
-7.1293 11.3020 3.2479
-7.1827 11.1618 3.2476
-7.2340 11.0215 3.2472
-7.2834 10.8812 3.2469
-7.3307 10.7408 3.2466
-7.3762 10.6004 3.2463
-7.4196 10.4601 3.2460
-7.4612 10.3199 3.2457
-7.5009 10.1799 3.2453
-7.5387 10.0401 3.2450
-7.5747 9.9005 3.2447
-7.6088 9.7612 3.2444
-7.6412 9.6223 3.2441
-7.6718 9.4837 3.2437
-7.7007 9.3455 3.2434
-7.7279 9.2078 3.2431
-7.7533 9.0705 3.2428
-7.7772 8.9338 3.2425
-7.7994 8.7976 3.2422
-7.8200 8.6619 3.2419
-7.8390 8.5269 3.2415
-7.8565 8.3925 3.2412
-7.8724 8.2587 3.2409
-7.8869 8.1256 3.2406
-7.8998 7.9932 3.2403
-7.9114 7.8615 3.2400
-7.9215 7.7305 3.2397
-7.9303 7.6003 3.2394
-7.9376 7.4709 3.2391
-7.9437 7.3423 3.2388
-7.9484 7.2146 3.2385
-7.9519 7.0876 3.2382
-7.9533 6.5884 3.2370
-7.9541 6.9615 3.2379
-7.9508 6.4658 3.2367
-7.9550 6.8363 3.2376
-7.9471 6.3442 3.2364
-7.9548 6.7119 3.2373
-7.9422 6.2234 3.2362
-7.9363 6.1036 3.2359
-7.9024 5.6338 3.2348
-7.9294 5.9847 3.2356
-7.8915 5.5188 3.2345
-7.9214 5.8668 3.2353
-7.8796 5.4046 3.2342
-7.9124 5.7498 3.2350
-7.8668 5.2915 3.2340
-7.8531 5.1794 3.2337
-7.7897 4.7406 3.2326
-7.8385 5.0682 3.2334
-7.7718 4.6334 3.2324
-7.8231 4.9580 3.2332
-7.7532 4.5271 3.2321
-7.8068 4.8488 3.2329
-7.7338 4.4219 3.2319
-7.7136 4.3176 3.2316
-7.6260 3.9104 3.2307
-7.6928 4.2143 3.2314
-7.6025 3.8110 3.2304
-7.6712 4.1120 3.2311
-7.5783 3.7127 3.2302
-7.6490 4.0107 3.2309
-7.5535 3.6153 3.2299
-7.5282 3.5189 3.2297
-7.5022 3.4234 3.2295
-7.4757 3.3289 3.2293
-7.4486 3.2354 3.2290
1.2416 12.7621 3.1119
1.1257 12.7511 3.1031
1.0108 12.7477 3.0967
0.8976 12.7680 3.0967
0.7842 12.7859 3.0967
0.6704 12.8015 3.0967
0.5564 12.8146 3.0967
0.4421 12.8252 3.0967
0.3276 12.8335 3.0967
0.2130 12.8393 3.0967
0.0983 12.8426 3.0967
-0.0164 12.8435 3.0967
-0.1311 12.8419 3.0967
-0.2458 12.8378 3.0967
-0.3603 12.8314 3.0967
-0.4748 12.8224 3.0967
-0.5889 12.8111 3.0967
-0.7030 12.7973 3.0967
-0.8166 12.7811 3.0967
-0.9299 12.7624 3.0967
-1.0429 12.7414 3.0967
-1.1555 12.7180 3.0967
-1.2675 12.6923 3.0967
-1.3790 12.6642 3.0967
-1.4900 12.6337 3.0967
-1.6004 12.6010 3.0967
-1.7101 12.5660 3.0967
-1.8191 12.5287 3.0967
-1.9274 12.4892 3.0967
-2.0350 12.4475 3.0967
-2.1415 12.4026 3.0965
-2.2533 12.3893 3.1047
-2.3652 12.3758 3.1134
-2.4772 12.3623 3.1227
-2.5893 12.3486 3.1326
-2.7016 12.3348 3.1431
-2.8141 12.3209 3.1542
-2.9267 12.3069 3.1658
-3.0395 12.2928 3.1780
-3.1526 12.2786 3.1909
-3.2658 12.2642 3.2043
-3.3793 12.2497 3.2183
-3.4931 12.2351 3.2329
-3.6071 12.2203 3.2481
-3.7044 12.1496 3.2490
-3.7992 12.0733 3.2488
-3.8926 11.9953 3.2487
-3.9846 11.9156 3.2485
-4.0752 11.8344 3.2484
-4.1643 11.7517 3.2482
-4.2520 11.6676 3.2480
-4.3383 11.5820 3.2478
-4.4230 11.4950 3.2476
-4.5062 11.4067 3.2475
-4.7468 11.1344 3.2469
-4.5879 11.3172 3.2473
-4.8239 11.0413 3.2467
-4.6681 11.2264 3.2471
-5.0459 10.7558 3.2461
-4.8994 10.9472 3.2465
-5.1167 10.6586 3.2459
-4.9734 10.8520 3.2463
-5.1860 10.5606 3.2456
-5.2537 10.4617 3.2454
-5.3198 10.3620 3.2452
-5.5685 9.9561 3.2443
-5.3843 10.2615 3.2450
-5.7921 9.5409 3.2434
-5.6267 9.8531 3.2441
-5.9909 9.1189 3.2425
-5.4473 10.1604 3.2448
-5.8441 9.4359 3.2432
-5.6834 9.7495 3.2439
-6.0367 9.0127 3.2422
-5.5087 10.0586 3.2445
-5.8945 9.3306 3.2429
-5.7385 9.6454 3.2436
-6.0811 8.9062 3.2420
-6.1654 8.6928 3.2415
-5.9435 9.2249 3.2427
-6.3164 8.2647 3.2405
-6.1240 8.7996 3.2417
-6.2053 8.5858 3.2413
-6.4446 7.8367 3.2396
-6.5511 7.4107 3.2386
-6.3505 8.1576 3.2403
-6.6367 6.9883 3.2376
-6.4732 7.7299 3.2393
-6.2438 8.4788 3.2410
-6.3833 8.0505 3.2401
-6.5744 7.3047 3.2384
-6.6550 6.8835 3.2374
-6.5005 7.6233 3.2391
-6.2808 8.3718 3.2408
-6.4146 7.9436 3.2398
-6.5964 7.1989 3.2381
-6.6721 6.7789 3.2371
-6.5264 7.5169 3.2388
-6.7500 6.1601 3.2357
-6.6172 7.0935 3.2379
-6.7027 6.5710 3.2367
-6.6880 6.6748 3.2369
-6.7798 5.7566 3.2348
-6.7591 6.0585 3.2355
-6.7932 5.3614 3.2338
-6.7162 6.4677 3.2364
-6.7913 4.9754 3.2329
-6.7847 5.6570 3.2345
-6.7670 5.9574 3.2352
-6.7941 5.2640 3.2336
-6.7886 4.8803 3.2327
-6.7286 6.3647 3.2362
-6.7885 5.5579 3.2343
-6.7739 5.8567 3.2350
-6.7850 4.7859 3.2325
-6.7399 6.2622 3.2359
-6.7941 5.1672 3.2334
-6.7914 5.4593 3.2341
-6.7752 4.5990 3.2321
-6.7805 4.6921 3.2323
-6.7932 5.0710 3.2332
-6.7459 4.2328 3.2312
-6.7044 3.8771 3.2303
-6.7691 4.5065 3.2318
-6.7367 4.1429 3.2310
-6.6923 3.7899 3.2301
-6.7621 4.4146 3.2316
-6.7266 4.0536 3.2308
-6.6517 3.5323 3.2295
-6.6794 3.7034 3.2299
-6.7544 4.3234 3.2314
-6.7159 3.9651 3.2306
-6.6369 3.4478 3.2293
-6.6659 3.6175 3.2297
-6.6214 3.3640 3.2291
-6.5887 3.1984 3.2287
-6.6054 3.2808 3.2289
-6.5714 3.1167 3.2285
-6.5536 3.0356 3.2283
-6.5352 2.9553 3.2281
