ply
format ascii 1.0
element vertex 1805
property float32 x
property float32 y
property float32 z
end_header
8.0485 -4.8928 -0.2619
8.0031 -4.4538 -0.3449
8.0369 -4.7807 -0.2828
7.9922 -4.3479 -0.3653
8.0255 -4.6702 -0.3036
7.9814 -4.2433 -0.3857
8.0142 -4.5613 -0.3243
7.9707 -4.1401 -0.4059
7.9194 -3.6430 -0.5057
7.9602 -4.0382 -0.4260
7.9095 -3.5471 -0.5254
7.8805 -3.2656 -0.5842
7.9498 -3.9376 -0.4461
7.8997 -3.4522 -0.5451
7.8710 -3.1738 -0.6037
7.9396 -3.8382 -0.4660
7.8901 -3.3584 -0.5647
7.8616 -3.0828 -0.6232
7.9294 -3.7401 -0.4859
7.8523 -2.9928 -0.6426
7.8431 -2.9037 -0.6619
7.7906 -2.5498 -0.7376
7.7212 -2.2039 -0.8107
7.8369 -2.8164 -0.6815
7.7755 -2.4628 -0.7561
7.7019 -2.1189 -0.8286
7.8213 -2.7266 -0.7002
7.7604 -2.3766 -0.7747
7.6828 -2.0348 -0.8465
7.8059 -2.6378 -0.7189
7.7407 -2.2898 -0.7927
7.6639 -1.9515 -0.8644
7.6452 -1.8690 -0.8822
7.6017 -1.5526 -0.9571
7.6279 -1.7876 -0.9002
7.5675 -1.2458 -1.0334
7.5931 -1.4753 -0.9762
7.5591 -1.1701 -1.0526
7.6191 -1.7088 -0.9192
7.5845 -1.3983 -0.9952
7.5652 -1.0969 -1.0739
7.6104 -1.6305 -0.9381
7.5760 -1.3218 -1.0143
7.5795 -1.0248 -1.0965
7.5939 -0.9527 -1.1192
7.6514 -0.6627 -1.2121
7.6082 -0.8804 -1.1422
7.7326 -0.3710 -1.3121
7.6659 -0.5898 -1.2358
7.6226 -0.8080 -1.1653
7.7784 -0.2982 -1.3421
7.6804 -0.5167 -1.2597
7.6370 -0.7355 -1.1886
7.8247 -0.2245 -1.3726
7.6949 -0.4434 -1.2839
7.9191 -0.0745 -1.4352
7.8716 -0.1500 -1.4037
7.9672 0.0018 -1.4673
8.1275 0.2373 -1.5694
8.4523 0.5747 -1.7353
8.0158 0.0792 -1.4999
8.2062 0.3190 -1.6093
8.5380 0.6637 -1.7795
8.0652 0.1576 -1.5332
8.2865 0.4025 -1.6503
8.6256 0.7547 -1.8249
8.8735 0.9503 -1.9337
8.3685 0.4876 -1.6923
8.7467 0.8509 -1.8782
9.0044 1.0528 -1.9913
9.5084 1.3942 -2.1963
9.1396 1.1588 -2.0509
9.7309 1.5238 -2.2802
9.2967 1.2708 -2.1166
10.1867 1.6971 -2.4214
8.0339 -4.7591 0.1618
8.0224 -4.6481 0.1378
8.0111 -4.5387 0.1141
8.0000 -4.4309 0.0906
7.9890 -4.3245 0.0673
7.9782 -4.2195 0.0442
7.9675 -4.1160 0.0213
7.9569 -4.0138 -0.0014
7.9465 -3.9128 -0.0240
7.9362 -3.8131 -0.0464
7.9261 -3.7147 -0.0686
7.9160 -3.6173 -0.0907
7.9061 -3.5211 -0.1127
7.8963 -3.4260 -0.1345
7.8866 -3.3320 -0.1562
7.8770 -3.2389 -0.1777
7.8675 -3.1469 -0.1992
7.8581 -3.0558 -0.2206
7.8488 -2.9656 -0.2418
7.8396 -2.8762 -0.2630
7.8320 -2.7883 -0.2841
7.8164 -2.6984 -0.3048
7.8010 -2.6094 -0.3254
7.7857 -2.5214 -0.3459
7.7705 -2.4343 -0.3663
7.7538 -2.3474 -0.3865
7.7341 -2.2606 -0.4065
7.7146 -2.1747 -0.4264
7.6953 -2.0897 -0.4461
7.6762 -2.0055 -0.4658
7.6573 -1.9223 -0.4853
7.6386 -1.8398 -0.5048
7.6248 -1.7591 -0.5245
7.6160 -1.6802 -0.5445
7.6072 -1.6019 -0.5645
7.5985 -1.5240 -0.5845
7.5899 -1.4466 -0.6045
7.5813 -1.3696 -0.6244
7.5728 -1.2931 -0.6443
7.5564 -1.1413 -0.6843
7.5643 -1.2170 -0.6643
7.5707 -1.0692 -0.7063
7.6138 -0.8522 -0.7733
7.5851 -0.9970 -0.7285
7.6282 -0.7796 -0.7959
7.5994 -0.9246 -0.7508
7.6426 -0.7069 -0.8186
7.6716 -0.5610 -0.8646
7.6571 -0.6340 -0.8415
7.6862 -0.4877 -0.8878
7.7968 -0.2689 -0.9668
7.7052 -0.4145 -0.9117
7.8434 -0.1949 -0.9950
7.7507 -0.3421 -0.9391
7.8905 -0.1200 -1.0236
7.9865 0.0326 -1.0822
7.9382 -0.0442 -1.0527
8.0355 0.1104 -1.1123
8.2379 0.3520 -1.2131
8.0850 0.1891 -1.1428
8.3188 0.4361 -1.2497
8.1586 0.2697 -1.1772
8.4015 0.5219 -1.2873
8.5723 0.6993 -1.3654
8.4860 0.6096 -1.3259
8.6717 0.7920 -1.4077
9.0563 1.0936 -1.5543
8.7959 0.8894 -1.4549
9.1930 1.2007 -1.6066
8.9240 0.9899 -1.5037
9.3769 1.3175 -1.6685
9.8184 1.5748 -1.8099
9.5922 1.4430 -1.7374
10.4857 1.7866 -1.9669
28.3311 17.5532 -9.8043
27.4650 17.4027 -9.6501
28.1079 17.0252 -9.5805
8.0195 -4.6274 0.5788
8.0082 -4.5175 0.5520
7.9970 -4.4092 0.5255
7.9860 -4.3024 0.4992
7.9751 -4.1971 0.4732
7.9644 -4.0932 0.4475
7.9538 -3.9906 0.4221
7.9434 -3.8893 0.3969
7.9330 -3.7893 0.3720
7.9229 -3.6906 0.3473
7.9128 -3.5929 0.3228
7.9028 -3.4965 0.2985
7.8930 -3.4011 0.2744
7.8833 -3.3068 0.2505
7.8737 -3.2135 0.2268
7.8641 -3.1213 0.2033
7.8547 -3.0299 0.1800
7.8454 -2.9395 0.1568
7.8432 -2.8526 0.1339
7.8274 -2.7615 0.1109
7.8117 -2.6715 0.0881
7.7963 -2.5824 0.0655
7.7810 -2.4942 0.0430
7.7658 -2.4070 0.0207
7.7475 -2.3196 -0.0014
7.7277 -2.2328 -0.0234
7.7082 -2.1468 -0.0451
7.6889 -2.0618 -0.0668
7.6698 -1.9776 -0.0883
7.6509 -1.8943 -0.1096
7.6322 -1.8118 -0.1308
7.6217 -1.7319 -0.1520
7.6129 -1.6529 -0.1731
7.6042 -1.5745 -0.1942
7.5955 -1.4966 -0.2152
7.5868 -1.4191 -0.2362
7.5782 -1.3421 -0.2571
7.5697 -1.2655 -0.2779
7.5612 -1.1894 -0.2987
7.5616 -1.1150 -0.3199
7.5760 -1.0426 -0.3416
7.5904 -0.9702 -0.3635
7.6048 -0.8977 -0.3854
7.6192 -0.8251 -0.4075
7.6336 -0.7524 -0.4296
7.6481 -0.6795 -0.4519
7.6626 -0.6065 -0.4743
7.6771 -0.5333 -0.4968
7.6917 -0.4599 -0.5194
7.7224 -0.3871 -0.5433
7.7682 -0.3144 -0.5685
7.8145 -0.2408 -0.5940
7.8613 -0.1664 -0.6200
7.9087 -0.0911 -0.6463
7.9566 -0.0150 -0.6729
8.0051 0.0622 -0.7000
8.0543 0.1403 -0.7275
8.1104 0.2196 -0.7560
8.1886 0.3008 -0.7871
8.2685 0.3838 -0.8189
8.3500 0.4684 -0.8514
8.4333 0.5549 -0.8846
8.5184 0.6433 -0.9187
8.6053 0.7336 -0.9536
8.7178 0.8282 -0.9920
8.8433 0.9266 -1.0328
8.9728 1.0281 -1.0750
9.1064 1.1329 -1.1186
9.2462 1.2414 -1.1639
9.4546 1.3628 -1.2191
9.6733 1.4902 -1.2771
9.9918 1.6387 -1.3502
28.2196 16.0201 -7.5546
28.3731 16.4837 -7.7248
27.8985 17.7373 -8.1229
28.4984 16.9395 -7.8905
28.4966 17.3263 -8.0236
27.6744 17.2080 -7.9239
12.0706 14.0560 -5.7954
12.0649 14.3466 -5.9014
8.0053 -4.4971 0.9913
7.9941 -4.3884 0.9616
7.9830 -4.2812 0.9322
7.9721 -4.1755 0.9033
7.9614 -4.0712 0.8747
7.9507 -3.9682 0.8464
7.9403 -3.8666 0.8185
7.9299 -3.7663 0.7909
7.9197 -3.6672 0.7636
7.9096 -3.5693 0.7366
7.8996 -3.4726 0.7099
7.8898 -3.3769 0.6834
7.8800 -3.2824 0.6573
7.8704 -3.1889 0.6313
7.8609 -3.0964 0.6057
7.8514 -3.0049 0.5803
7.8421 -2.9143 0.5551
7.8387 -2.8267 0.5305
7.8228 -2.7355 0.5053
7.8072 -2.6453 0.4803
7.7917 -2.5561 0.4556
7.7764 -2.4678 0.4311
7.7612 -2.3805 0.4068
7.7413 -2.2926 0.3826
7.7216 -2.2057 0.3585
7.7021 -2.1197 0.3347
7.6828 -2.0346 0.3111
7.6637 -1.9504 0.2877
7.6448 -1.8671 0.2646
7.6276 -1.7849 0.2416
7.6188 -1.7054 0.2191
7.6100 -1.6264 0.1968
7.6012 -1.5479 0.1745
7.5925 -1.4699 0.1524
7.5839 -1.3924 0.1303
7.5753 -1.3153 0.1084
7.5667 -1.2387 0.0866
7.5582 -1.1626 0.0649
7.5667 -1.0892 0.0433
7.5811 -1.0167 0.0218
7.5955 -0.9442 0.0002
7.6100 -0.8715 -0.0215
7.6244 -0.7988 -0.0432
7.6389 -0.7259 -0.0650
7.6534 -0.6528 -0.0868
7.6679 -0.5797 -0.1088
7.6825 -0.5063 -0.1308
7.6971 -0.4328 -0.1528
7.7393 -0.3603 -0.1756
7.7853 -0.2873 -0.1988
7.8318 -0.2134 -0.2222
7.8788 -0.1386 -0.2460
7.9264 -0.0630 -0.2700
7.9745 0.0135 -0.2944
8.0233 0.0910 -0.3191
8.0727 0.1695 -0.3441
8.1392 0.2495 -0.3702
8.2180 0.3313 -0.3974
8.2984 0.4148 -0.4252
8.3805 0.5001 -0.4535
8.4643 0.5871 -0.4825
8.5500 0.6761 -0.5122
8.6402 0.7673 -0.5427
8.7630 0.8636 -0.5760
8.8897 0.9630 -0.6103
9.0205 1.0655 -0.6458
9.1555 1.1713 -0.6825
9.3195 1.2840 -0.7223
9.5310 1.4073 -0.7670
9.7531 1.5367 -0.8140
10.2564 1.7180 -0.8868
45.5573 18.2065 -7.1778
45.6180 18.7515 -7.3490
45.0450 19.0346 -7.4178
44.3063 19.2373 -7.4563
29.0741 15.8197 -5.8925
29.0633 16.1884 -6.0081
28.6697 16.3432 -6.0445
28.8086 16.8027 -6.1936
28.1973 16.8231 -6.1811
28.2854 17.2586 -6.3213
27.9333 17.4269 -6.3637
27.5817 17.5908 -6.4049
27.0375 17.6247 -6.3992
20.1523 13.7162 -4.9535
20.1876 14.0370 -5.0564
12.8901 14.6652 -5.0624
12.7422 14.7988 -5.1023
11.5547 13.7002 -4.7180
11.7591 14.2354 -4.8967
7.9912 -4.3678 1.4009
7.9801 -4.2602 1.3684
7.9691 -4.1540 1.3363
7.9583 -4.0493 1.3046
7.9477 -3.9460 1.2734
7.9372 -3.8441 1.2426
7.9268 -3.7434 1.2122
7.9166 -3.6440 1.1822
7.9065 -3.5459 1.1526
7.8965 -3.4488 1.1233
7.8866 -3.3530 1.0944
7.8768 -3.2582 1.0659
7.8671 -3.1644 1.0376
7.8576 -3.0717 1.0097
7.8481 -2.9800 0.9821
7.8388 -2.8892 0.9548
7.8342 -2.8010 0.9283
7.8184 -2.7097 0.9007
7.8027 -2.6194 0.8735
7.7872 -2.5300 0.8466
7.7718 -2.4417 0.8200
7.7552 -2.3538 0.7935
7.7352 -2.2658 0.7670
7.7155 -2.1789 0.7408
7.6960 -2.0928 0.7148
7.6767 -2.0077 0.6892
7.6576 -1.9235 0.6639
7.6387 -1.8402 0.6388
7.6247 -1.7588 0.6143
7.6158 -1.6791 0.5905
7.6070 -1.6000 0.5668
7.5983 -1.5215 0.5433
7.5896 -1.4434 0.5200
7.5809 -1.3659 0.4968
7.5723 -1.2888 0.4738
7.5638 -1.2122 0.4509
7.5574 -1.1363 0.4282
7.5718 -1.0637 0.4069
7.5862 -0.9911 0.3855
7.6007 -0.9184 0.3640
7.6151 -0.8455 0.3426
7.6296 -0.7726 0.3212
7.6441 -0.6996 0.2997
7.6586 -0.6264 0.2782
7.6732 -0.5531 0.2566
7.6878 -0.4796 0.2350
7.7103 -0.4064 0.2136
7.7560 -0.3337 0.1927
7.8022 -0.2603 0.1716
7.8489 -0.1861 0.1502
7.8961 -0.1110 0.1286
7.9439 -0.0351 0.1067
7.9923 0.0418 0.0846
8.0413 0.1196 0.0623
8.0909 0.1985 0.0396
8.1678 0.2792 0.0167
8.2471 0.3616 -0.0066
8.3281 0.4457 -0.0304
8.4107 0.5315 -0.0546
8.4952 0.6192 -0.0794
8.5814 0.7088 -0.1047
8.6840 0.8017 -0.1308
8.8080 0.8989 -0.1579
8.9360 0.9992 -0.1858
9.0680 1.1027 -0.2146
9.2043 1.2096 -0.2443
9.3927 1.3267 -0.2764
9.6074 1.4518 -0.3106
9.8328 1.5832 -0.3464
10.5307 1.8001 -0.4016
45.6801 17.3639 -4.5295
44.9689 17.5969 -4.6052
45.6736 18.3880 -4.8270
45.5597 18.8606 -4.9654
45.1961 19.2288 -5.0763
44.8519 19.6017 -5.1883
28.6396 15.6520 -4.2204
28.8597 16.1425 -4.3598
28.6888 16.4193 -4.4415
28.5740 16.7290 -4.5321
28.4586 17.0399 -4.6230
28.4477 17.4165 -4.7318
27.9898 17.5179 -4.7657
27.1955 17.3966 -4.7388
27.3704 17.8918 -4.8797
12.9063 14.6480 -4.0814
12.7600 14.7801 -4.1202
12.0085 14.1973 -3.9597
11.6376 14.0444 -3.9189
12.4085 15.2870 -4.2675
7.9771 -4.2387 1.8096
7.9661 -4.1322 1.7742
7.9553 -4.0271 1.7394
7.9446 -3.9235 1.7050
7.9341 -3.8212 1.6712
7.9237 -3.7202 1.6379
7.9134 -3.6205 1.6051
7.9033 -3.5221 1.5727
7.8932 -3.4248 1.5408
7.8833 -3.3287 1.5092
7.8735 -3.2336 1.4782
7.8639 -3.1397 1.4475
7.8543 -3.0468 1.4172
7.8448 -2.9548 1.3872
7.8354 -2.8639 1.3577
7.8297 -2.7751 1.3291
7.8138 -2.6836 1.2991
7.7981 -2.5932 1.2695
7.7826 -2.5037 1.2403
7.7672 -2.4153 1.2114
7.7491 -2.3268 1.1825
7.7291 -2.2388 1.1536
7.7094 -2.1518 1.1251
7.6898 -2.0657 1.0970
7.6705 -1.9806 1.0692
7.6514 -1.8964 1.0418
7.6325 -1.8130 1.0147
7.6218 -1.7323 0.9889
7.6129 -1.6526 0.9637
7.6041 -1.5735 0.9386
7.5953 -1.4949 0.9138
7.5866 -1.4168 0.8892
7.5779 -1.3392 0.8647
7.5693 -1.2621 0.8405
7.5608 -1.1855 0.8165
7.5625 -1.1108 0.7937
7.5769 -1.0380 0.7724
7.5914 -0.9652 0.7510
7.6058 -0.8923 0.7297
7.6203 -0.8194 0.7085
7.6348 -0.7463 0.6872
7.6494 -0.6731 0.6659
7.6639 -0.5998 0.6447
7.6785 -0.5263 0.6235
7.6931 -0.4527 0.6022
7.7270 -0.3799 0.5825
7.7729 -0.3069 0.5634
7.8193 -0.2332 0.5442
7.8662 -0.1586 0.5249
7.9137 -0.0832 0.5053
7.9617 -0.0069 0.4856
8.0103 0.0703 0.4657
8.0595 0.1485 0.4456
8.1184 0.2279 0.4258
8.1967 0.3092 0.4066
8.2766 0.3922 0.3871
8.3581 0.4768 0.3673
8.4413 0.5632 0.3471
8.5263 0.6515 0.3265
8.6131 0.7417 0.3055
8.7283 0.8364 0.2850
8.8536 0.9346 0.2641
8.9827 1.0359 0.2426
9.1160 1.1404 0.2205
9.2595 1.2491 0.1979
9.4672 1.3701 0.1756
9.6851 1.4971 0.1523
10.0258 1.6489 0.1294
46.4658 17.2883 -2.0943
45.7967 17.5464 -2.2026
44.4707 17.5345 -2.2740
45.1516 18.3109 -2.4469
45.2796 18.8764 -2.5932
45.6837 19.5675 -2.7578
45.2690 19.9123 -2.8738
44.7491 20.2047 -2.9813
28.7657 15.4265 -2.5681
28.8257 15.8226 -2.6700
28.9596 16.2659 -2.7802
27.5960 15.8565 -2.7434
28.4970 16.7466 -2.9310
28.4440 17.0918 -3.0245
28.1986 17.3221 -3.0975
27.8693 17.4978 -3.1603
28.3853 18.2118 -3.3207
28.0700 18.4003 -3.3858
27.7702 18.5957 -3.4516
27.5213 18.8227 -3.5229
11.8209 13.9363 -2.9907
11.8728 14.2848 -3.0747
12.1824 14.9595 -3.2294
11.4352 14.3328 -3.1029
7.9630 -4.1095 2.2190
7.9521 -4.0040 2.1808
7.9414 -3.9000 2.1432
7.9308 -3.7974 2.1062
7.9204 -3.6961 2.0698
7.9101 -3.5961 2.0340
7.9000 -3.4974 1.9987
7.8899 -3.3999 1.9639
7.8800 -3.3035 1.9297
7.8702 -3.2082 1.8959
7.8605 -3.1141 1.8627
7.8509 -3.0209 1.8299
7.8414 -2.9288 1.7975
7.8412 -2.8410 1.7677
7.8251 -2.7483 1.7346
7.8092 -2.6567 1.7021
7.7934 -2.5661 1.6700
7.7779 -2.4766 1.6383
7.7625 -2.3880 1.6071
7.7428 -2.2991 1.5754
7.7228 -2.2110 1.5441
7.7031 -2.1240 1.5132
7.6835 -2.0379 1.4828
7.6642 -1.9528 1.4528
7.6451 -1.8685 1.4231
7.6277 -1.7855 1.3942
7.6187 -1.7052 1.3671
7.6098 -1.6255 1.3403
7.6010 -1.5463 1.3138
7.5923 -1.4676 1.2875
7.5835 -1.3895 1.2616
7.5749 -1.3119 1.2358
7.5663 -1.2348 1.2103
7.5577 -1.1581 1.1851
7.5677 -1.0846 1.1629
7.5822 -1.0116 1.1415
7.5966 -0.9387 1.1202
7.6111 -0.8656 1.0989
7.6256 -0.7925 1.0777
7.6402 -0.7193 1.0565
7.6547 -0.6460 1.0355
7.6693 -0.5725 1.0144
7.6839 -0.4989 0.9934
7.6986 -0.4252 0.9725
7.7441 -0.3527 0.9554
7.7902 -0.2794 0.9382
7.8368 -0.2053 0.9209
7.8839 -0.1304 0.9035
7.9316 -0.0546 0.8860
7.9799 0.0220 0.8683
8.0287 0.0996 0.8506
8.0781 0.1781 0.8327
8.1476 0.2582 0.8167
8.2264 0.3401 0.8012
8.3068 0.4236 0.7855
8.3889 0.5088 0.7696
8.4727 0.5958 0.7535
8.5583 0.6847 0.7371
8.6513 0.7760 0.7209
8.7740 0.8722 0.7066
8.9005 0.9714 0.6920
9.0309 1.0737 0.6770
9.1655 1.1792 0.6617
9.3334 1.2922 0.6480
9.5443 1.4151 0.6362
9.7656 1.5440 0.6240
10.2938 1.7292 0.6293
13.3428 2.3735 0.7789
13.3317 2.5040 0.7415
13.2936 2.6295 0.7028
16.5431 3.4379 0.8290
16.5561 3.6070 0.7841
16.5421 3.7710 0.7379
15.5640 3.7059 0.6514
14.6565 3.6391 0.5730
13.0118 3.3640 0.4728
13.2581 3.5641 0.4451
45.7604 18.1821 0.0001
45.3647 18.5335 -0.1293
45.3019 19.0201 -0.2589
44.8461 19.3400 -0.3853
44.2879 19.6086 -0.5085
29.2903 15.7812 -1.0300
29.2880 16.1480 -1.1190
28.5772 16.1193 -1.1795
28.6151 16.5085 -1.2694
28.6863 16.9227 -1.3618
28.5238 17.2022 -1.4435
28.0512 17.2909 -1.5083
27.8804 17.5618 -1.5880
27.9586 17.9930 -1.6824
27.5959 18.1416 -1.7501
27.1498 18.2292 -1.8108
12.4535 14.0696 -2.0922
12.4498 14.3488 -2.1514
12.4614 14.6525 -2.2145
11.7700 14.1204 -2.1505
11.6912 14.6048 -2.2569
11.6879 14.9013 -2.3187
7.9488 -3.9794 2.6310
7.9380 -3.8750 2.5900
7.9274 -3.7721 2.5496
7.9170 -3.6705 2.5100
7.9067 -3.5703 2.4710
7.8965 -3.4713 2.4326
7.8864 -3.3735 2.3949
7.8765 -3.2769 2.3577
7.8666 -3.1814 2.3212
7.8569 -3.0870 2.2852
7.8473 -2.9937 2.2497
7.8378 -2.9014 2.2148
7.8363 -2.8129 2.1825
7.8202 -2.7201 2.1467
7.8042 -2.6284 2.1114
7.7885 -2.5378 2.0767
7.7729 -2.4481 2.0425
7.7564 -2.3592 2.0086
7.7362 -2.2700 1.9741
7.7162 -2.1819 1.9402
7.6965 -2.0949 1.9068
7.6769 -2.0088 1.8739
7.6576 -1.9237 1.8416
7.6385 -1.8395 1.8096
7.6245 -1.7573 1.7794
7.6156 -1.6769 1.7506
7.6067 -1.5971 1.7222
7.5979 -1.5179 1.6941
7.5891 -1.4392 1.6663
7.5804 -1.3611 1.6388
7.5717 -1.2834 1.6117
7.5631 -1.2063 1.5848
7.5586 -1.1302 1.5591
7.5731 -1.0572 1.5374
7.5876 -0.9841 1.5159
7.6021 -0.9110 1.4945
7.6167 -0.8378 1.4732
7.6312 -0.7645 1.4520
7.6458 -0.6912 1.4309
7.6603 -0.6177 1.4099
7.6749 -0.5441 1.3890
7.6896 -0.4704 1.3682
7.7161 -0.3972 1.3495
7.7619 -0.3243 1.3341
7.8083 -0.2507 1.3188
7.8551 -0.1763 1.3033
7.9025 -0.1010 1.2879
7.9504 -0.0249 1.2723
7.9988 0.0521 1.2568
8.0478 0.1300 1.2411
8.1002 0.2090 1.2259
8.1780 0.2898 1.2142
8.2574 0.3723 1.2025
8.3384 0.4564 1.1906
8.4211 0.5423 1.1786
8.5055 0.6299 1.1665
8.5917 0.7194 1.1543
8.6979 0.8126 1.1444
8.8218 0.9097 1.1362
8.9496 1.0099 1.1280
9.0814 1.1132 1.1196
9.2174 1.2198 1.1111
9.4113 1.3376 1.1088
9.6255 1.4624 1.1079
9.8503 1.5934 1.1071
13.3228 2.2865 1.4613
13.3068 2.4154 1.4237
13.3437 2.5545 1.3917
13.3325 2.6852 1.3548
13.3214 2.8161 1.3180
13.3102 2.9474 1.2814
13.2990 3.0789 1.2449
13.2878 3.2109 1.2085
13.2601 3.3390 1.1707
13.3235 3.4911 1.1410
13.2113 3.5974 1.0963
40.7970 11.5303 3.2775
42.1861 12.3608 3.2775
43.6725 13.2522 3.2775
45.2666 14.2112 3.2775
46.9813 15.2459 3.2775
28.6465 16.2303 0.3829
28.6290 16.5867 0.3030
28.4352 16.8424 0.2215
28.3537 17.1654 0.1411
28.0151 17.3317 0.0603
27.2070 17.1968 -0.0188
27.9125 18.0220 -0.0991
19.9774 16.4686 -0.7911
12.3151 14.1624 -1.2251
12.3105 14.4401 -1.2740
12.3149 14.7353 -1.3248
11.6115 14.1736 -1.2974
11.6349 14.4896 -1.3493
11.6586 14.8145 -1.4024
11.7230 15.2010 -1.4619
7.4653 -3.6204 2.8672
7.5699 -3.5774 2.8693
7.6758 -3.5335 2.8715
7.7832 -3.4886 2.8738
7.8919 -3.4426 2.8761
7.8827 -3.3450 2.8355
7.8727 -3.2482 2.7953
7.8629 -3.1525 2.7558
7.8532 -3.0580 2.7169
7.8436 -2.9645 2.6786
7.8340 -2.8720 2.6409
7.8311 -2.7829 2.6060
7.8149 -2.6900 2.5672
7.7990 -2.5982 2.5291
7.7832 -2.5074 2.4916
7.7677 -2.4178 2.4547
7.7494 -2.3282 2.4175
7.7292 -2.2391 2.3803
7.7092 -2.1510 2.3437
7.6894 -2.0639 2.3076
7.6699 -1.9779 2.2722
7.6506 -1.8928 2.2373
7.6315 -1.8086 2.2030
7.6212 -1.7272 2.1716
7.6122 -1.6468 2.1411
7.6033 -1.5670 2.1109
7.5945 -1.4878 2.0811
7.5857 -1.4091 2.0517
7.5770 -1.3309 2.0227
7.5684 -1.2533 1.9940
7.5598 -1.1762 1.9657
7.5643 -1.1014 1.9411
7.5789 -1.0282 1.9192
7.5934 -0.9550 1.8975
7.6079 -0.8817 1.8759
7.6225 -0.8084 1.8545
7.6371 -0.7350 1.8332
7.6517 -0.6615 1.8121
7.6663 -0.5879 1.7911
7.6809 -0.5142 1.7702
7.6956 -0.4403 1.7495
7.7348 -0.3675 1.7344
7.7809 -0.2943 1.7208
7.8274 -0.2203 1.7072
7.8745 -0.1455 1.6936
7.9221 -0.0699 1.6800
7.9702 0.0066 1.6664
8.0189 0.0840 1.6529
8.0681 0.1623 1.6394
8.1319 0.2419 1.6286
8.2104 0.3234 1.6206
8.2903 0.4065 1.6125
8.3719 0.4912 1.6045
8.4552 0.5777 1.5965
8.5402 0.6660 1.5885
8.6271 0.7562 1.5806
8.7474 0.8514 1.5783
8.8727 0.9496 1.5764
9.0018 1.0509 1.5746
9.1350 1.1553 1.5730
9.2868 1.2650 1.5739
9.4946 1.3861 1.5835
9.7124 1.5130 1.5938
10.1109 1.6744 1.6322
15.5350 2.7256 2.4665
13.3505 2.4742 2.0844
13.3394 2.6044 2.0476
13.3283 2.7348 2.0109
13.3172 2.8655 1.9745
13.3061 2.9964 1.9383
13.2949 3.1277 1.9023
13.2837 3.2593 1.8665
13.2248 3.3791 1.8243
13.2185 3.5123 1.7897
24.6723 6.8086 3.2775
25.1532 7.2005 3.2775
25.6516 7.6089 3.2775
26.1686 8.0348 3.2775
26.7053 8.4794 3.2775
27.2631 8.9438 3.2775
27.8432 9.4294 3.2775
28.4472 9.9376 3.2775
29.0766 10.4699 3.2775
29.7333 11.0281 3.2775
30.4191 11.6138 3.2775
31.1362 12.2294 3.2775
31.8869 12.8769 3.2775
32.6738 13.5588 3.2775
33.4998 14.2778 3.2775
34.3678 15.0371 3.2775
35.2816 15.8399 3.2775
35.8448 16.5058 3.2414
35.5294 16.7735 3.1251
36.5554 17.6868 3.1251
36.1895 17.9383 3.0045
38.7970 19.6947 3.1251
41.9772 21.8160 3.2775
43.3510 23.0587 3.2775
28.3449 17.2314 1.7201
19.9553 16.4727 0.4408
12.1050 14.1691 -0.3628
12.0824 14.4233 -0.4009
12.0591 14.6823 -0.4394
12.0416 14.9545 -0.4786
11.9804 15.1776 -0.5163
11.9436 15.4367 -0.5554
11.3603 14.9813 -0.5676
6.6184 -3.1040 2.8998
6.7049 -3.0622 2.9020
6.7922 -3.0195 2.9042
6.8804 -2.9760 2.9064
6.9695 -2.9315 2.9086
7.0589 -2.8858 2.9107
7.1491 -2.8392 2.9127
7.2403 -2.7916 2.9148
7.3325 -2.7430 2.9169
7.4257 -2.6935 2.9191
7.5199 -2.6429 2.9214
7.6152 -2.5912 2.9237
7.7116 -2.5385 2.9260
7.7775 -2.4746 2.9166
7.7620 -2.3849 2.8768
7.7418 -2.2947 2.8360
7.7216 -2.2056 2.7958
7.7016 -2.1176 2.7563
7.6819 -2.0306 2.7175
7.6623 -1.9446 2.6794
7.6430 -1.8595 2.6419
7.6266 -1.7760 2.6059
7.6176 -1.6949 2.5729
7.6086 -1.6145 2.5404
7.5997 -1.5347 2.5084
7.5909 -1.4554 2.4768
7.5821 -1.3767 2.4457
7.5734 -1.2986 2.4149
7.5648 -1.2210 2.3846
7.5562 -1.1439 2.3547
7.5705 -1.0705 2.3322
7.5850 -0.9971 2.3101
7.5996 -0.9237 2.2881
7.6142 -0.8503 2.2663
7.6288 -0.7768 2.2447
7.6434 -0.7032 2.2232
7.6580 -0.6296 2.2020
7.6726 -0.5559 2.1810
7.6873 -0.4820 2.1601
7.7090 -0.4084 2.1413
7.7548 -0.3356 2.1293
7.8012 -0.2620 2.1173
7.8480 -0.1876 2.1055
7.8952 -0.1125 2.0937
7.9431 -0.0364 2.0820
7.9914 0.0404 2.0704
8.0404 0.1182 2.0589
8.0899 0.1968 2.0474
8.1660 0.2774 2.0425
8.2451 0.3595 2.0382
8.3257 0.4432 2.0339
8.4080 0.5286 2.0298
8.4919 0.6158 2.0258
8.5776 0.7048 2.0220
8.6779 0.7969 2.0213
8.8009 0.8933 2.0254
8.9276 0.9926 2.0299
9.0582 1.0950 2.0348
9.1929 1.2007 2.0401
9.3735 1.3155 2.0549
9.5850 1.4388 2.0756
9.8067 1.5680 2.0975
10.4299 1.7699 2.2033
14.9792 2.6893 3.1251
15.1683 2.8729 3.1251
15.3608 3.0614 3.1251
15.5570 3.2549 3.1251
13.2649 2.9076 2.6309
13.2538 3.0378 2.5951
13.2771 3.1765 2.5663
13.2793 3.3110 2.5335
17.4055 4.5161 3.2775
13.2142 3.5632 2.4557
17.8729 5.0022 3.2775
18.1140 5.2559 3.2775
18.3602 5.5172 3.2775
18.6119 5.7862 3.2775
18.8692 6.0634 3.2775
19.1322 6.3491 3.2775
19.4013 6.6437 3.2775
19.6767 6.9475 3.2775
19.9587 7.2609 3.2775
20.2475 7.5845 3.2775
20.5434 7.9185 3.2775
20.8466 8.2636 3.2775
21.1577 8.6201 3.2775
21.4768 8.9888 3.2775
21.8044 9.3701 3.2775
22.1408 9.7646 3.2775
22.4865 10.1730 3.2775
22.8419 10.5961 3.2775
23.2073 11.0344 3.2775
23.5835 11.4889 3.2775
23.9708 11.9604 3.2775
24.3699 12.4498 3.2775
24.7813 12.9580 3.2775
25.2057 13.4861 3.2775
25.6438 14.0352 3.2775
26.0963 14.6065 3.2775
26.5640 15.2013 3.2775
26.6472 15.5867 3.2290
26.2679 15.7014 3.1251
26.7627 16.3442 3.1251
27.2757 17.0153 3.1251
27.8081 17.7166 3.1251
28.3611 18.4501 3.1251
28.9359 19.2179 3.1251
30.9744 20.9988 3.2775
31.6280 21.8836 3.2775
32.3095 22.8125 3.2775
33.0209 23.7886 3.2775
33.7642 24.8154 3.2775
34.5422 25.8970 3.2775
35.3571 27.0374 3.2775
36.2122 28.2416 3.2775
37.1103 29.5146 3.2775
37.8769 30.7178 3.2622
19.9332 16.4829 1.6730
37.1879 32.5856 2.8753
36.3919 32.5070 2.7332
35.6163 32.4304 2.5959
34.8601 32.3558 2.4632
34.0116 32.1782 2.3274
33.3913 32.2011 2.2101
32.6885 32.1317 2.0901
32.0020 32.0640 1.9740
31.3310 31.9977 1.8616
30.6749 31.9329 1.7528
30.0331 31.8695 1.6474
29.4051 31.8075 1.5453
28.7064 31.6543 1.4422
28.1942 31.6943 1.3508
27.6041 31.6361 1.2579
27.0256 31.5789 1.1679
26.4583 31.5229 1.0805
25.9019 31.4680 0.9959
25.3558 31.4140 0.9138
11.6203 14.6828 0.3905
11.5927 14.9405 0.3612
11.4312 15.0281 0.3279
11.5509 15.4922 0.3024
6.0506 -2.7389 2.9859
6.0501 -2.6649 2.9515
6.0692 -2.6001 2.9272
6.1422 -2.5580 2.9288
6.2157 -2.5151 2.9306
6.2902 -2.4716 2.9325
6.3653 -2.4272 2.9345
6.4410 -2.3820 2.9365
6.5174 -2.3360 2.9386
6.5944 -2.2891 2.9407
6.6720 -2.2413 2.9428
6.7503 -2.1926 2.9450
6.8293 -2.1430 2.9472
6.9090 -2.0924 2.9495
6.9893 -2.0408 2.9518
7.0705 -1.9883 2.9542
7.1523 -1.9347 2.9566
7.2349 -1.8801 2.9590
7.3183 -1.8245 2.9615
7.4025 -1.7677 2.9641
7.4875 -1.7099 2.9667
7.5733 -1.6509 2.9694
7.6047 -1.5793 2.9507
7.5958 -1.4995 2.9166
7.5870 -1.4202 2.8831
7.5782 -1.3416 2.8501
7.5695 -1.2635 2.8176
7.5608 -1.1859 2.7855
7.5626 -1.1103 2.7576
7.5771 -1.0368 2.7348
7.5917 -0.9633 2.7122
7.6063 -0.8897 2.6898
7.6210 -0.8162 2.6677
7.6356 -0.7425 2.6458
7.6502 -0.6688 2.6242
7.6648 -0.5950 2.6028
7.6795 -0.5212 2.5816
7.6942 -0.4472 2.5606
7.7306 -0.3741 2.5469
7.7767 -0.3009 2.5365
7.8232 -0.2269 2.5263
7.8703 -0.1521 2.5162
7.9178 -0.0766 2.5062
7.9659 -0.0001 2.4964
8.0145 0.0771 2.4867
8.0637 0.1553 2.4771
8.1250 0.2347 2.4712
8.2032 0.3160 2.4703
8.2829 0.3988 2.4697
8.3643 0.4832 2.4693
8.4472 0.5694 2.4692
8.5319 0.6573 2.4693
8.6183 0.7471 2.4697
8.7348 0.8415 2.4784
8.8593 0.9391 2.4889
8.9876 1.0397 2.5000
9.1198 1.1433 2.5118
9.2632 1.2512 2.5261
9.4689 1.3711 2.5568
9.6845 1.4968 2.5892
10.0153 1.6457 2.6512
11.9234 2.0761 3.1251
12.0425 2.2151 3.1251
12.1628 2.3571 3.1251
12.2843 2.5020 3.1251
12.4072 2.6501 3.1251
12.5315 2.8013 3.1251
12.6571 2.9558 3.1251
12.7842 3.1137 3.1251
12.9126 3.2750 3.1251
13.0426 3.4399 3.1251
13.1740 3.6084 3.1251
13.9559 3.9651 3.2775
14.0970 4.1498 3.2775
14.2398 4.3387 3.2775
14.3843 4.5319 3.2775
14.5305 4.7295 3.2775
14.6786 4.9317 3.2775
14.8283 5.1385 3.2775
14.9801 5.3501 3.2775
15.1337 5.5668 3.2775
15.2893 5.7885 3.2775
15.4468 6.0155 3.2775
15.6064 6.2480 3.2775
15.7681 6.4861 3.2775
15.9319 6.7300 3.2775
16.0979 6.9798 3.2775
16.2662 7.2358 3.2775
16.4367 7.4981 3.2775
16.6095 7.7671 3.2775
16.7848 8.0428 3.2775
16.9625 8.3255 3.2775
17.1427 8.6154 3.2775
17.3255 8.9129 3.2775
17.5109 9.2180 3.2775
17.6991 9.5312 3.2775
17.8900 9.8527 3.2775
18.0838 10.1827 3.2775
18.2804 10.5215 3.2775
18.4800 10.8696 3.2775
18.6827 11.2272 3.2775
18.8885 11.5945 3.2775
19.0975 11.9722 3.2775
19.3098 12.3603 3.2775
19.5255 12.7595 3.2775
19.7447 13.1700 3.2775
19.9675 13.5923 3.2775
20.1938 14.0269 3.2775
20.4240 14.4742 3.2775
20.6580 14.9347 3.2775
20.2835 14.9573 3.1815
20.1551 15.1581 3.1251
20.3899 15.6381 3.1251
20.6288 16.1327 3.1251
20.8718 16.6426 3.1251
21.1192 17.1685 3.1251
19.9181 16.5068 2.9126
21.6276 18.2706 3.1251
22.9562 19.7675 3.2775
23.2352 20.3932 3.2775
23.5194 21.0393 3.2775
23.8090 21.7069 3.2775
24.1042 22.3968 3.2775
24.4051 23.1101 3.2775
24.7118 23.8478 3.2775
25.0246 24.6110 3.2775
25.3437 25.4010 3.2775
25.6692 26.2188 3.2775
26.0014 27.0659 3.2775
26.3403 27.9436 3.2775
26.6864 28.8533 3.2775
26.8765 29.6169 3.2577
26.3389 29.5830 3.1505
26.4778 30.3126 3.1251
26.8369 31.3181 3.1251
26.5004 31.5258 3.0443
25.9492 31.4714 2.9405
25.4082 31.4180 2.8397
24.8771 31.3656 2.7419
24.3555 31.3141 2.6470
23.7712 31.1692 2.5471
23.3371 31.2106 2.4651
11.3582 15.4950 1.1826
5.6126 -2.4464 3.0892
5.6772 -2.4058 3.0909
5.7421 -2.3646 3.0926
5.8074 -2.3226 3.0943
5.8730 -2.2799 3.0960
5.9391 -2.2365 3.0978
5.9799 -2.1830 3.0863
5.9795 -2.1146 3.0540
5.9791 -2.0468 3.0222
5.9787 -1.9795 2.9908
5.9870 -1.9156 2.9644
6.0449 -1.8674 2.9626
6.1106 -1.8208 2.9646
6.1769 -1.7734 2.9666
6.2438 -1.7252 2.9688
6.3111 -1.6761 2.9711
6.3789 -1.6262 2.9733
6.4472 -1.5754 2.9756
6.5159 -1.5237 2.9780
6.5825 -1.4706 2.9792
6.6519 -1.4170 2.9816
6.7243 -1.3630 2.9850
6.7951 -1.3075 2.9876
6.8663 -1.2511 2.9902
6.9426 -1.1944 2.9948
7.0212 -1.1368 3.0002
7.0949 -1.0773 3.0032
7.1691 -1.0167 3.0064
7.2439 -0.9549 3.0095
7.3261 -0.8929 3.0155
7.4104 -0.8297 3.0221
7.4885 -0.7644 3.0260
7.5680 -0.6980 3.0303
7.6564 -0.6310 3.0378
7.6724 -0.5572 3.0167
7.6871 -0.4832 2.9952
7.7084 -0.4094 2.9766
7.7543 -0.3365 2.9676
7.8007 -0.2628 2.9588
7.8475 -0.1884 2.9502
7.8948 -0.1131 2.9419
7.9426 -0.0371 2.9337
7.9910 0.0397 2.9257
8.0399 0.1174 2.9180
8.0894 0.1961 2.9104
8.1652 0.2765 2.9123
8.2442 0.3585 2.9151
8.3246 0.4421 2.9183
8.4067 0.5273 2.9219
8.4904 0.6143 2.9258
8.5759 0.7030 2.9302
8.6752 0.7947 2.9390
8.7977 0.8908 2.9554
8.9239 0.9897 2.9726
9.0539 1.0917 2.9906
9.1880 1.1968 3.0096
9.3652 1.3107 3.0421
9.5753 1.4331 3.0846
9.7820 1.5593 3.1251
9.8632 1.6685 3.1251
9.9449 1.7796 3.1251
10.0269 1.8926 3.1251
10.1093 2.0076 3.1251
10.1922 2.1246 3.1251
10.2754 2.2437 3.1251
10.3591 2.3649 3.1251
10.4431 2.4882 3.1251
10.5276 2.6137 3.1251
10.6124 2.7414 3.1251
10.6977 2.8715 3.1251
10.7833 3.0038 3.1251
10.8694 3.1385 3.1251
10.9558 3.2757 3.1251
11.0427 3.4153 3.1251
11.6727 3.7309 3.2775
11.7646 3.8827 3.2775
11.8569 4.0373 3.2775
11.9496 4.1946 3.2775
12.0427 4.3549 3.2775
12.1362 4.5181 3.2775
12.2301 4.6843 3.2775
12.3244 4.8536 3.2775
12.4190 5.0260 3.2775
12.5140 5.2017 3.2775
12.6094 5.3806 3.2775
12.7051 5.5628 3.2775
12.8011 5.7485 3.2775
12.8976 5.9376 3.2775
12.9943 6.1304 3.2775
13.0913 6.3267 3.2775
13.1886 6.5268 3.2775
13.2862 6.7308 3.2775
13.3841 6.9386 3.2775
13.4822 7.1503 3.2775
13.5806 7.3662 3.2775
13.6792 7.5861 3.2775
13.7780 7.8104 3.2775
13.8770 8.0389 3.2775
13.9761 8.2719 3.2775
14.0754 8.5095 3.2775
14.1748 8.7516 3.2775
14.2743 8.9985 3.2775
14.3738 9.2502 3.2775
14.4734 9.5068 3.2775
14.5730 9.7685 3.2775
14.6725 10.0353 3.2775
14.7720 10.3074 3.2775
14.8714 10.5848 3.2775
14.9707 10.8678 3.2775
15.0698 11.1564 3.2775
15.1687 11.4507 3.2775
15.2672 11.7508 3.2775
15.3656 12.0569 3.2775
15.4635 12.3691 3.2775
15.5610 12.6876 3.2775
15.7546 13.3437 3.2775
15.6580 13.0124 3.2775
15.8505 13.6816 3.2775
15.8852 14.5091 3.2270
15.5705 14.4914 3.1450
15.9458 14.0263 3.2775
15.5599 14.7557 3.1251
16.0403 14.3778 3.2775
15.6465 15.1185 3.1251
15.7321 15.4886 3.1251
16.0615 17.0440 3.1251
15.8164 15.8660 3.1251
16.1403 17.4523 3.1251
15.8996 16.2510 3.1251
16.2173 17.8687 3.1251
15.9813 16.6436 3.1251
17.0870 19.1853 3.2775
17.1639 19.6393 3.2775
17.4482 21.5450 3.2775
17.2385 20.1021 3.2775
17.5127 22.0446 3.2775
17.3109 20.5739 3.2775
17.5743 22.5537 3.2775
17.3808 21.0548 3.2775
17.6328 23.0723 3.2775
17.6880 23.6006 3.2775
11.3312 15.4186 2.0935
11.3005 15.6836 2.0822
5.0857 -2.1284 3.0983
5.1557 -2.0959 3.1084
5.2119 -2.0568 3.1100
5.2683 -2.0171 3.1117
5.3249 -1.9767 3.1133
5.3817 -1.9357 3.1150
5.4388 -1.8941 3.1168
5.4962 -1.8517 3.1185
5.5537 -1.8087 3.1203
5.6115 -1.7650 3.1221
5.6696 -1.7206 3.1240
5.7279 -1.6755 3.1259
5.7865 -1.6296 3.1278
5.8452 -1.5830 3.1297
5.9043 -1.5357 3.1317
5.9118 -1.4746 3.1065
5.9131 -1.4124 3.0784
5.9161 -1.3509 3.0517
5.9191 -1.2897 3.0254
5.9272 -1.2299 3.0022
5.9697 -1.1770 2.9965
6.0283 -1.1266 2.9989
6.0876 -1.0755 3.0015
6.1471 -1.0235 3.0042
6.2070 -0.9706 3.0069
6.2672 -0.9169 3.0096
6.3276 -0.8623 3.0124
6.3897 -0.8069 3.0158
6.4530 -0.7507 3.0197
6.5150 -0.6933 3.0229
6.5772 -0.6349 3.0261
6.6397 -0.5756 3.0293
6.7026 -0.5152 3.0325
6.7713 -0.4542 3.0383
6.8365 -0.3919 3.0423
6.9009 -0.3284 3.0459
6.9654 -0.2638 3.0495
7.0331 -0.1981 3.0543
7.1052 -0.1314 3.0609
7.1713 -0.0633 3.0648
7.2378 0.0060 3.0688
7.3094 0.0765 3.0748
7.3844 0.1484 3.0821
7.4524 0.2215 3.0863
7.5202 0.2958 3.0904
7.5972 0.3719 3.0981
7.6675 0.4490 3.1030
7.7340 0.5273 3.1062
7.8049 0.6071 3.1111
7.8744 0.6883 3.1153
7.9387 0.7703 3.1174
8.0022 0.8536 3.1191
8.0650 0.9380 3.1206
8.1277 1.0238 3.1219
8.1898 1.1108 3.1230
8.2528 1.1993 3.1244
8.3138 1.2888 3.1250
8.3736 1.3795 3.1251
8.5521 1.6595 3.1251
8.4331 1.4714 3.1251
8.6116 1.7556 3.1251
8.4926 1.5648 3.1251
8.6712 1.8532 3.1251
8.7902 2.0527 3.1251
8.7307 1.9522 3.1251
8.8497 2.1547 3.1251
9.0279 2.4698 3.1251
8.9091 2.2582 3.1251
9.0871 2.5780 3.1251
8.9685 2.3632 3.1251
9.1463 2.6878 3.1251
9.2645 2.9124 3.1251
9.2055 2.7993 3.1251
9.3235 3.0272 3.1251
9.9628 3.5469 3.2775
9.3823 3.1437 3.1251
10.0241 3.6746 3.2775
9.4410 3.2619 3.1251
10.0852 3.8043 3.2775
10.2068 4.0694 3.2775
10.1461 3.9358 3.2775
10.2672 4.2049 3.2775
10.4471 4.6238 3.2775
10.3274 4.3425 3.2775
10.5064 4.7675 3.2775
10.3874 4.4821 3.2775
10.5655 4.9135 3.2775
10.6826 5.2119 3.2775
10.6242 5.0616 3.2775
10.7406 5.3644 3.2775
10.9121 5.8357 3.2775
10.7982 5.5192 3.2775
10.9683 5.9974 3.2775
10.8554 5.6763 3.2775
11.0240 6.1616 3.2775
11.1338 6.4971 3.2775
11.0792 6.3281 3.2775
11.1879 6.6686 3.2775
11.3461 7.1982 3.2775
11.2413 6.8426 3.2775
11.2940 7.0191 3.2775
11.3975 7.3799 3.2775
11.4481 7.5642 3.2775
11.5469 7.9409 3.2775
11.4979 7.7512 3.2775
11.5950 8.1333 3.2775
11.7337 8.7271 3.2775
11.6422 8.3284 3.2775
11.7779 8.9306 3.2775
11.6884 8.5264 3.2775
11.8210 9.1371 3.2775
11.9039 9.5586 3.2775
11.8630 9.3464 3.2775
11.9435 9.7737 3.2775
12.0544 10.4369 3.2775
11.9818 9.9918 3.2775
12.0885 10.6640 3.2775
12.0188 10.2128 3.2775
12.1212 10.8941 3.2775
12.1817 11.3634 3.2775
12.1522 11.1272 3.2775
12.2094 11.6027 3.2775
12.2355 11.8451 3.2775
12.2819 12.3391 3.2775
12.3023 12.5908 3.2775
12.2596 12.0906 3.2775
12.3206 12.8456 3.2775
12.3509 13.3644 3.2775
12.3368 13.1035 3.2775
12.3626 13.6285 3.2775
12.1233 14.1354 3.2086
12.3721 13.8956 3.2775
11.8865 14.1223 3.1454
12.3642 14.1487 3.2735
11.8091 14.2975 3.1251
11.7998 14.8385 3.1251
11.8058 14.5666 3.1251
11.7910 15.1132 3.1251
11.7793 15.3907 3.1251
11.7646 15.6708 3.1251
11.3443 15.4067 3.0180
11.2439 15.5711 2.9966
11.7019 16.5267 3.1251
4.6578 -1.8654 3.1220
4.7068 -1.8290 3.1235
4.7559 -1.7921 3.1251
4.8051 -1.7546 3.1266
4.8544 -1.7165 3.1282
4.9038 -1.6778 3.1298
4.9398 -1.6341 3.1228
4.9894 -1.5944 3.1245
5.0522 -1.5581 3.1343
5.1019 -1.5170 3.1359
5.1517 -1.4752 3.1375
5.2016 -1.4329 3.1391
5.2517 -1.3899 3.1407
5.3019 -1.3463 3.1424
5.3522 -1.3020 3.1441
5.4026 -1.2570 3.1458
5.4532 -1.2114 3.1476
5.5041 -1.1652 3.1495
5.5553 -1.1183 3.1515
5.6065 -1.0707 3.1535
5.6582 -1.0224 3.1558
5.7103 -0.9735 3.1582
5.7625 -0.9238 3.1606
5.8148 -0.8733 3.1631
5.8672 -0.8221 3.1655
5.9108 -0.7689 3.1632
5.9213 -0.7111 3.1434
5.9321 -0.6534 3.1240
5.9428 -0.5957 3.1049
5.9537 -0.5380 3.0862
5.9671 -0.4805 3.0691
5.9804 -0.4229 3.0522
6.0014 -0.3656 3.0395
6.0433 -0.3092 3.0375
6.0952 -0.2526 3.0405
6.1473 -0.1950 3.0436
6.2078 -0.1368 3.0508
6.2520 -0.0773 3.0499
6.3047 -0.0171 3.0532
6.3583 0.0441 3.0569
6.4115 0.1062 3.0604
6.4647 0.1693 3.0639
6.5181 0.2334 3.0674
6.5716 0.2984 3.0709
6.6252 0.3645 3.0745
6.6819 0.4318 3.0795
6.7360 0.5000 3.0833
6.7902 0.5692 3.0871
6.8440 0.6394 3.0907
6.8984 0.7108 3.0947
6.9543 0.7835 3.0992
7.0073 0.8570 3.1025
7.2662 1.2401 3.1163
7.0596 0.9314 3.1054
7.3149 1.3196 3.1179
7.1114 1.0069 3.1082
7.3635 1.4001 3.1195
7.1653 1.0839 3.1119
7.2158 1.1614 3.1141
7.4111 1.4817 3.1207
7.4586 1.5643 3.1219
7.6423 1.9050 3.1248
7.6866 1.9927 3.1251
7.5053 1.6479 3.1228
7.5518 1.7326 3.1237
7.7300 2.0814 3.1251
7.7732 2.1712 3.1251
7.5977 1.8184 3.1245
7.8160 2.2621 3.1251
7.9946 2.6408 3.1290
7.8586 2.3542 3.1251
8.1916 2.7907 3.1896
7.9009 2.4474 3.1251
7.9429 2.5419 3.1251
8.4604 2.9704 3.2775
8.5454 3.1799 3.2775
8.5031 3.0745 3.2775
8.5873 3.2866 3.2775
8.7104 3.6146 3.2775
8.6288 3.3946 3.2775
8.6698 3.5039 3.2775
8.7505 3.7267 3.2775
8.8680 4.0711 3.2775
8.7902 3.8401 3.2775
8.9061 4.1887 3.2775
8.8294 3.9549 3.2775
8.9436 4.3077 3.2775
9.0170 4.5501 3.2775
8.9806 4.4282 3.2775
9.0527 4.6734 3.2775
9.1561 5.0523 3.2775
9.0878 4.7982 3.2775
9.1891 5.1815 3.2775
9.1223 4.9245 3.2775
9.2215 5.3123 3.2775
9.2838 5.5783 3.2775
9.2530 5.4445 3.2775
9.3138 5.7136 3.2775
9.3987 6.1287 3.2775
9.3430 5.8504 3.2775
9.4251 6.2702 3.2775
9.3712 5.9888 3.2775
9.4507 6.4132 3.2775
9.4988 6.7040 3.2775
9.4752 6.5578 3.2775
9.5213 6.8517 3.2775
9.5823 7.3043 3.2775
9.5427 7.0010 3.2775
9.6003 7.4583 3.2775
9.5631 7.1519 3.2775
9.6172 7.6139 3.2775
9.6471 7.9298 3.2775
9.6328 7.7711 3.2775
9.6601 8.0901 3.2775
9.6910 8.5803 3.2775
9.6718 8.2520 3.2775
9.6984 8.7468 3.2775
9.6821 8.4153 3.2775
9.7043 8.9148 3.2775
9.7114 9.2553 3.2775
9.7087 9.0843 3.2775
9.7059 9.9540 3.2775
9.7126 9.4278 3.2775
9.7001 10.1322 3.2775
9.6717 10.6752 3.2775
9.7121 9.6017 3.2775
9.6925 10.3119 3.2775
9.6583 10.8588 3.2775
9.6831 10.4929 3.2775
9.7099 9.7771 3.2775
9.6429 11.0437 3.2775
9.6058 11.4172 3.2775
9.6254 11.2298 3.2775
9.5841 11.6057 3.2775
9.5055 12.1777 3.2775
9.5602 11.7953 3.2775
9.4747 12.3705 3.2775
9.5340 11.9860 3.2775
9.4414 12.5641 3.2775
9.4058 12.7587 3.2775
9.3677 12.9541 3.2775
9.3270 13.1502 3.2775
9.2837 13.3471 3.2775
4.2707 -1.6300 3.1347
4.3136 -1.5956 3.1359
4.3567 -1.5606 3.1373
4.3997 -1.5252 3.1386
4.4429 -1.4892 3.1400
4.4860 -1.4528 3.1413
4.5292 -1.4158 3.1427
4.5724 -1.3783 3.1442
4.6158 -1.3402 3.1456
4.6591 -1.3017 3.1471
4.7024 -1.2625 3.1486
4.7458 -1.2229 3.1501
4.7893 -1.1827 3.1516
4.8327 -1.1419 3.1532
4.8763 -1.1005 3.1548
4.9198 -1.0586 3.1564
4.9634 -1.0161 3.1580
5.0070 -0.9730 3.1597
5.0506 -0.9293 3.1614
5.0943 -0.8850 3.1631
5.1380 -0.8401 3.1648
5.1817 -0.7946 3.1666
5.2255 -0.7484 3.1684
5.2692 -0.7017 3.1702
5.3129 -0.6542 3.1720
5.3567 -0.6062 3.1738
5.4005 -0.5574 3.1757
5.4442 -0.5080 3.1776
5.4880 -0.4580 3.1796
5.5322 -0.4072 3.1817
5.5766 -0.3558 3.1841
5.6210 -0.3037 3.1864
5.6660 -0.2509 3.1891
5.7110 -0.1974 3.1919
5.7557 -0.1431 3.1945
5.8004 -0.0880 3.1971
5.8450 -0.0322 3.1997
5.8895 0.0243 3.2023
5.9347 0.0817 3.2053
5.9799 0.1399 3.2083
6.0246 0.1988 3.2111
6.0698 0.2586 3.2142
6.1149 0.3192 3.2173
6.1600 0.3806 3.2204
6.1986 0.4425 3.2202
6.2247 0.5040 3.2137
6.2523 0.5662 3.2081
6.2827 0.6293 3.2041
6.3134 0.6929 3.2003
6.3443 0.7573 3.1969
6.3797 0.8229 3.1958
6.4156 0.8893 3.1951
6.4519 0.9565 3.1947
6.4923 1.0252 3.1965
6.5345 1.0951 3.1992
6.5773 1.1660 3.2023
6.6253 1.2389 3.2080
6.6751 1.3132 3.2147
6.7264 1.3889 3.2221
6.7848 1.4674 3.2330
6.8443 1.5475 3.2444
6.9075 1.6298 3.2575
6.9730 1.7142 3.2718
7.0104 1.7929 3.2729
7.0473 1.8725 3.2740
7.0834 1.9529 3.2749
7.1191 2.0342 3.2757
7.1543 2.1164 3.2764
7.1884 2.1993 3.2769
7.2218 2.2830 3.2771
7.2548 2.3676 3.2774
7.2871 2.4531 3.2775
7.3187 2.5394 3.2775
7.3499 2.6266 3.2775
7.3806 2.7147 3.2775
7.4108 2.8038 3.2775
7.4405 2.8938 3.2775
7.4698 2.9848 3.2775
7.4986 3.0766 3.2775
7.5268 3.1695 3.2775
7.5545 3.2633 3.2775
7.5816 3.3581 3.2775
7.6082 3.4538 3.2775
7.6342 3.5505 3.2775
7.6596 3.6482 3.2775
7.6844 3.7468 3.2775
7.7086 3.8464 3.2775
7.7321 3.9471 3.2775
7.7550 4.0486 3.2775
7.7771 4.1512 3.2775
7.7986 4.2548 3.2775
7.8394 4.4648 3.2775
7.8194 4.3593 3.2775
7.8587 4.5714 3.2775
7.9117 4.8968 3.2775
7.8772 4.6789 3.2775
7.9278 5.0073 3.2775
7.8949 4.7873 3.2775
7.9430 5.1187 3.2775
7.9707 5.3446 3.2775
7.9573 5.2312 3.2775
7.9832 5.4589 3.2775
8.0150 5.8079 3.2775
7.9948 5.5743 3.2775
8.0236 5.9261 3.2775
8.0054 5.6906 3.2775
8.0312 6.0453 3.2775
8.0431 6.2864 3.2775
8.0377 6.1654 3.2775
8.0474 6.4084 3.2775
8.0536 6.7797 3.2775
8.0506 6.5313 3.2775
8.0532 6.9053 3.2775
8.0527 6.6551 3.2775
8.0448 7.2871 3.2775
8.0517 7.0317 3.2775
8.0151 7.8076 3.2775
8.0394 7.4160 3.2775
8.0489 7.1590 3.2775
8.0042 7.9396 3.2775
8.0326 7.5457 3.2775
7.9628 8.3400 3.2775
7.9919 8.0724 3.2775
8.0245 7.6763 3.2775
7.9460 8.4749 3.2775
7.9781 8.2059 3.2775
7.8862 8.8830 3.2775
7.7835 9.4348 3.2775
7.9276 8.6103 3.2775
7.8630 9.0202 3.2775
7.9077 8.7464 3.2775
7.7536 9.5738 3.2775
7.8382 9.1579 3.2775
7.6532 9.9932 3.2775
7.7219 9.7133 3.2775
7.8117 9.2961 3.2775
7.6161 10.1336 3.2775
7.6885 9.8531 3.2775
7.5771 10.2742 3.2775
7.5363 10.4150 3.2775
7.4935 10.5560 3.2775
7.4488 10.6970 3.2775
7.4022 10.8381 3.2775
3.9272 -1.4214 3.1452
3.9653 -1.3889 3.1464
4.0035 -1.3560 3.1476
4.0416 -1.3226 3.1489
4.2321 -1.1488 3.1556
4.0798 -1.2887 3.1502
4.2702 -1.1126 3.1569
4.3843 -1.0012 3.1612
4.1179 -1.2544 3.1515
4.3083 -1.0759 3.1584
4.4223 -0.9630 3.1627
4.1560 -1.2197 3.1528
4.3463 -1.0388 3.1598
4.4602 -0.9244 3.1642
4.1941 -1.1845 3.1542
4.5361 -0.8457 3.1673
4.4982 -0.8853 3.1657
4.8378 -0.5096 3.1802
4.5740 -0.8055 3.1688
4.6873 -0.6819 3.1736
5.1359 -0.1377 3.1947
4.8753 -0.4651 3.1820
4.6118 -0.7648 3.1704
5.1728 -0.0886 3.1966
4.7249 -0.6396 3.1752
4.9874 -0.3283 3.1872
4.6495 -0.7236 3.1720
4.9127 -0.4201 3.1837
5.2098 -0.0389 3.1985
4.7626 -0.5968 3.1768
5.0246 -0.2815 3.1891
5.2833 0.0625 3.2025
5.2466 0.0115 3.2005
4.9500 -0.3745 3.1855
4.8002 -0.5535 3.1785
5.0618 -0.2342 3.1909
5.3199 0.1141 3.2045
5.4291 0.2728 3.2108
5.5732 0.4935 3.2196
5.0989 -0.1863 3.1928
5.7155 0.7252 3.2290
5.3564 0.1663 3.2066
5.4653 0.3269 3.2129
5.6090 0.5504 3.2219
5.8558 0.9684 3.2392
5.7508 0.7849 3.2315
5.3928 0.2192 3.2087
5.5013 0.3818 3.2151
5.6446 0.6080 3.2242
5.7860 0.8454 3.2341
5.8904 1.0310 3.2418
5.9901 1.2227 3.2482
5.5373 0.4373 3.2173
5.6801 0.6663 3.2266
5.9247 1.0943 3.2444
5.8210 0.9065 3.2366
6.0191 1.2873 3.2484
6.1121 1.4869 3.2530
6.2333 1.7638 3.2601
5.9588 1.1584 3.2470
6.3457 2.0516 3.2657
6.0479 1.3526 3.2485
6.1434 1.5552 3.2550
6.2623 1.8347 3.2617
6.4493 2.3504 3.2701
6.3724 2.1252 3.2669
6.0805 1.4195 3.2509
6.1742 1.6241 3.2570
6.2910 1.9064 3.2633
6.4736 2.4268 3.2709
6.3986 2.1996 3.2680
6.2040 1.6936 3.2586
6.3187 1.9787 3.2645
6.5431 2.6602 3.2732
6.4244 2.2748 3.2692
6.4975 2.5040 3.2718
6.6267 2.9807 3.2753
6.7000 3.3121 3.2768
6.5651 2.7393 3.2739
6.5206 2.5817 3.2726
6.7615 3.6538 3.2773
6.6460 3.0625 3.2757
6.7164 3.3965 3.2769
6.5864 2.8192 3.2745
6.8116 4.0063 3.2775
6.7752 3.7410 3.2774
6.7321 3.4816 3.2771
6.6647 3.1450 3.2762
6.6068 2.8996 3.2749
6.8222 4.0960 3.2775
6.7881 3.8288 3.2775
6.7471 3.5674 3.2772
6.8495 4.3693 3.2775
6.6828 3.2283 3.2766
6.8321 4.1864 3.2775
6.8002 3.9172 3.2775
6.8747 4.7427 3.2775
6.8570 4.4616 3.2775
6.8862 5.1262 3.2775
6.8412 4.2775 3.2775
6.8830 5.5192 3.2775
6.8789 4.8376 3.2775
6.8638 4.5547 3.2775
6.8868 5.2236 3.2775
6.8638 5.9211 3.2775
6.8797 5.6189 3.2775
6.8823 4.9332 3.2775
6.8696 4.6484 3.2775
6.8865 5.3215 3.2775
6.8564 6.0228 3.2775
6.8754 5.7191 3.2775
6.8847 5.0294 3.2775
6.8277 6.3310 3.2775
6.8852 5.4201 3.2775
6.8480 6.1251 3.2775
6.8702 5.8198 3.2775
6.7735 6.7480 3.2775
6.8159 6.4346 3.2775
6.7001 7.1709 3.2775
6.8384 6.2278 3.2775
6.6064 7.5984 3.2775
6.7570 6.8532 3.2775
6.8030 6.5387 3.2775
6.6786 7.2774 3.2775
6.4914 8.0290 3.2775
6.5797 7.7059 3.2775
6.7393 6.9588 3.2775
6.6559 7.3842 3.2775
6.7888 6.6431 3.2775
6.4591 8.1370 3.2775
6.5516 7.8135 3.2775
6.6318 7.4912 3.2775
6.7203 7.0647 3.2775
6.3540 8.4610 3.2775
6.4255 8.2449 3.2775
6.5222 7.9212 3.2775
6.3160 8.5689 3.2775
6.3905 8.3529 3.2775
6.2766 8.6768 3.2775
6.2357 8.7846 3.2775
6.1934 8.8923 3.2775
6.1495 8.9998 3.2775
6.1041 9.1071 3.2775
