ply
format ascii 1.0
element vertex 2156
property float32 x
property float32 y
property float32 z
end_header
-0.0775 -16.4843 1.8618
0.4140 -16.4661 1.8588
0.0864 -16.4781 1.8611
0.5778 -16.4619 1.8575
0.2503 -16.4715 1.8600
0.7417 -16.4589 1.8560
1.3993 -16.4591 1.8485
0.9057 -16.4571 1.8543
1.5646 -16.4622 1.8462
1.7304 -16.4666 1.8438
1.0700 -16.4566 1.8526
1.8967 -16.4721 1.8412
1.2345 -16.4572 1.8506
2.0636 -16.4790 1.8385
2.3997 -16.4964 1.8325
2.2313 -16.4870 1.8356
2.5687 -16.5058 1.8292
3.4277 -16.5655 1.8091
2.7385 -16.5153 1.8255
3.6029 -16.5813 1.8045
2.9092 -16.5259 1.8217
3.7794 -16.5984 1.7997
3.9573 -16.6168 1.7947
3.0655 -16.4551 1.8086
4.1368 -16.6365 1.7896
3.2537 -16.5511 1.8134
4.3179 -16.6577 1.7842
4.5005 -16.6802 1.7786
5.6377 -16.8463 1.7404
4.6851 -16.7041 1.7728
5.8342 -16.8770 1.7330
6.0330 -16.9089 1.7252
4.8714 -16.7296 1.7668
6.2344 -16.9425 1.7172
5.0598 -16.7564 1.7606
6.4385 -16.9777 1.7089
5.2502 -16.7849 1.7541
5.4428 -16.8148 1.7474
6.6114 -16.9277 1.6917
6.8552 -17.0531 1.6915
7.8896 -16.6992 1.5728
7.0682 -17.0935 1.6823
8.1172 -16.7520 1.5622
8.3490 -16.8069 1.5512
7.2844 -17.1358 1.6728
8.5852 -16.8641 1.5399
7.5039 -17.1798 1.6630
8.8261 -16.9237 1.5282
7.6192 -16.9853 1.6298
9.0718 -16.9857 1.5161
7.6665 -16.6496 1.5831
9.3226 -17.0502 1.5035
9.1059 -14.5501 1.1794
9.3531 -16.7140 1.4554
9.0629 -14.1709 1.1301
9.2998 -16.2426 1.3959
9.0216 -13.8067 1.0825
8.9818 -13.4566 1.0365
9.2488 -15.7924 1.3387
8.9436 -13.1197 0.9919
9.2001 -15.3618 1.2838
8.9067 -12.7952 0.9486
9.1508 -14.9453 1.2305
8.8712 -12.4824 0.9067
8.6821 -10.8165 0.6783
8.8382 -12.1823 0.8661
8.6538 -10.5688 0.6435
8.8048 -11.8905 0.8265
8.6264 -10.3287 0.6095
8.7726 -11.6085 0.7880
8.5997 -10.0957 0.5764
8.7415 -11.3359 0.7505
8.5739 -9.8694 0.5439
8.7113 -11.0720 0.7139
8.5488 -9.6495 0.5121
8.5243 -9.4358 0.4810
8.3991 -8.2749 0.3069
8.5084 -9.2364 0.4510
8.3788 -8.0966 0.2795
8.4854 -9.0340 0.4211
8.3590 -7.9226 0.2527
8.4630 -8.8368 0.3917
8.3397 -7.7526 0.2262
8.4411 -8.6448 0.3629
8.3208 -7.5865 0.2001
8.4198 -8.4575 0.3347
8.3023 -7.4241 0.1745
8.2843 -7.2652 0.1492
8.1835 -6.3791 0.0042
8.2666 -7.1098 0.1242
8.1740 -6.2462 -0.0190
8.2493 -6.9576 0.0996
8.1584 -6.1108 -0.0419
8.2323 -6.8086 0.0753
8.1431 -5.9780 -0.0646
8.2157 -6.6626 0.0513
8.1281 -5.8475 -0.0871
8.1995 -6.5194 0.0276
8.1133 -5.7194 -0.1093
8.0988 -5.5935 -0.1313
8.0167 -4.8804 -0.2595
8.0846 -5.4697 -0.1531
8.0038 -4.7680 -0.2802
8.0706 -5.3480 -0.1747
7.9910 -4.6573 -0.3009
8.0568 -5.2283 -0.1962
7.9785 -4.5481 -0.3214
8.0432 -5.1105 -0.2174
7.9661 -4.4405 -0.3418
8.0299 -4.9946 -0.2385
7.9538 -4.3345 -0.3620
7.9418 -4.2298 -0.3822
7.8727 -3.6297 -0.5009
7.9299 -4.1266 -0.4022
7.8617 -3.5339 -0.5204
7.9182 -4.0247 -0.4221
7.8508 -3.4392 -0.5398
7.9066 -3.9241 -0.4419
7.8400 -3.3456 -0.5592
7.8952 -3.8247 -0.4617
7.8839 -3.7266 -0.4813
7.8312 -3.2538 -0.5786
7.8137 -3.1593 -0.5973
7.7963 -3.0660 -0.6160
7.7792 -2.9738 -0.6345
7.6786 -2.5224 -0.7247
7.7623 -2.8827 -0.6530
7.6576 -2.4348 -0.7424
7.6369 -2.3481 -0.7601
7.7430 -2.7917 -0.6712
7.6164 -2.2625 -0.7776
7.7213 -2.7008 -0.6891
7.6055 -2.1804 -0.7962
7.6998 -2.6111 -0.7070
7.5955 -2.0993 -0.8148
7.5856 -2.0188 -0.8333
7.5436 -1.5511 -0.9471
7.5757 -1.9389 -0.8519
7.5571 -1.4787 -0.9687
7.6246 -1.1166 -1.0792
7.5659 -1.8596 -0.8705
7.5706 -1.4064 -0.9905
7.6381 -1.0440 -1.1018
7.5562 -1.7808 -0.8891
7.5841 -1.3340 -1.0125
7.6517 -0.9714 -1.1245
7.5466 -1.7026 -0.9078
7.5976 -1.2616 -1.0346
7.6652 -0.8986 -1.1475
7.6111 -1.1891 -1.0568
7.5370 -1.6249 -0.9264
7.7015 -0.8281 -1.1740
7.7882 -0.6867 -1.2303
7.7446 -0.7578 -1.2019
7.8321 -0.6150 -1.2590
7.8766 -0.5425 -1.2882
7.9215 -0.4693 -1.3179
7.9668 -0.3952 -1.3480
8.0127 -0.3204 -1.3786
8.0614 -0.2448 -1.4101
8.1329 -0.1687 -1.4461
8.2058 -0.0913 -1.4829
8.2799 -0.0124 -1.5205
8.3555 0.0679 -1.5590
8.4325 0.1498 -1.5984
8.5110 0.2333 -1.6387
8.5927 0.3185 -1.6803
-2.1163 -13.4621 2.1375
-1.9771 -13.4587 2.1397
-0.6541 -6.8286 1.0910
-1.8385 -13.4562 2.1418
-0.5843 -6.8237 1.0911
-0.8651 -6.8454 1.0907
-0.5147 -6.8192 1.0911
-0.7945 -6.8395 1.0909
-0.4454 -6.8151 1.0910
-0.7241 -6.8338 1.0910
-0.3762 -6.8113 1.0909
-0.2384 -6.8047 1.0907
-0.3072 -6.8078 1.0908
-0.1696 -6.8020 1.0905
-0.1010 -6.7996 1.0903
0.1731 -6.7934 1.0891
-0.0324 -6.7975 1.0901
0.2417 -6.7928 1.0888
0.0361 -6.7958 1.0898
0.3102 -6.7924 1.0883
0.1046 -6.7945 1.0895
0.5855 -6.7945 1.0864
0.3789 -6.7924 1.0879
0.6547 -6.7959 1.0858
0.7240 -6.7977 1.0851
0.4476 -6.7928 1.0874
0.7936 -6.7998 1.0845
0.5165 -6.7935 1.0869
0.8634 -6.8022 1.0838
1.8664 -13.6050 2.1653
2.0077 -13.6153 2.1644
2.8695 -13.6790 2.1553
2.1493 -13.6241 2.1631
3.0164 -13.6922 2.1534
2.2917 -13.6336 2.1617
3.1642 -13.7062 2.1515
3.3132 -13.7210 2.1495
2.4349 -13.6438 2.1602
3.4634 -13.7366 2.1475
2.5789 -13.6548 2.1586
3.6148 -13.7531 2.1453
3.7670 -13.7683 2.1427
2.7112 -13.6036 2.1471
3.9201 -13.7831 2.1399
4.0747 -13.7988 2.1369
4.7079 -13.8699 2.1240
4.2307 -13.8153 2.1338
4.8703 -13.8898 2.1205
4.3881 -13.8327 2.1307
4.5472 -13.8508 2.1274
5.0345 -13.9107 2.1169
5.7114 -14.0036 2.1011
5.2007 -13.9325 2.1131
5.8861 -14.0294 2.0969
6.0616 -14.0529 2.0920
5.3688 -13.9552 2.1092
6.2396 -14.0774 2.0869
5.5391 -13.9789 2.1052
6.3886 -14.0339 2.0715
6.7886 -14.1571 2.0709
6.6030 -14.1295 2.0764
7.6505 -13.7795 1.9534
6.9765 -14.1846 2.0650
7.8502 -13.8143 1.9469
8.0536 -13.8504 1.9401
7.1669 -14.2127 2.0588
8.2609 -13.8878 1.9331
8.4721 -13.9267 1.9259
7.2848 -14.0958 2.0315
8.6875 -13.9671 1.9185
7.2717 -13.7338 1.9688
8.9072 -14.0089 1.9108
9.0332 -13.9013 1.8824
7.4541 -13.7461 1.9598
8.9926 -13.5436 1.8203
8.8459 -12.2436 1.5923
8.9535 -13.1996 1.7603
8.8120 -11.9465 1.5398
8.9159 -12.8685 1.7023
8.8797 -12.5496 1.6463
8.7792 -11.6596 1.4889
8.6584 -10.6030 1.2995
8.7475 -11.3823 1.4394
8.6305 -10.3593 1.2554
8.7168 -11.1141 1.3914
8.6035 -10.1229 1.2124
8.5773 -9.8935 1.1705
8.6871 -10.8545 1.3448
8.5518 -9.6706 1.1297
8.5270 -9.4541 1.0898
8.5091 -9.2503 1.0517
8.3781 -8.0980 0.8354
8.4858 -9.0455 1.0136
8.3582 -7.9223 0.8019
8.3387 -7.7507 0.7691
8.4632 -8.8461 0.9765
8.3196 -7.5831 0.7368
8.4411 -8.6519 0.9401
8.3010 -7.4193 0.7051
8.2828 -7.2591 0.6740
8.4196 -8.4626 0.9045
8.2650 -7.1023 0.6434
8.3986 -8.2781 0.8696
8.2476 -6.9490 0.6134
8.2305 -6.7988 0.5838
8.1715 -6.2322 0.4703
8.2138 -6.6517 0.5547
8.1559 -6.0960 0.4428
8.1974 -6.5075 0.5260
8.1405 -5.9623 0.4158
8.1813 -6.3662 0.4978
8.0816 -5.4511 0.3109
8.1254 -5.8311 0.3890
8.0675 -5.3288 0.2855
8.1105 -5.7022 0.3627
8.0537 -5.2085 0.2604
8.0401 -5.0901 0.2355
8.0959 -5.5756 0.3366
8.0267 -4.9737 0.2110
8.0005 -4.7461 0.1626
8.0135 -4.8590 0.1867
7.9264 -4.1022 0.0230
7.9877 -4.6349 0.1388
7.9146 -4.0000 0.0004
7.9751 -4.5253 0.1152
7.9030 -3.8991 -0.0220
7.9626 -4.4173 0.0919
7.8915 -3.7995 -0.0442
7.8802 -3.7011 -0.0663
7.9504 -4.3108 0.0687
7.8690 -3.6039 -0.0882
7.9383 -4.2058 0.0457
7.8580 -3.5078 -0.1100
7.8470 -3.4129 -0.1316
7.7740 -2.9460 -0.2373
7.8362 -3.3190 -0.1532
7.7571 -2.8547 -0.2580
7.8261 -3.2264 -0.1745
7.8086 -3.1318 -0.1956
7.7362 -2.7630 -0.2784
7.7912 -3.0383 -0.2166
7.7144 -2.6721 -0.2986
7.6507 -2.4059 -0.3583
7.6300 -2.3192 -0.3780
7.6929 -2.5823 -0.3186
7.6122 -2.2343 -0.3977
7.6021 -2.1524 -0.4177
7.6717 -2.4936 -0.3385
7.5920 -2.0712 -0.4376
7.5722 -1.9106 -0.4774
7.5821 -1.9906 -0.4575
7.5622 -1.4516 -0.5994
7.5624 -1.8312 -0.4972
7.5527 -1.7524 -0.5169
7.5757 -1.3791 -0.6211
7.5430 -1.6741 -0.5366
7.5892 -1.3065 -0.6428
7.5351 -1.5968 -0.5565
7.6028 -1.2339 -0.6647
7.5487 -1.5242 -0.5779
7.6163 -1.1613 -0.6866
7.6434 -1.0158 -0.7310
7.6298 -1.0886 -0.7087
7.8498 -0.5862 -0.8811
7.6570 -0.9430 -0.7533
7.8944 -0.5134 -0.9082
7.6755 -0.8706 -0.7763
7.9395 -0.4398 -0.9358
7.9852 -0.3654 -0.9637
7.7184 -0.8005 -0.8019
8.0313 -0.2901 -0.9920
7.7618 -0.7298 -0.8280
8.0900 -0.2144 -1.0223
7.8055 -0.6584 -0.8544
8.1620 -0.1378 -1.0548
8.2354 -0.0597 -1.0879
8.3101 0.0197 -1.1218
8.3863 0.1006 -1.1564
8.4638 0.1831 -1.1918
8.5429 0.2672 -1.2281
8.6364 0.3535 -1.2670
8.7473 0.4426 -1.3092
-0.9194 -5.7695 1.1970
-0.8586 -5.7658 1.1970
-0.7981 -5.7622 1.1969
-0.7378 -5.7589 1.1969
-0.6777 -5.7556 1.1968
-0.6179 -5.7526 1.1967
-0.5582 -5.7497 1.1966
-0.4988 -5.7470 1.1965
-0.4395 -5.7445 1.1963
-0.3803 -5.7421 1.1962
-0.3213 -5.7399 1.1960
-0.2624 -5.7379 1.1958
-0.2037 -5.7360 1.1956
-0.1449 -5.7343 1.1954
-0.0863 -5.7327 1.1952
-0.0277 -5.7314 1.1950
0.0309 -5.7301 1.1947
0.0894 -5.7291 1.1944
0.1480 -5.7281 1.1941
0.2065 -5.7274 1.1938
0.2651 -5.7268 1.1935
0.3238 -5.7264 1.1932
0.3825 -5.7261 1.1928
0.4413 -5.7260 1.1925
0.5001 -5.7260 1.1921
0.5591 -5.7262 1.1917
0.6183 -5.7266 1.1912
0.6776 -5.7271 1.1908
0.7370 -5.7278 1.1904
0.7966 -5.7286 1.1899
0.8565 -5.7296 1.1894
0.9165 -5.7308 1.1889
1.9413 -11.3924 2.3619
2.0632 -11.4040 2.3626
2.1858 -11.4160 2.3633
2.3091 -11.4283 2.3639
2.4333 -11.4411 2.3645
2.5479 -11.4077 2.3555
2.6843 -11.4681 2.3657
2.8112 -11.4822 2.3663
2.9391 -11.4968 2.3668
3.0681 -11.5118 2.3673
3.1982 -11.5273 2.3678
3.3291 -11.5426 2.3681
3.4599 -11.5536 2.3674
3.5917 -11.5649 2.3667
3.7247 -11.5767 2.3659
3.8588 -11.5890 2.3651
3.9943 -11.6017 2.3642
4.1310 -11.6148 2.3633
4.2692 -11.6284 2.3624
4.4087 -11.6426 2.3614
4.5498 -11.6572 2.3604
4.6924 -11.6723 2.3593
4.8366 -11.6879 2.3582
4.9825 -11.7039 2.3570
5.1288 -11.7175 2.3551
5.2768 -11.7315 2.3532
5.4266 -11.7461 2.3513
5.5783 -11.7612 2.3492
5.7319 -11.7768 2.3472
5.8876 -11.7930 2.3450
6.0176 -11.7554 2.3320
6.2053 -11.8270 2.3405
6.3676 -11.8450 2.3381
6.5322 -11.8635 2.3357
6.6973 -11.8792 2.3325
6.8641 -11.8941 2.3290
7.0262 -11.8974 2.3230
7.0102 -11.6028 2.2588
7.0718 -11.4438 2.2210
7.2422 -11.4610 2.2174
7.4160 -11.4798 2.2138
7.5927 -11.4992 2.2101
7.7726 -11.5193 2.2064
7.9557 -11.5402 2.2025
8.1423 -11.5618 2.1985
8.3323 -11.5842 2.1944
8.5260 -11.6074 2.1902
8.7235 -11.6315 2.1858
8.7539 -11.4328 2.1395
8.7227 -11.1600 2.0795
8.6926 -10.8962 2.0212
8.6351 -10.3933 1.9100
8.6634 -10.6407 1.9648
8.6076 -10.1534 1.8567
8.4866 -9.0595 1.6121
8.5810 -9.9206 1.8049
8.4636 -8.8578 1.5667
8.5552 -9.6947 1.7545
8.4413 -8.6614 1.5224
8.5301 -9.4753 1.7055
8.4196 -8.4700 1.4791
8.5101 -9.2669 1.6586
8.3984 -8.2835 1.4368
8.3576 -7.9242 1.3551
8.3777 -8.1016 1.3955
8.3379 -7.7509 1.3156
8.2460 -6.9421 1.1296
8.3187 -7.5817 1.2769
8.2288 -6.7908 1.0945
8.2999 -7.4164 1.2389
8.2120 -6.6425 1.0601
8.2815 -7.2548 1.2018
8.1955 -6.4973 1.0262
8.2636 -7.0968 1.1653
8.1793 -6.3550 0.9930
8.1535 -6.0828 0.9288
8.1693 -6.2199 0.9610
8.1380 -5.9483 0.8972
8.0647 -5.3111 0.7460
8.1228 -5.8162 0.8660
8.1079 -5.6866 0.8353
8.0508 -5.1902 0.7171
8.0932 -5.5592 0.8051
8.0371 -5.0712 0.6885
8.0788 -5.4341 0.7753
8.0236 -4.9542 0.6604
7.9845 -4.6139 0.5780
8.0104 -4.8390 0.6326
7.9718 -4.5039 0.5512
7.9973 -4.7256 0.6051
7.9593 -4.3955 0.5247
7.9112 -3.9767 0.4218
7.9471 -4.2886 0.4986
7.8995 -3.8754 0.3967
7.9349 -4.1832 0.4727
7.8880 -3.7755 0.3718
7.9230 -4.0792 0.4471
7.8767 -3.6768 0.3472
7.8434 -3.3878 0.2748
7.8655 -3.5793 0.3229
7.8391 -3.2965 0.2513
7.8544 -3.4830 0.2987
7.8213 -3.2004 0.2275
7.7517 -2.8279 0.1346
7.7296 -2.7357 0.1118
7.8037 -3.1056 0.2039
7.7079 -2.6447 0.0893
7.7863 -3.0120 0.1806
7.6863 -2.5548 0.0669
7.7691 -2.9195 0.1575
7.6651 -2.4660 0.0448
7.6233 -2.2916 0.0011
7.6441 -2.3783 0.0229
7.6089 -2.2076 -0.0205
7.5591 -1.8041 -0.1269
7.5988 -2.1256 -0.0420
7.5493 -1.7252 -0.1478
7.5887 -2.0442 -0.0633
7.5397 -1.6469 -0.1687
7.5788 -1.9636 -0.0846
7.5399 -1.5711 -0.1898
7.5689 -1.8835 -0.1058
7.5535 -1.4984 -0.2112
7.5806 -1.3529 -0.2543
7.5670 -1.4256 -0.2327
7.5941 -1.2801 -0.2759
7.6620 -0.9157 -0.3851
7.6077 -1.2073 -0.2976
7.6916 -0.8443 -0.4081
7.6213 -1.1345 -0.3193
7.7347 -0.7739 -0.4320
7.6348 -1.0616 -0.3412
7.7783 -0.7028 -0.4562
7.6484 -0.9887 -0.3631
7.8223 -0.6311 -0.4807
7.9116 -0.4854 -0.5306
7.8667 -0.5586 -0.5055
7.9569 -0.4114 -0.5561
8.2640 -0.0294 -0.6948
8.0028 -0.3366 -0.5819
8.3392 0.0507 -0.7250
8.0491 -0.2610 -0.6080
8.4159 0.1322 -0.7559
8.1175 -0.1851 -0.6362
8.4941 0.2153 -0.7874
8.1901 -0.1079 -0.6652
8.5737 0.3000 -0.8196
8.6785 0.3874 -0.8548
8.7906 0.4774 -0.8915
8.9057 0.5698 -0.9293
-0.8016 -4.9616 1.2757
-0.7488 -4.9599 1.2756
-0.6962 -4.9582 1.2754
-0.6437 -4.9565 1.2752
-0.5914 -4.9549 1.2750
-0.5393 -4.9534 1.2748
-0.4874 -4.9519 1.2747
-0.4355 -4.9505 1.2745
-0.3838 -4.9492 1.2743
-0.3322 -4.9478 1.2740
-0.2807 -4.9466 1.2738
-0.2293 -4.9454 1.2736
-0.1779 -4.9443 1.2734
-0.1266 -4.9432 1.2732
-0.0754 -4.9421 1.2729
-0.0242 -4.9412 1.2727
0.0270 -4.9402 1.2725
0.0781 -4.9393 1.2722
0.1293 -4.9385 1.2720
0.1805 -4.9377 1.2717
0.2317 -4.9370 1.2715
0.2829 -4.9363 1.2712
0.3342 -4.9357 1.2709
0.3855 -4.9352 1.2706
0.4369 -4.9346 1.2704
0.4884 -4.9342 1.2701
0.5400 -4.9338 1.2698
0.5917 -4.9334 1.2695
0.6435 -4.9331 1.2692
0.6954 -4.9328 1.2689
0.7475 -4.9326 1.2685
0.7997 -4.9325 1.2682
0.8521 -4.9324 1.2679
0.9047 -4.9323 1.2676
1.8874 -9.7225 2.4979
1.9931 -9.7288 2.4988
2.0994 -9.7353 2.4997
2.2063 -9.7419 2.5006
2.3044 -9.7089 2.4913
2.4220 -9.7556 2.5024
2.5309 -9.7626 2.5033
2.6406 -9.7699 2.5042
2.7510 -9.7773 2.5051
2.8622 -9.7848 2.5060
2.9742 -9.7926 2.5069
3.0871 -9.8005 2.5077
3.2009 -9.8085 2.5086
3.3157 -9.8168 2.5095
3.4314 -9.8252 2.5104
3.5481 -9.8339 2.5112
3.6660 -9.8427 2.5121
3.7849 -9.8517 2.5130
3.9049 -9.8610 2.5138
4.0262 -9.8704 2.5147
4.1487 -9.8800 2.5156
4.2725 -9.8899 2.5164
4.3976 -9.9000 2.5173
4.5241 -9.9103 2.5182
4.6520 -9.9209 2.5190
4.7814 -9.9317 2.5199
4.9124 -9.9427 2.5208
5.0450 -9.9540 2.5216
5.1792 -9.9656 2.5225
5.3152 -9.9775 2.5234
5.4520 -9.9878 2.5238
5.5889 -9.9953 2.5234
5.7275 -10.0031 2.5230
5.8420 -9.9668 2.5115
6.0103 -10.0193 2.5222
6.1547 -10.0277 2.5218
6.3010 -10.0364 2.5214
6.4475 -10.0422 2.5201
6.5943 -10.0456 2.5182
6.7432 -10.0493 2.5162
6.8082 -9.9276 2.4829
6.7974 -9.7002 2.4231
6.8931 -9.6284 2.4021
7.0446 -9.6332 2.4003
7.1989 -9.6387 2.3985
7.3558 -9.6444 2.3966
7.5152 -9.6504 2.3948
7.6774 -9.6565 2.3929
7.8423 -9.6629 2.3909
8.0101 -9.6696 2.3889
8.1811 -9.6765 2.3868
8.3551 -9.6836 2.3847
8.5325 -9.6911 2.3825
8.5334 -9.4985 2.3312
8.5086 -9.2824 2.2741
8.4875 -9.0754 2.2193
8.4643 -8.8712 2.1653
8.4417 -8.6725 2.1127
8.4198 -8.4790 2.0614
8.3983 -8.2905 2.0113
8.3775 -8.1067 1.9625
8.3571 -7.9274 1.9149
8.3373 -7.7524 1.8683
8.3179 -7.5816 1.8229
8.2989 -7.4148 1.7784
8.2804 -7.2518 1.7349
8.2623 -7.0924 1.6923
8.2446 -6.9364 1.6507
8.2273 -6.7838 1.6098
8.2103 -6.6345 1.5698
8.1937 -6.4882 1.5306
8.1774 -6.3448 1.4922
8.1671 -6.2086 1.4554
8.1512 -6.0706 1.4183
8.1356 -5.9352 1.3819
8.1204 -5.8023 1.3461
8.1054 -5.6719 1.3109
8.0906 -5.5438 1.2764
8.0762 -5.4179 1.2424
8.0619 -5.2943 1.2089
8.0480 -5.1727 1.1760
8.0342 -5.0532 1.1436
8.0207 -4.9356 1.1117
8.0074 -4.8199 1.0802
7.9943 -4.7059 1.0493
7.9814 -4.5938 1.0187
7.9687 -4.4833 0.9886
7.9562 -4.3744 0.9589
7.9438 -4.2671 0.9296
7.9316 -4.1613 0.9006
7.9196 -4.0570 0.8721
7.9078 -3.9541 0.8439
7.8961 -3.8525 0.8160
7.8846 -3.7522 0.7884
7.8732 -3.6533 0.7612
7.8620 -3.5555 0.7343
7.8509 -3.4589 0.7077
7.8399 -3.3635 0.6813
7.8345 -3.2714 0.6557
7.8166 -3.1752 0.6293
7.7990 -3.0802 0.6032
7.7816 -2.9864 0.5774
7.7644 -2.8938 0.5519
7.7454 -2.8015 0.5265
7.7233 -2.7092 0.5012
7.7015 -2.6181 0.4762
7.6800 -2.5281 0.4515
7.6587 -2.4393 0.4271
7.6377 -2.3515 0.4029
7.6169 -2.2647 0.3789
7.6057 -2.1816 0.3557
7.5955 -2.0995 0.3327
7.5855 -2.0181 0.3098
7.5755 -1.9373 0.2871
7.5656 -1.8572 0.2645
7.5558 -1.7776 0.2421
7.5461 -1.6987 0.2198
7.5364 -1.6203 0.1977
7.5446 -1.5461 0.1760
7.5582 -1.4732 0.1546
7.5718 -1.4002 0.1330
7.5854 -1.3273 0.1115
7.5989 -1.2543 0.0900
7.6125 -1.1814 0.0684
7.6261 -1.1084 0.0467
7.6397 -1.0354 0.0251
7.6534 -0.9623 0.0033
7.6670 -0.8891 -0.0184
7.7073 -0.8187 -0.0404
7.7507 -0.7479 -0.0626
7.7944 -0.6765 -0.0850
7.8386 -0.6044 -0.1077
7.8833 -0.5316 -0.1307
7.9284 -0.4580 -0.1538
7.9739 -0.3837 -0.1773
8.0200 -0.3086 -0.2011
8.0726 -0.2328 -0.2253
8.1445 -0.1564 -0.2504
8.2176 -0.0787 -0.2760
8.2920 0.0004 -0.3020
8.3677 0.0809 -0.3286
8.4449 0.1630 -0.3557
8.5236 0.2467 -0.3834
8.6098 0.3322 -0.4119
8.7199 0.4206 -0.4422
8.8329 0.5114 -0.4733
8.9491 0.6047 -0.5054
9.0685 0.7006 -0.5383
-0.7108 -4.3390 1.3364
-0.6641 -4.3385 1.3362
-0.6175 -4.3380 1.3359
-0.5711 -4.3374 1.3357
-0.5248 -4.3368 1.3354
-0.4787 -4.3362 1.3352
-0.4326 -4.3356 1.3349
-0.3867 -4.3350 1.3347
-0.3408 -4.3344 1.3345
-0.2950 -4.3338 1.3342
-0.2493 -4.3331 1.3340
-0.2036 -4.3325 1.3338
-0.1580 -4.3318 1.3335
-0.1125 -4.3311 1.3333
-0.0670 -4.3304 1.3331
-0.0215 -4.3297 1.3329
0.0240 -4.3290 1.3326
0.0694 -4.3282 1.3324
0.1149 -4.3275 1.3322
0.1603 -4.3267 1.3320
0.2058 -4.3259 1.3318
0.2513 -4.3251 1.3315
0.2968 -4.3243 1.3313
0.3424 -4.3235 1.3311
0.3880 -4.3227 1.3309
0.4337 -4.3218 1.3307
0.4795 -4.3210 1.3305
0.5253 -4.3201 1.3303
0.5712 -4.3192 1.3301
0.6172 -4.3183 1.3299
0.6634 -4.3173 1.3296
0.7096 -4.3164 1.3294
0.7560 -4.3154 1.3292
0.8025 -4.3144 1.3290
0.8491 -4.3134 1.3288
0.8959 -4.3124 1.3286
1.8467 -8.4448 2.6020
1.9401 -8.4474 2.6030
2.0340 -8.4500 2.6041
2.1196 -8.4181 2.5945
2.2141 -8.4207 2.5956
2.3185 -8.4578 2.6073
2.4145 -8.4603 2.6084
2.5110 -8.4629 2.6095
2.6081 -8.4654 2.6106
2.7058 -8.4679 2.6117
2.8042 -8.4704 2.6128
2.9033 -8.4729 2.6140
3.0031 -8.4754 2.6151
3.1036 -8.4779 2.6163
3.2049 -8.4803 2.6174
3.3069 -8.4828 2.6186
3.4098 -8.4852 2.6198
3.5135 -8.4876 2.6210
3.6181 -8.4900 2.6222
3.7236 -8.4925 2.6235
3.8301 -8.4949 2.6247
3.9375 -8.4972 2.6260
4.0460 -8.4996 2.6272
4.1555 -8.5020 2.6285
4.2660 -8.5044 2.6298
4.3777 -8.5067 2.6311
4.4906 -8.5091 2.6325
4.6046 -8.5114 2.6338
4.7199 -8.5138 2.6352
4.8365 -8.5161 2.6366
4.9544 -8.5184 2.6380
5.0737 -8.5207 2.6394
5.1944 -8.5231 2.6408
5.3166 -8.5254 2.6423
5.4403 -8.5277 2.6438
5.5656 -8.5300 2.6453
5.6693 -8.4975 2.6360
5.8230 -8.5373 2.6492
5.9558 -8.5431 2.6519
6.0907 -8.5490 2.6546
6.2257 -8.5525 2.6566
6.3560 -8.5469 2.6558
6.4880 -8.5412 2.6550
6.6217 -8.5354 2.6542
6.6337 -8.3736 2.6048
6.6262 -8.1915 2.5492
6.7232 -8.1409 2.5345
6.8586 -8.1354 2.5338
6.9965 -8.1301 2.5333
7.1364 -8.1248 2.5328
7.2785 -8.1193 2.5322
7.4229 -8.1137 2.5317
7.5696 -8.1080 2.5311
7.7187 -8.1022 2.5305
7.8703 -8.0962 2.5300
8.0245 -8.0901 2.5294
8.1815 -8.0839 2.5288
8.3412 -8.0775 2.5282
8.3567 -7.9313 2.4839
8.3367 -7.7546 2.4300
8.3171 -7.5821 2.3774
8.2980 -7.4137 2.3261
8.2793 -7.2492 2.2759
8.2611 -7.0884 2.2269
8.2432 -6.9312 2.1790
8.2258 -6.7773 2.1322
8.2087 -6.6268 2.0864
8.1920 -6.4794 2.0415
8.1756 -6.3350 1.9976
8.1649 -6.1976 1.9558
8.1490 -6.0587 1.9136
8.1333 -5.9224 1.8721
8.1179 -5.7887 1.8315
8.1028 -5.6574 1.7916
8.0880 -5.5286 1.7525
8.0735 -5.4020 1.7141
8.0592 -5.2777 1.6763
8.0451 -5.1555 1.6393
8.0313 -5.0354 1.6028
8.0178 -4.9172 1.5670
8.0044 -4.8009 1.5317
7.9912 -4.6865 1.4971
7.9783 -4.5738 1.4629
7.9655 -4.4629 1.4293
7.9530 -4.3536 1.3962
7.9406 -4.2458 1.3636
7.9284 -4.1397 1.3315
7.9164 -4.0350 1.2999
7.9045 -3.9317 1.2686
7.8928 -3.8298 1.2378
7.8812 -3.7292 1.2075
7.8698 -3.6299 1.1775
7.8585 -3.5319 1.1479
7.8474 -3.4351 1.1187
7.8364 -3.3394 1.0898
7.8299 -3.2466 1.0619
7.8120 -3.1502 1.0327
7.7943 -3.0550 1.0040
7.7768 -2.9611 0.9756
7.7596 -2.8683 0.9476
7.7391 -2.7753 0.9195
7.7170 -2.6829 0.8916
7.6952 -2.5917 0.8640
7.6736 -2.5017 0.8368
7.6524 -2.4128 0.8100
7.6313 -2.3249 0.7834
7.6127 -2.2387 0.7575
7.6025 -2.1558 0.7326
7.5923 -2.0736 0.7079
7.5823 -1.9921 0.6834
7.5723 -1.9113 0.6592
7.5624 -1.8311 0.6351
7.5526 -1.7515 0.6113
7.5428 -1.6725 0.5876
7.5355 -1.5946 0.5643
7.5492 -1.5214 0.5427
7.5628 -1.4482 0.5211
7.5765 -1.3750 0.4995
7.5901 -1.3019 0.4779
7.6037 -1.2288 0.4563
7.6173 -1.1557 0.4347
7.6310 -1.0825 0.4131
7.6446 -1.0093 0.3916
7.6582 -0.9361 0.3700
7.6797 -0.8636 0.3488
7.7229 -0.7932 0.3284
7.7665 -0.7221 0.3078
7.8105 -0.6503 0.2871
7.8549 -0.5779 0.2662
7.8997 -0.5047 0.2450
7.9450 -0.4308 0.2237
7.9908 -0.3562 0.2022
8.0370 -0.2807 0.1804
8.0990 -0.2048 0.1588
8.1713 -0.1279 0.1369
8.2448 -0.0497 0.1147
8.3198 0.0299 0.0921
8.3960 0.1110 0.0691
8.4737 0.1937 0.0457
8.5529 0.2779 0.0218
8.6499 0.3644 -0.0025
8.7610 0.4536 -0.0275
8.8751 0.5452 -0.0531
8.9923 0.6394 -0.0793
9.1129 0.7362 -0.1064
9.2555 0.8375 -0.1344
-0.6384 -3.8427 1.3848
-0.5966 -3.8429 1.3845
-0.5548 -3.8431 1.3842
-0.5132 -3.8433 1.3839
-0.4717 -3.8434 1.3836
-0.4302 -3.8434 1.3834
-0.3889 -3.8434 1.3831
-0.3476 -3.8433 1.3829
-0.3064 -3.8431 1.3826
-0.2653 -3.8429 1.3824
-0.2242 -3.8427 1.3821
-0.1831 -3.8424 1.3819
-0.1421 -3.8420 1.3816
-0.1012 -3.8416 1.3814
-0.0602 -3.8411 1.3812
-0.0193 -3.8406 1.3810
0.0216 -3.8400 1.3808
0.0624 -3.8394 1.3806
0.1033 -3.8387 1.3804
0.1442 -3.8380 1.3802
0.1851 -3.8372 1.3800
0.2260 -3.8363 1.3798
0.2670 -3.8354 1.3796
0.3079 -3.8344 1.3795
0.3489 -3.8334 1.3793
0.3900 -3.8323 1.3792
0.4311 -3.8312 1.3790
0.4723 -3.8300 1.3788
0.5135 -3.8287 1.3787
0.5548 -3.8274 1.3786
0.5962 -3.8260 1.3784
0.6377 -3.8246 1.3783
0.6792 -3.8231 1.3782
0.7209 -3.8216 1.3781
0.7627 -3.8200 1.3780
0.8045 -3.8183 1.3778
0.8466 -3.8166 1.3777
0.8887 -3.8148 1.3776
1.8143 -7.4307 2.6846
1.8979 -7.4305 2.6857
1.9819 -7.4303 2.6869
2.0578 -7.3996 2.6771
2.1510 -7.4295 2.6892
2.2363 -7.4289 2.6904
2.3219 -7.4282 2.6917
2.4081 -7.4274 2.6929
2.4947 -7.4264 2.6941
2.5818 -7.4253 2.6954
2.6695 -7.4241 2.6967
2.7577 -7.4228 2.6980
2.8464 -7.4214 2.6993
2.9358 -7.4198 2.7006
3.0257 -7.4181 2.7020
3.1163 -7.4162 2.7034
3.2075 -7.4142 2.7048
3.2993 -7.4121 2.7062
3.3919 -7.4099 2.7076
3.4852 -7.4075 2.7091
3.5792 -7.4050 2.7106
3.6739 -7.4023 2.7121
3.7695 -7.3994 2.7136
3.8659 -7.3965 2.7151
3.9631 -7.3934 2.7167
4.0611 -7.3901 2.7183
4.1601 -7.3866 2.7199
4.2600 -7.3830 2.7216
4.3608 -7.3793 2.7232
4.4626 -7.3754 2.7249
4.5654 -7.3713 2.7266
4.6693 -7.3670 2.7284
4.7742 -7.3625 2.7302
4.8803 -7.3579 2.7320
4.9892 -7.3556 2.7347
5.0995 -7.3532 2.7376
5.2110 -7.3507 2.7405
5.3240 -7.3481 2.7435
5.4384 -7.3453 2.7465
5.5301 -7.3102 2.7376
5.6711 -7.3384 2.7524
5.7873 -7.3316 2.7543
5.9050 -7.3246 2.7562
6.0242 -7.3174 2.7582
6.1417 -7.3059 2.7587
6.2593 -7.2928 2.7586
6.3784 -7.2793 2.7586
6.4950 -7.2612 2.7569
6.4895 -7.1075 2.7038
6.4841 -6.9576 2.6521
6.5591 -6.8956 2.6339
6.6804 -6.8814 2.6340
6.8040 -6.8673 2.6343
6.9292 -6.8529 2.6347
7.0563 -6.8381 2.6350
7.1852 -6.8230 2.6354
7.3161 -6.8075 2.6358
7.4489 -6.7916 2.6362
7.5838 -6.7753 2.6366
7.7208 -6.7585 2.6371
7.8601 -6.7414 2.6375
8.0016 -6.7238 2.6380
8.1455 -6.7058 2.6385
8.2070 -6.6188 2.6121
8.1902 -6.4703 2.5613
8.1737 -6.3248 2.5116
8.1627 -6.1863 2.4645
8.1467 -6.0464 2.4169
8.1309 -5.9092 2.3702
8.1154 -5.7746 2.3245
8.1003 -5.6426 2.2796
8.0854 -5.5130 2.2357
8.0708 -5.3858 2.1927
8.0564 -5.2608 2.1504
8.0423 -5.1379 2.1090
8.0284 -5.0171 2.0683
8.0148 -4.8984 2.0283
8.0014 -4.7816 1.9891
7.9881 -4.6666 1.9506
7.9752 -4.5535 1.9127
7.9624 -4.4421 1.8754
7.9498 -4.3323 1.8388
7.9373 -4.2242 1.8027
7.9251 -4.1176 1.7673
7.9130 -4.0126 1.7323
7.9011 -3.9089 1.6980
7.8894 -3.8067 1.6641
7.8778 -3.7058 1.6307
7.8663 -3.6063 1.5979
7.8550 -3.5080 1.5655
7.8439 -3.4109 1.5335
7.8374 -3.3168 1.5029
7.8252 -3.2215 1.4715
7.8073 -3.1249 1.4395
7.7896 -3.0295 1.4080
7.7721 -2.9354 1.3769
7.7548 -2.8424 1.3463
7.7328 -2.7489 1.3152
7.7106 -2.6564 1.2845
7.6888 -2.5651 1.2543
7.6672 -2.4750 1.2245
7.6459 -2.3860 1.1952
7.6249 -2.2981 1.1662
7.6095 -2.2128 1.1385
7.5993 -2.1298 1.1118
7.5891 -2.0475 1.0854
7.5790 -1.9659 1.0593
7.5691 -1.8850 1.0334
7.5592 -1.8047 1.0078
7.5493 -1.7251 0.9824
7.5396 -1.6460 0.9573
7.5402 -1.5697 0.9336
7.5539 -1.4963 0.9117
7.5675 -1.4230 0.8899
7.5812 -1.3496 0.8681
7.5948 -1.2763 0.8464
7.6085 -1.2031 0.8247
7.6222 -1.1298 0.8031
7.6358 -1.0564 0.7815
7.6495 -0.9831 0.7600
7.6632 -0.9097 0.7385
7.6953 -0.8382 0.7187
7.7387 -0.7674 0.6999
7.7825 -0.6960 0.6809
7.8267 -0.6239 0.6618
7.8713 -0.5511 0.6426
7.9163 -0.4776 0.6233
7.9618 -0.4034 0.6037
8.0078 -0.3284 0.5841
8.0543 -0.2526 0.5643
8.1256 -0.1765 0.5459
8.1984 -0.0991 0.5273
8.2724 -0.0204 0.5085
8.3479 0.0598 0.4893
8.4246 0.1415 0.4699
8.5029 0.2246 0.4501
8.5826 0.3094 0.4300
8.6906 0.3971 0.4108
8.8027 0.4871 0.3912
8.9178 0.5795 0.3712
9.0361 0.6746 0.3506
9.1578 0.7723 0.3296
9.3204 0.8764 0.3092
9.5033 0.9859 0.2885
-0.5791 -3.4361 1.4244
-0.5412 -3.4369 1.4241
-0.5034 -3.4375 1.4238
-0.4657 -3.4382 1.4235
-0.4281 -3.4387 1.4232
-0.3905 -3.4391 1.4229
-0.3530 -3.4395 1.4226
-0.3156 -3.4397 1.4224
-0.2782 -3.4399 1.4221
-0.2408 -3.4400 1.4218
-0.2036 -3.4400 1.4216
-0.1663 -3.4400 1.4214
-0.1291 -3.4398 1.4211
-0.0919 -3.4396 1.4209
-0.0547 -3.4393 1.4207
-0.0176 -3.4389 1.4205
0.0196 -3.4384 1.4203
0.0567 -3.4379 1.4201
0.0938 -3.4373 1.4200
0.1310 -3.4365 1.4198
0.1681 -3.4357 1.4196
0.2053 -3.4348 1.4195
0.2424 -3.4339 1.4193
0.2796 -3.4328 1.4192
0.3169 -3.4317 1.4191
0.3541 -3.4305 1.4189
0.3914 -3.4292 1.4188
0.4288 -3.4278 1.4187
0.4661 -3.4263 1.4186
0.5036 -3.4248 1.4185
0.5411 -3.4231 1.4184
0.5787 -3.4214 1.4184
0.6163 -3.4196 1.4183
0.6541 -3.4177 1.4182
0.6919 -3.4157 1.4182
0.7297 -3.4136 1.4182
0.7677 -3.4114 1.4181
0.8058 -3.4092 1.4181
0.8440 -3.4068 1.4181
0.8823 -3.4044 1.4181
1.7869 -6.6020 2.7521
1.8625 -6.5998 2.7533
1.9305 -6.5704 2.7433
2.0064 -6.5679 2.7445
2.0913 -6.5920 2.7570
2.1682 -6.5890 2.7583
2.2455 -6.5858 2.7596
2.3232 -6.5825 2.7609
2.4013 -6.5790 2.7623
2.4798 -6.5752 2.7636
2.5587 -6.5713 2.7650
2.6381 -6.5672 2.7664
2.7179 -6.5628 2.7679
2.7982 -6.5583 2.7693
2.8790 -6.5536 2.7708
2.9602 -6.5486 2.7723
3.0420 -6.5435 2.7738
3.1243 -6.5381 2.7754
3.2072 -6.5325 2.7770
3.2906 -6.5267 2.7786
3.3746 -6.5207 2.7802
3.4592 -6.5144 2.7819
3.5444 -6.5079 2.7836
3.6303 -6.5012 2.7853
3.7168 -6.4942 2.7870
3.8040 -6.4870 2.7888
3.8919 -6.4796 2.7906
3.9805 -6.4719 2.7924
4.0699 -6.4639 2.7943
4.1600 -6.4557 2.7961
4.2511 -6.4474 2.7982
4.3442 -6.4407 2.8010
4.4382 -6.4337 2.8039
4.5331 -6.4265 2.8068
4.6290 -6.4189 2.8098
4.7259 -6.4112 2.8128
4.8239 -6.4031 2.8159
4.9209 -6.3923 2.8180
5.0189 -6.3810 2.8200
5.1179 -6.3694 2.8221
5.2179 -6.3575 2.8242
5.3190 -6.3453 2.8263
5.3997 -6.3076 2.8173
5.5026 -6.2947 2.8195
5.6289 -6.3064 2.8329
5.7346 -6.2927 2.8353
5.8403 -6.2773 2.8370
5.9462 -6.2605 2.8383
6.0514 -6.2413 2.8388
6.1579 -6.2217 2.8393
6.2655 -6.2016 2.8398
6.3709 -6.1778 2.8388
6.3669 -6.0485 2.7894
6.3630 -5.9220 2.7412
6.3989 -5.8344 2.7109
6.5078 -5.8129 2.7115
6.6185 -5.7915 2.7124
6.7308 -5.7695 2.7133
6.8445 -5.7471 2.7142
6.9597 -5.7241 2.7152
7.0765 -5.7006 2.7162
7.1950 -5.6765 2.7172
7.3151 -5.6519 2.7183
7.4369 -5.6266 2.7194
7.5605 -5.6007 2.7205
7.6859 -5.5741 2.7216
7.8133 -5.5469 2.7228
7.9425 -5.5191 2.7241
8.0739 -5.4905 2.7253
8.0679 -5.3685 2.6803
8.0535 -5.2428 2.6333
8.0393 -5.1193 2.5873
8.0254 -4.9979 2.5421
8.0117 -4.8786 2.4979
7.9982 -4.7613 2.4544
7.9849 -4.6458 2.4118
7.9719 -4.5322 2.3699
7.9590 -4.4203 2.3288
7.9464 -4.3102 2.2885
7.9339 -4.2016 2.2488
7.9217 -4.0947 2.2098
7.9095 -3.9892 2.1715
7.8976 -3.8853 2.1338
7.8858 -3.7827 2.0967
7.8742 -3.6816 2.0602
7.8627 -3.5817 2.0243
7.8514 -3.4831 1.9889
7.8402 -3.3858 1.9541
7.8386 -3.2936 1.9221
7.8204 -3.1955 1.8865
7.8024 -3.0987 1.8515
7.7847 -3.0032 1.8171
7.7672 -2.9089 1.7831
7.7487 -2.8154 1.7495
7.7262 -2.7216 1.7154
7.7041 -2.6290 1.6819
7.6822 -2.5377 1.6489
7.6607 -2.4475 1.6164
7.6394 -2.3585 1.5844
7.6183 -2.2705 1.5529
7.6062 -2.1862 1.5236
7.5960 -2.1031 1.4950
7.5858 -2.0207 1.4668
7.5757 -1.9390 1.4389
7.5657 -1.8580 1.4113
7.5558 -1.7777 1.3840
7.5460 -1.6980 1.3570
7.5362 -1.6189 1.3303
7.5449 -1.5442 1.3071
7.5587 -1.4706 1.2849
7.5724 -1.3970 1.2627
7.5861 -1.3235 1.2407
7.5997 -1.2501 1.2188
7.6134 -1.1766 1.1970
7.6271 -1.1032 1.1752
7.6408 -1.0297 1.1535
7.6545 -0.9562 1.1319
7.6682 -0.8826 1.1104
7.7113 -0.8121 1.0931
7.7549 -0.7410 1.0758
7.7989 -0.6692 1.0584
7.8433 -0.5968 1.0409
7.8881 -0.5236 1.0233
7.9334 -0.4498 1.0057
7.9791 -0.3752 0.9880
8.0253 -0.2999 0.9701
8.0809 -0.2240 0.9533
8.1530 -0.1474 0.9381
8.2263 -0.0695 0.9227
8.3008 0.0098 0.9072
8.3767 0.0905 0.8914
8.4541 0.1727 0.8755
8.5328 0.2565 0.8594
8.6222 0.3422 0.8439
8.7324 0.4307 0.8300
8.8456 0.5215 0.8159
8.9618 0.6149 0.8014
9.0812 0.7108 0.7867
9.2093 0.8099 0.7720
9.3874 0.9165 0.7608
9.5729 1.0275 0.7492
9.7662 1.1432 0.7372
-0.5791 -3.3861 1.5944
-0.5410 -3.3856 1.5932
-0.5031 -3.3850 1.5921
-0.4652 -3.3845 1.5910
-0.4275 -3.3840 1.5900
-0.3898 -3.3835 1.5891
-0.3523 -3.3830 1.5882
-0.3149 -3.3825 1.5875
-0.2775 -3.3820 1.5867
-0.2402 -3.3815 1.5861
-0.2030 -3.3810 1.5855
-0.1658 -3.3805 1.5849
-0.1287 -3.3801 1.5845
-0.0916 -3.3796 1.5841
-0.0545 -3.3792 1.5837
-0.0175 -3.3787 1.5835
0.0195 -3.3783 1.5833
0.0565 -3.3779 1.5831
0.0936 -3.3774 1.5831
0.1306 -3.3770 1.5831
0.1676 -3.3766 1.5831
0.2047 -3.3762 1.5832
0.2418 -3.3758 1.5834
0.2790 -3.3754 1.5837
0.3162 -3.3750 1.5840
0.3535 -3.3746 1.5844
0.3908 -3.3743 1.5848
0.4282 -3.3739 1.5853
0.4657 -3.3735 1.5859
0.5033 -3.3732 1.5866
0.5410 -3.3728 1.5873
0.5789 -3.3725 1.5881
0.6168 -3.3721 1.5889
0.6549 -3.3718 1.5898
0.6931 -3.3714 1.5908
0.7314 -3.3711 1.5919
0.7699 -3.3708 1.5930
0.8086 -3.3705 1.5942
0.8475 -3.3702 1.5955
0.8865 -3.3698 1.5968
1.6254 -5.9161 2.8061
1.6938 -5.9126 2.8073
1.7625 -5.9089 2.8085
1.8239 -5.8808 2.7983
1.8928 -5.8767 2.7996
1.9700 -5.8964 2.8123
2.0398 -5.8918 2.8137
2.1098 -5.8870 2.8150
2.1801 -5.8819 2.8164
2.2508 -5.8766 2.8178
2.3217 -5.8711 2.8192
2.3930 -5.8653 2.8206
2.4647 -5.8593 2.8221
2.5367 -5.8531 2.8236
2.6091 -5.8466 2.8251
2.6818 -5.8398 2.8266
2.7550 -5.8328 2.8282
2.8285 -5.8256 2.8298
2.9025 -5.8181 2.8314
2.9769 -5.8103 2.8330
3.0517 -5.8022 2.8347
3.1270 -5.7939 2.8364
3.2028 -5.7853 2.8381
3.2790 -5.7764 2.8399
3.3557 -5.7673 2.8417
3.4330 -5.7578 2.8435
3.5107 -5.7481 2.8453
3.5890 -5.7381 2.8472
3.6679 -5.7278 2.8491
3.7476 -5.7176 2.8513
3.8287 -5.7082 2.8541
3.9105 -5.6986 2.8569
3.9929 -5.6887 2.8598
4.0760 -5.6784 2.8627
4.1599 -5.6678 2.8657
4.2434 -5.6555 2.8680
4.3271 -5.6422 2.8700
4.4115 -5.6285 2.8720
4.4967 -5.6145 2.8741
4.5826 -5.6001 2.8763
4.6692 -5.5853 2.8784
4.7566 -5.5702 2.8806
4.8448 -5.5546 2.8829
4.9335 -5.5384 2.8850
5.0219 -5.5203 2.8865
5.1110 -5.5018 2.8879
5.2009 -5.4829 2.8894
5.2917 -5.4636 2.8910
5.3642 -5.4244 2.8823
5.4758 -5.4235 2.8942
5.5692 -5.4028 2.8958
5.6635 -5.3815 2.8975
5.7588 -5.3598 2.8992
5.8547 -5.3371 2.9008
5.9501 -5.3128 2.9016
6.0465 -5.2878 2.9026
6.1439 -5.2624 2.9035
6.2424 -5.2363 2.9045
6.2599 -5.1425 2.8680
6.2572 -5.0336 2.8231
6.2596 -4.9307 2.7813
6.3391 -4.8891 2.7742
6.4381 -4.8613 2.7752
6.5386 -4.8332 2.7764
6.6403 -4.8044 2.7777
6.7432 -4.7750 2.7790
6.8474 -4.7449 2.7803
6.9529 -4.7142 2.7817
7.0597 -4.6827 2.7831
7.1678 -4.6505 2.7845
7.2774 -4.6176 2.7860
7.3884 -4.5839 2.7875
7.5009 -4.5494 2.7890
7.6149 -4.5141 2.7906
7.7305 -4.4780 2.7923
7.8478 -4.4410 2.7939
7.9555 -4.3970 2.7917
7.9428 -4.2864 2.7474
7.9303 -4.1775 2.7039
7.9180 -4.0702 2.6612
7.9059 -3.9644 2.6193
7.8939 -3.8601 2.5781
7.8821 -3.7572 2.5376
7.8705 -3.6558 2.4978
7.8590 -3.5557 2.4587
7.8476 -3.4568 2.4202
7.8364 -3.3592 2.3823
7.8335 -3.2663 2.3476
7.8153 -3.1680 2.3087
7.7973 -3.0710 2.2705
7.7795 -2.9754 2.2330
7.7620 -2.8810 2.1961
7.7418 -2.7868 2.1590
7.7194 -2.6929 2.1218
7.6972 -2.6003 2.0853
7.6753 -2.5089 2.0494
7.6538 -2.4187 2.0141
7.6325 -2.3296 1.9793
7.6131 -2.2422 1.9456
7.6028 -2.1582 1.9146
7.5925 -2.0750 1.8840
7.5823 -1.9926 1.8538
7.5723 -1.9109 1.8240
7.5623 -1.8298 1.7946
7.5523 -1.7494 1.7655
7.5425 -1.6697 1.7368
7.5362 -1.5913 1.7092
7.5499 -1.5174 1.6865
7.5637 -1.4437 1.6638
7.5774 -1.3699 1.6413
7.5911 -1.2963 1.6190
7.6049 -1.2226 1.5967
7.6186 -1.1490 1.5747
7.6323 -1.0754 1.5527
7.6460 -1.0018 1.5309
7.6597 -0.9281 1.5091
7.6846 -0.8557 1.4897
7.7280 -0.7848 1.4738
7.7719 -0.7133 1.4579
7.8161 -0.6412 1.4420
7.8607 -0.5684 1.4261
7.9057 -0.4950 1.4102
7.9512 -0.4208 1.3942
7.9971 -0.3459 1.3782
8.0435 -0.2702 1.3622
8.1090 -0.1941 1.3492
8.1816 -0.1170 1.3371
8.2554 -0.0385 1.3250
8.3305 0.0413 1.3128
8.4069 0.1226 1.3005
8.4848 0.2054 1.2881
8.5641 0.2897 1.2756
8.6650 0.3765 1.2660
8.7762 0.4659 1.2574
8.8905 0.5576 1.2487
9.0078 0.6518 1.2399
9.1284 0.7487 1.2310
9.2773 0.8506 1.2253
9.4579 0.9587 1.2229
9.6460 1.0713 1.2207
9.8955 1.1951 1.2250
10.4253 1.3606 1.2621
-0.5916 -3.4070 1.8048
-0.5526 -3.4064 1.8032
-0.5138 -3.4058 1.8017
-0.4752 -3.4052 1.8003
-0.4366 -3.4047 1.7989
-0.3982 -3.4041 1.7977
-0.3598 -3.4036 1.7966
-0.3216 -3.4030 1.7955
-0.2834 -3.4025 1.7946
-0.2453 -3.4020 1.7937
-0.2073 -3.4015 1.7929
-0.1693 -3.4010 1.7923
-0.1314 -3.4005 1.7917
-0.0935 -3.4000 1.7912
-0.0557 -3.3996 1.7908
-0.0179 -3.3991 1.7904
0.0199 -3.3987 1.7902
0.0577 -3.3982 1.7901
0.0955 -3.3978 1.7900
0.1333 -3.3974 1.7900
0.1712 -3.3969 1.7901
0.2090 -3.3965 1.7904
0.2470 -3.3961 1.7907
0.2849 -3.3958 1.7910
0.3229 -3.3954 1.7915
0.3610 -3.3950 1.7921
0.3991 -3.3946 1.7928
0.4374 -3.3943 1.7935
0.4757 -3.3939 1.7943
0.5141 -3.3936 1.7953
0.5526 -3.3933 1.7963
0.5913 -3.3929 1.7974
0.6300 -3.3926 1.7986
0.6689 -3.3923 1.7999
0.7080 -3.3920 1.8013
0.7472 -3.3917 1.8028
0.7866 -3.3914 1.8044
0.8261 -3.3911 1.8061
0.8659 -3.3909 1.8079
1.4267 -5.3404 2.8505
1.4889 -5.3363 2.8517
1.5513 -5.3320 2.8529
1.6139 -5.3274 2.8541
1.6767 -5.3226 2.8554
1.7397 -5.3176 2.8566
1.7955 -5.2906 2.8463
1.8587 -5.2851 2.8476
1.9300 -5.3009 2.8606
1.9939 -5.2949 2.8619
2.0580 -5.2886 2.8633
2.1223 -5.2820 2.8647
2.1870 -5.2752 2.8662
2.2519 -5.2681 2.8676
2.3171 -5.2607 2.8691
2.3825 -5.2531 2.8706
2.4483 -5.2452 2.8721
2.5144 -5.2370 2.8737
2.5807 -5.2286 2.8753
2.6474 -5.2199 2.8769
2.7144 -5.2108 2.8786
2.7818 -5.2015 2.8802
2.8495 -5.1919 2.8819
2.9175 -5.1820 2.8837
2.9859 -5.1718 2.8854
3.0547 -5.1613 2.8872
3.1239 -5.1505 2.8890
3.1935 -5.1393 2.8909
3.2635 -5.1279 2.8928
3.3343 -5.1168 2.8950
3.4060 -5.1059 2.8977
3.4782 -5.0948 2.9005
3.5509 -5.0834 2.9032
3.6241 -5.0716 2.9061
3.6972 -5.0587 2.9085
3.7703 -5.0446 2.9104
3.8438 -5.0301 2.9124
3.9178 -5.0152 2.9145
3.9923 -5.0000 2.9165
4.0674 -4.9844 2.9186
4.1430 -4.9684 2.9208
4.2192 -4.9520 2.9229
4.2950 -4.9341 2.9245
4.3711 -4.9156 2.9260
4.4477 -4.8966 2.9274
4.5249 -4.8772 2.9289
4.6027 -4.8574 2.9305
4.6811 -4.8371 2.9321
4.7601 -4.8164 2.9337
4.8397 -4.7952 2.9353
4.9199 -4.7736 2.9370
5.0008 -4.7514 2.9387
5.0823 -4.7288 2.9404
5.1645 -4.7057 2.9422
5.2288 -4.6654 2.9336
5.3122 -4.6414 2.9354
5.4129 -4.6310 2.9464
5.4967 -4.6048 2.9476
5.5813 -4.5779 2.9489
5.6666 -4.5506 2.9502
5.7525 -4.5225 2.9515
5.8388 -4.4936 2.9526
5.9259 -4.4640 2.9537
6.0137 -4.4338 2.9549
6.1023 -4.4030 2.9561
6.1642 -4.3520 2.9441
6.1621 -4.2565 2.9020
6.1600 -4.1625 2.8608
6.1680 -4.0765 2.8249
6.2510 -4.0402 2.8236
6.3407 -4.0071 2.8250
6.4317 -3.9735 2.8265
6.5237 -3.9391 2.8282
6.6167 -3.9041 2.8298
6.7107 -3.8682 2.8315
6.8058 -3.8317 2.8333
6.9020 -3.7943 2.8350
6.9993 -3.7561 2.8369
7.0977 -3.7171 2.8387
7.1973 -3.6772 2.8407
7.2981 -3.6364 2.8426
7.4001 -3.5948 2.8446
7.5034 -3.5522 2.8467
7.6081 -3.5087 2.8488
7.7140 -3.4642 2.8509
7.8214 -3.4187 2.8531
7.8324 -3.3306 2.8202
7.8281 -3.2369 2.7823
7.8098 -3.1384 2.7400
7.7918 -3.0414 2.6985
7.7740 -2.9456 2.6577
7.7564 -2.8511 2.6176
7.7345 -2.7561 2.5768
7.7120 -2.6622 2.5363
7.6899 -2.5696 2.4967
7.6680 -2.4781 2.4577
7.6464 -2.3879 2.4194
7.6251 -2.2989 2.3817
7.6095 -2.2125 2.3464
7.5991 -2.1285 2.3132
7.5888 -2.0452 2.2805
7.5787 -1.9627 2.2482
7.5686 -1.8810 2.2164
7.5586 -1.7999 2.1850
7.5486 -1.7195 2.1541
7.5388 -1.6397 2.1235
7.5414 -1.5631 2.0969
7.5552 -1.4891 2.0735
7.5690 -1.4151 2.0504
7.5828 -1.3412 2.0274
7.5965 -1.2674 2.0047
7.6103 -1.1936 1.9821
7.6240 -1.1198 1.9597
7.6378 -1.0460 1.9374
7.6515 -0.9722 1.9153
7.6653 -0.8984 1.8934
7.7021 -0.8271 1.8773
7.7458 -0.7559 1.8628
7.7898 -0.6840 1.8483
7.8342 -0.6116 1.8339
7.8791 -0.5384 1.8195
7.9243 -0.4646 1.8051
7.9700 -0.3900 1.7908
8.0162 -0.3148 1.7765
8.0670 -0.2388 1.7631
8.1388 -0.1624 1.7542
8.2119 -0.0847 1.7453
8.2862 -0.0057 1.7364
8.3619 0.0747 1.7275
8.4389 0.1566 1.7187
8.5173 0.2400 1.7098
8.6009 0.3251 1.7018
8.7104 0.4130 1.6984
8.8228 0.5032 1.6952
8.9382 0.5959 1.6921
9.0567 0.6911 1.6890
9.1785 0.7889 1.6861
9.3498 0.8940 1.6916
9.5331 1.0037 1.6985
9.7241 1.1180 1.7058
10.1015 1.2595 1.7445
14.3556 1.9295 2.4402
13.2586 1.9113 2.2180
-0.6048 -3.4292 2.0286
-0.5650 -3.4285 2.0266
-0.5253 -3.4279 2.0247
-0.4858 -3.4273 2.0228
-0.4463 -3.4267 2.0212
-0.4070 -3.4261 2.0196
-0.3678 -3.4255 2.0182
-0.3287 -3.4249 2.0168
-0.2897 -3.4244 2.0156
-0.2507 -3.4238 2.0146
-0.2119 -3.4233 2.0136
-0.1731 -3.4228 2.0127
-0.1343 -3.4222 2.0120
-0.0956 -3.4217 2.0114
-0.0569 -3.4213 2.0109
-0.0183 -3.4208 2.0105
0.0204 -3.4203 2.0102
0.0590 -3.4199 2.0101
0.0976 -3.4194 2.0100
0.1363 -3.4190 2.0101
0.1750 -3.4186 2.0103
0.2137 -3.4182 2.0106
0.2524 -3.4178 2.0111
0.2912 -3.4174 2.0116
0.3301 -3.4170 2.0123
0.3690 -3.4167 2.0130
0.4080 -3.4163 2.0139
0.4471 -3.4160 2.0149
0.4862 -3.4156 2.0161
0.5255 -3.4153 2.0173
0.5649 -3.4150 2.0187
0.6044 -3.4147 2.0202
0.6441 -3.4144 2.0218
0.6839 -3.4142 2.0235
0.7239 -3.4139 2.0254
0.7640 -3.4136 2.0274
0.8043 -3.4134 2.0295
0.8448 -3.4131 2.0317
0.8855 -3.4129 2.0341
1.3145 -4.8425 2.8898
1.3716 -4.8378 2.8910
1.4289 -4.8330 2.8921
1.4863 -4.8279 2.8933
1.5438 -4.8225 2.8945
1.6015 -4.8168 2.8958
1.6595 -4.8110 2.8970
1.7105 -4.7852 2.8865
1.7685 -4.7788 2.8878
1.8342 -4.7917 2.9010
1.8928 -4.7847 2.9023
1.9516 -4.7775 2.9037
2.0106 -4.7700 2.9051
2.0698 -4.7622 2.9066
2.1293 -4.7542 2.9080
2.1889 -4.7458 2.9095
2.2488 -4.7372 2.9110
2.3089 -4.7283 2.9126
2.3693 -4.7191 2.9142
2.4299 -4.7096 2.9158
2.4907 -4.6998 2.9174
2.5518 -4.6898 2.9190
2.6132 -4.6794 2.9207
2.6748 -4.6687 2.9224
2.7367 -4.6577 2.9242
2.7990 -4.6463 2.9259
2.8614 -4.6347 2.9277
2.9243 -4.6227 2.9296
2.9879 -4.6112 2.9319
3.0520 -4.5996 2.9345
3.1165 -4.5877 2.9371
3.1814 -4.5755 2.9397
3.2464 -4.5626 2.9422
3.3111 -4.5483 2.9441
3.3761 -4.5337 2.9460
3.4416 -4.5188 2.9479
3.5073 -4.5034 2.9499
3.5734 -4.4877 2.9519
3.6400 -4.4716 2.9539
3.7064 -4.4546 2.9556
3.7728 -4.4367 2.9570
3.8396 -4.4184 2.9584
3.9067 -4.3996 2.9599
3.9743 -4.3805 2.9614
4.0422 -4.3609 2.9629
4.1105 -4.3409 2.9644
4.1793 -4.3205 2.9659
4.2485 -4.2996 2.9675
4.3181 -4.2783 2.9692
4.3882 -4.2566 2.9708
4.4586 -4.2342 2.9724
4.5287 -4.2107 2.9735
4.5992 -4.1867 2.9747
4.6702 -4.1622 2.9759
4.7417 -4.1373 2.9771
4.8137 -4.1118 2.9784
4.8861 -4.0858 2.9796
4.9590 -4.0593 2.9809
5.0324 -4.0323 2.9823
5.1064 -4.0048 2.9836
5.1645 -3.9641 2.9756
5.2559 -3.9480 2.9864
5.3315 -3.9187 2.9879
5.4076 -3.8889 2.9894
5.4844 -3.8585 2.9909
5.5617 -3.8275 2.9924
5.6396 -3.7958 2.9940
5.7178 -3.7633 2.9954
5.7965 -3.7301 2.9968
5.8758 -3.6962 2.9982
5.9558 -3.6617 2.9997
6.0364 -3.6264 3.0012
6.0756 -3.5658 2.9820
6.0741 -3.4819 2.9434
6.0724 -3.3990 2.9054
6.0774 -3.3209 2.8712
6.1436 -3.2762 2.8662
6.2239 -3.2382 2.8675
6.3055 -3.1997 2.8692
6.3878 -3.1604 2.8708
6.4709 -3.1204 2.8726
6.5548 -3.0795 2.8743
6.6395 -3.0378 2.8761
6.7251 -2.9953 2.8779
6.8115 -2.9519 2.8797
6.8987 -2.9077 2.8816
6.9869 -2.8625 2.8836
7.0759 -2.8165 2.8856
7.1659 -2.7694 2.8876
7.2568 -2.7215 2.8896
7.3488 -2.6725 2.8917
7.4417 -2.6225 2.8939
7.5357 -2.5715 2.8961
7.6307 -2.5194 2.8984
7.6600 -2.4449 2.8756
7.6385 -2.3547 2.8342
7.6171 -2.2656 2.7935
7.6055 -2.1804 2.7569
7.5951 -2.0964 2.7214
7.5849 -2.0131 2.6864
7.5747 -1.9305 2.6519
7.5646 -1.8487 2.6179
7.5546 -1.7676 2.5845
7.5447 -1.6872 2.5515
7.5348 -1.6074 2.5190
7.5471 -1.5328 2.4943
7.5609 -1.4585 2.4703
7.5747 -1.3844 2.4466
7.5885 -1.3103 2.4231
7.6023 -1.2363 2.3998
7.6161 -1.1624 2.3768
7.6299 -1.0884 2.3539
7.6436 -1.0145 2.3313
7.6574 -0.9405 2.3089
7.6775 -0.8673 2.2886
7.7210 -0.7963 2.2753
7.7649 -0.7247 2.2621
7.8091 -0.6525 2.2490
7.8538 -0.5797 2.2360
7.8988 -0.5062 2.2231
7.9443 -0.4320 2.2103
7.9903 -0.3570 2.1976
8.0366 -0.2814 2.1850
8.0985 -0.2053 2.1765
8.1709 -0.1283 2.1706
8.2445 -0.0500 2.1649
8.3194 0.0296 2.1593
8.3957 0.1107 2.1538
8.4733 0.1932 2.1485
8.5523 0.2772 2.1432
8.6488 0.3635 2.1421
8.7594 0.4523 2.1440
8.8730 0.5435 2.1463
8.9896 0.6372 2.1489
9.1094 0.7334 2.1517
9.2494 0.8339 2.1589
9.4284 0.9410 2.1744
9.6147 1.0525 2.1908
9.8122 1.1691 2.2090
10.3306 1.3310 2.2976
13.2657 1.8381 2.9147
14.1641 2.1005 3.0742
14.3396 2.2664 3.0742
-0.6190 -3.4530 2.2684
-0.5782 -3.4522 2.2658
-0.5376 -3.4515 2.2634
-0.4971 -3.4509 2.2612
-0.4567 -3.4502 2.2591
-0.4165 -3.4496 2.2572
-0.3764 -3.4489 2.2554
-0.3363 -3.4483 2.2537
-0.2964 -3.4477 2.2523
-0.2566 -3.4472 2.2509
-0.2168 -3.4466 2.2498
-0.1771 -3.4460 2.2487
-0.1374 -3.4455 2.2478
-0.0978 -3.4450 2.2471
-0.0582 -3.4445 2.2465
-0.0187 -3.4440 2.2460
0.0208 -3.4435 2.2457
0.0604 -3.4431 2.2456
0.0999 -3.4426 2.2455
0.1394 -3.4422 2.2457
0.1790 -3.4418 2.2460
0.2186 -3.4413 2.2464
0.2583 -3.4410 2.2469
0.2980 -3.4406 2.2476
0.3377 -3.4402 2.2485
0.3775 -3.4399 2.2495
0.4174 -3.4395 2.2507
0.4574 -3.4392 2.2520
0.4975 -3.4389 2.2534
0.5378 -3.4386 2.2550
0.5781 -3.4383 2.2568
0.6186 -3.4381 2.2587
0.6592 -3.4378 2.2607
0.7000 -3.4376 2.2630
0.7409 -3.4373 2.2653
0.7820 -3.4371 2.2679
0.8233 -3.4369 2.2705
0.8648 -3.4367 2.2734
1.0016 -3.7973 2.5153
1.2165 -4.4079 2.9241
1.2692 -4.4030 2.9252
1.3220 -4.3977 2.9263
1.3749 -4.3923 2.9275
1.4280 -4.3865 2.9287
1.4812 -4.3805 2.9299
1.5345 -4.3742 2.9311
1.5879 -4.3677 2.9324
1.6415 -4.3609 2.9337
1.6883 -4.3360 2.9230
1.7420 -4.3287 2.9243
1.8031 -4.3388 2.9376
1.8573 -4.3309 2.9390
1.9117 -4.3227 2.9404
1.9661 -4.3142 2.9419
2.0208 -4.3055 2.9433
2.0757 -4.2964 2.9448
2.1307 -4.2871 2.9463
2.1859 -4.2775 2.9478
2.2413 -4.2675 2.9494
2.2969 -4.2573 2.9510
2.3527 -4.2468 2.9526
2.4087 -4.2359 2.9543
2.4649 -4.2248 2.9559
2.5214 -4.2133 2.9576
2.5780 -4.2015 2.9594
2.6349 -4.1894 2.9611
2.6925 -4.1778 2.9635
2.7505 -4.1660 2.9660
2.8087 -4.1538 2.9685
2.8671 -4.1411 2.9709
2.9251 -4.1271 2.9727
2.9833 -4.1128 2.9745
3.0418 -4.0982 2.9763
3.1005 -4.0832 2.9782
3.1596 -4.0678 2.9801
3.2187 -4.0518 2.9818
3.2776 -4.0348 2.9831
3.3367 -4.0175 2.9844
3.3961 -3.9997 2.9858
3.4557 -3.9816 2.9872
3.5157 -3.9631 2.9886
3.5759 -3.9442 2.9900
3.6364 -3.9249 2.9915
3.6972 -3.9052 2.9930
3.7583 -3.8850 2.9945
3.8194 -3.8642 2.9959
3.8804 -3.8426 2.9969
3.9417 -3.8205 2.9980
4.0033 -3.7980 2.9991
4.0653 -3.7751 3.0002
4.1275 -3.7517 3.0014
4.1900 -3.7279 3.0026
4.2529 -3.7036 3.0038
4.3161 -3.6788 3.0050
4.3796 -3.6535 3.0063
4.4434 -3.6278 3.0076
4.5077 -3.6016 3.0089
4.5723 -3.5748 3.0102
4.6372 -3.5476 3.0116
4.7025 -3.5199 3.0130
4.7682 -3.4916 3.0144
4.8343 -3.4628 3.0159
4.9008 -3.4334 3.0174
4.9677 -3.4035 3.0189
5.0343 -3.3726 3.0200
5.0865 -3.3314 3.0124
5.1543 -3.2998 3.0140
5.2365 -3.2764 3.0236
5.3047 -3.2431 3.0248
5.3733 -3.2092 3.0260
5.4424 -3.1747 3.0273
5.5119 -3.1396 3.0286
5.5819 -3.1038 3.0300
5.6523 -3.0674 3.0313
5.7232 -3.0303 3.0327
5.7946 -2.9925 3.0342
5.8665 -2.9540 3.0356
5.9389 -2.9148 3.0371
5.9932 -2.8660 3.0292
5.9919 -2.7909 2.9936
5.9906 -2.7165 2.9585
5.9892 -2.6430 2.9241
6.0091 -2.5793 2.9005
6.0811 -2.5377 2.9021
6.1537 -2.4953 2.9038
6.2273 -2.4523 2.9056
6.3014 -2.4085 2.9076
6.3762 -2.3638 2.9095
6.4515 -2.3184 2.9115
6.5275 -2.2720 2.9135
6.6041 -2.2248 2.9156
6.6814 -2.1767 2.9177
6.7593 -2.1277 2.9199
6.8379 -2.0777 2.9221
6.9173 -2.0268 2.9243
6.9973 -1.9749 2.9266
7.0719 -1.9203 2.9264
7.1530 -1.8664 2.9286
7.2387 -1.8124 2.9325
7.3229 -1.7567 2.9354
7.4088 -1.7000 2.9388
7.5002 -1.6433 2.9441
7.5393 -1.5742 2.9286
7.5532 -1.4997 2.9037
7.5671 -1.4253 2.8789
7.5809 -1.3509 2.8545
7.5948 -1.2767 2.8304
7.6086 -1.2025 2.8065
7.6224 -1.1284 2.7829
7.6362 -1.0543 2.7596
7.6500 -0.9802 2.7365
7.6638 -0.9061 2.7137
7.6978 -0.8342 2.6981
7.7415 -0.7628 2.6861
7.7856 -0.6908 2.6742
7.8301 -0.6183 2.6625
7.8750 -0.5450 2.6510
7.9203 -0.4711 2.6395
7.9661 -0.3965 2.6283
8.0122 -0.3212 2.6171
8.0610 -0.2452 2.6069
8.1328 -0.1688 2.6039
8.2058 -0.0912 2.6012
8.2801 -0.0122 2.5987
8.3556 0.0681 2.5965
8.4325 0.1498 2.5944
8.5107 0.2330 2.5926
8.5918 0.3177 2.5915
8.7010 0.4054 2.5985
8.8129 0.4953 2.6060
8.9278 0.5876 2.6139
9.0458 0.6823 2.6224
9.1670 0.7797 2.6313
9.3325 0.8836 2.6525
9.5146 0.9926 2.6776
9.7042 1.1061 2.7041
10.0462 1.2422 2.7719
11.2528 1.5004 3.0742
11.3647 1.6256 3.0742
11.4777 1.7534 3.0742
11.5919 1.8838 3.0742
11.7073 2.0169 3.0742
-0.6344 -3.4786 2.5269
-0.5925 -3.4778 2.5238
-0.5508 -3.4771 2.5209
-0.5093 -3.4763 2.5181
-0.4679 -3.4756 2.5156
-0.4267 -3.4749 2.5132
-0.3856 -3.4742 2.5111
-0.3446 -3.4736 2.5091
-0.3037 -3.4729 2.5073
-0.2628 -3.4723 2.5057
-0.2221 -3.4717 2.5043
-0.1814 -3.4711 2.5030
-0.1408 -3.4706 2.5020
-0.1002 -3.4700 2.5011
-0.0597 -3.4695 2.5004
-0.0192 -3.4690 2.4998
0.0213 -3.4685 2.4995
0.0618 -3.4680 2.4993
0.1023 -3.4676 2.4993
0.1428 -3.4671 2.4995
0.1834 -3.4667 2.4999
0.2239 -3.4663 2.5004
0.2645 -3.4659 2.5011
0.3052 -3.4656 2.5021
0.3459 -3.4652 2.5031
0.3868 -3.4649 2.5044
0.4276 -3.4645 2.5058
0.4686 -3.4642 2.5075
0.5097 -3.4640 2.5093
0.5510 -3.4637 2.5113
0.5923 -3.4634 2.5135
0.6338 -3.4632 2.5159
0.6754 -3.4630 2.5184
0.7172 -3.4628 2.5212
0.7592 -3.4626 2.5241
0.8014 -3.4624 2.5273
0.8438 -3.4623 2.5306
0.8863 -3.4622 2.5341
1.0812 -4.0287 2.9533
1.1299 -4.0238 2.9543
1.1787 -4.0187 2.9554
1.2277 -4.0132 2.9565
1.2766 -4.0075 2.9577
1.3257 -4.0016 2.9588
1.3749 -3.9953 2.9600
1.4242 -3.9888 2.9612
1.4736 -3.9821 2.9624
1.5231 -3.9750 2.9637
1.5727 -3.9677 2.9649
1.6158 -3.9440 2.9541
1.6655 -3.9362 2.9554
1.7223 -3.9441 2.9689
1.7724 -3.9357 2.9702
1.8226 -3.9270 2.9716
1.8729 -3.9180 2.9731
1.9234 -3.9087 2.9745
1.9740 -3.8992 2.9760
2.0248 -3.8893 2.9775
2.0757 -3.8792 2.9790
2.1268 -3.8687 2.9805
2.1780 -3.8580 2.9821
2.2294 -3.8469 2.9837
2.2809 -3.8355 2.9853
2.3326 -3.8238 2.9870
2.3846 -3.8120 2.9888
2.4371 -3.8005 2.9911
2.4898 -3.7886 2.9934
2.5427 -3.7763 2.9958
2.5952 -3.7629 2.9974
2.6478 -3.7491 2.9991
2.7007 -3.7350 3.0009
2.7538 -3.7205 3.0026
2.8069 -3.7057 3.0043
2.8598 -3.6898 3.0055
2.9129 -3.6736 3.0068
2.9661 -3.6570 3.0080
3.0195 -3.6400 3.0093
3.0731 -3.6227 3.0106
3.1269 -3.6051 3.0120
3.1809 -3.5870 3.0133
3.2351 -3.5686 3.0147
3.2891 -3.5494 3.0158
3.3431 -3.5297 3.0168
3.3974 -3.5096 3.0178
3.4519 -3.4891 3.0188
3.5065 -3.4682 3.0198
3.5613 -3.4468 3.0209
3.6164 -3.4251 3.0219
3.6717 -3.4030 3.0231
3.7272 -3.3804 3.0242
3.7829 -3.3574 3.0253
3.8388 -3.3340 3.0265
3.8949 -3.3102 3.0277
3.9513 -3.2859 3.0289
4.0080 -3.2611 3.0302
4.0648 -3.2360 3.0315
4.1219 -3.2103 3.0328
4.1789 -3.1839 3.0339
4.2360 -3.1569 3.0348
4.2933 -3.1295 3.0358
4.3509 -3.1015 3.0369
4.4087 -3.0731 3.0379
4.4668 -3.0441 3.0390
4.5251 -3.0147 3.0401
4.5837 -2.9847 3.0412
4.6425 -2.9542 3.0424
4.7017 -2.9232 3.0435
4.7610 -2.8916 3.0447
4.8207 -2.8595 3.0459
4.8807 -2.8268 3.0472
4.9409 -2.7936 3.0485
4.9875 -2.7521 3.0413
5.0482 -2.7178 3.0426
5.1234 -2.6904 3.0524
5.1848 -2.6548 3.0538
5.2466 -2.6186 3.0552
5.3087 -2.5818 3.0566
5.3711 -2.5443 3.0581
5.4338 -2.5062 3.0596
5.4969 -2.4674 3.0611
5.5604 -2.4280 3.0627
5.6241 -2.3879 3.0642
5.6883 -2.3471 3.0658
5.7528 -2.3056 3.0675
5.8176 -2.2634 3.0692
5.8829 -2.2205 3.0709
5.9144 -2.1643 3.0550
5.9132 -2.0965 3.0226
5.9126 -2.0294 2.9911
5.9125 -1.9631 2.9603
5.9231 -1.9008 2.9353
5.9846 -1.8546 2.9357
6.0499 -1.8086 2.9378
6.1156 -1.7618 2.9399
6.1816 -1.7142 2.9420
6.2499 -1.6663 2.9451
6.3177 -1.6171 2.9476
6.3857 -1.5671 2.9502
6.4543 -1.5162 2.9528
6.5234 -1.4644 2.9554
6.5928 -1.4116 2.9581
6.6628 -1.3579 2.9608
6.7372 -1.3039 2.9653
6.8125 -1.2490 2.9699
6.8848 -1.1923 2.9730
6.9576 -1.1347 2.9762
7.0309 -1.0759 2.9794
7.1100 -1.0168 2.9849
7.1915 -0.9567 2.9911
7.2673 -0.8946 2.9947
7.3436 -0.8313 2.9984
7.4280 -0.7676 3.0051
7.5135 -0.7025 3.0120
7.5923 -0.6355 3.0160
7.6783 -0.5676 3.0227
7.7700 -0.4986 3.0313
7.8530 -0.4276 3.0362
7.9419 -0.3554 3.0432
8.0348 -0.2817 3.0515
8.0982 -0.2056 3.0484
8.1707 -0.1286 3.0486
8.2443 -0.0503 3.0491
8.3192 0.0294 3.0499
8.3954 0.1104 3.0510
8.4730 0.1929 3.0525
8.5519 0.2768 3.0544
8.6481 0.3630 3.0621
8.7572 0.4516 3.0742
8.8326 0.5403 3.0742
