ply
format ascii 1.0
element vertex 1842
property float32 x
property float32 y
property float32 z
end_header
-4.1018 15.9178 -8.0087
-4.5724 14.9863 -7.5740
-4.2842 15.9000 -8.0081
-4.4105 15.6810 -7.9066
-4.9920 15.7412 -7.9655
-4.4090 15.0399 -7.5921
-5.1784 15.7285 -7.9695
-5.6833 15.5268 -7.9005
-5.3213 15.5859 -7.9079
-5.6385 14.8981 -7.5921
-5.9968 15.3370 -7.8279
-5.3836 15.2216 -7.7339
-5.9675 14.7843 -7.5581
-22.4005 14.8163 -9.5328
-21.7020 14.6752 -9.3688
-22.6212 14.6327 -9.4905
-22.6461 14.3236 -9.3669
-14.7790 1.1571 -3.0829
-14.1195 0.9678 -2.9013
-13.2058 0.5204 -2.5920
-13.7648 0.8096 -2.7859
-12.9953 0.3863 -2.5114
-13.4281 0.6593 -2.6765
-12.7917 0.2565 -2.4337
-12.3930 -0.1105 -2.2479
-12.6511 0.1314 -2.3693
-12.2679 -0.2277 -2.1894
-12.5207 0.0092 -2.3078
-12.1931 -0.3440 -2.1407
-12.1302 -0.4592 -2.0947
-12.0679 -0.5733 -2.0495
-12.0063 -0.6863 -2.0048
-11.9452 -0.7982 -1.9609
-11.8896 -0.9094 -1.9183
-11.8657 -1.0224 -1.8813
-11.8418 -1.1351 -1.8445
-11.8180 -1.2475 -1.8081
-11.7942 -1.3597 -1.7720
-11.7705 -1.4716 -1.7362
-4.0332 15.8902 -7.0658
-4.2099 15.8634 -7.0598
-4.2292 15.2669 -6.8004
-4.4736 15.4952 -6.9084
-4.7132 15.6860 -7.0002
-4.7393 15.1754 -6.7791
-4.9077 15.1378 -6.7694
-5.2622 15.6528 -7.0073
-5.3900 15.4778 -6.9368
-5.5292 15.3427 -6.8843
-5.3748 14.4246 -6.4802
-5.7771 15.0082 -6.7508
-5.8272 14.6656 -6.6053
-6.0304 14.7138 -6.6359
-6.3632 15.0625 -6.8026
-21.8064 14.7917 -8.0318
-21.2977 14.7644 -7.9659
-21.9752 14.5833 -7.9710
-22.3404 14.5021 -7.9807
-22.3167 14.1681 -7.8516
-22.4249 13.9210 -7.7706
-38.8057 13.5536 -9.6185
-39.1686 13.2482 -9.5582
-39.7384 13.0057 -9.5465
-13.5595 0.7180 -2.0393
-14.3634 1.0397 -2.2466
-13.2913 0.5749 -1.9593
-13.9028 0.8711 -2.1326
-12.5723 0.0576 -1.7055
-13.0781 0.4391 -1.8891
-12.4436 -0.0631 -1.6520
-12.8719 0.3076 -1.8214
-12.3174 -0.1813 -1.5997
-12.7038 0.1809 -1.7604
-12.2183 -0.2978 -1.5517
-12.1551 -0.4135 -1.5090
-12.0926 -0.5281 -1.4668
-12.0306 -0.6416 -1.4252
-11.9693 -0.7540 -1.3841
-11.9085 -0.8654 -1.3436
-11.8751 -0.9780 -1.3066
-11.8512 -1.0910 -1.2709
-11.8273 -1.2037 -1.2354
-11.8035 -1.3161 -1.2002
-3.9862 15.9381 -6.1935
-4.1644 15.9253 -6.1922
-4.1965 15.3751 -5.9820
-4.3568 15.3162 -5.9630
-4.6058 15.5587 -6.0615
-4.7789 15.5324 -6.0555
-5.0196 15.7167 -6.1319
-5.1564 15.5704 -6.0795
-5.4125 15.7785 -6.1656
-6.1206 14.7133 -5.7806
-5.4184 15.2642 -5.9695
-5.5655 15.1650 -5.9358
-5.6110 14.8004 -5.7983
-5.8229 14.8806 -5.8350
-5.8700 14.5441 -5.7085
-21.5137 15.6047 -6.9357
-21.3002 14.8040 -6.6408
-21.2154 15.0642 -6.7260
-21.4310 14.5773 -6.5707
-22.4179 13.9662 -6.4280
-21.8206 14.5236 -6.5791
-22.8031 13.8912 -6.4297
-22.4335 13.3602 -6.2201
-22.1554 14.4274 -6.5692
-22.3839 13.0293 -6.1028
-22.5673 14.3753 -6.5802
-38.8724 14.1357 -7.7418
-38.8601 12.4265 -7.1818
-38.5993 13.6082 -7.5468
-39.4726 12.1972 -7.1568
-39.2225 13.3963 -7.5273
-39.5761 13.0847 -7.4540
-14.0373 0.9311 -1.4747
-13.6874 0.7750 -1.3977
-14.6187 1.1118 -1.5790
-13.3741 0.6277 -1.3266
-12.7546 0.2285 -1.1540
-13.1583 0.4901 -1.2668
-12.6221 0.1042 -1.1056
-12.9496 0.3571 -1.2091
-12.4923 -0.0174 -1.0584
-12.1791 -0.3696 -0.9275
-12.3652 -0.1366 -1.0122
-12.1163 -0.4847 -0.8883
-12.2425 -0.2534 -0.9672
-12.0540 -0.5987 -0.8496
-11.9924 -0.7116 -0.8114
-11.9314 -0.8235 -0.7736
-11.8841 -0.9354 -0.7371
-11.8601 -1.0486 -0.7023
-11.8362 -1.1616 -0.6676
-3.6189 14.6795 -4.9111
-3.8376 14.8894 -4.9827
-4.1217 15.3214 -5.1288
-4.4660 15.9298 -5.3342
-4.6854 16.0598 -5.3795
-4.6651 15.3858 -5.1555
-4.9662 15.7788 -5.2891
-4.9970 15.3123 -5.1346
-5.2594 15.5598 -5.2196
-5.1458 14.7123 -4.9373
-5.4068 14.9528 -5.0200
-5.7689 15.4455 -5.1877
-5.7041 14.7967 -4.9720
-5.9662 15.0058 -5.0446
-6.0794 14.8361 -4.9899
-6.1908 14.6683 -4.9359
-6.3006 14.5030 -4.8827
-6.6046 14.7781 -4.9780
-21.3852 15.5418 -5.5702
-20.8926 14.8667 -5.3410
-22.3326 14.2699 -5.1945
-21.2991 14.8377 -5.3437
-22.2546 13.9103 -5.0783
-21.8163 14.8767 -5.3714
-22.2034 13.5732 -4.9702
-21.9883 14.6749 -5.3124
-22.2189 13.2814 -4.8785
-22.8074 13.3277 -4.9114
-22.2743 14.5470 -5.2805
-38.4270 14.5219 -5.7957
-38.5981 14.1563 -5.6885
-39.2130 13.0902 -5.3805
-38.4516 13.6772 -5.5355
-39.2821 12.6883 -5.2592
-38.7150 13.3459 -5.4422
-39.0042 12.1794 -5.0931
-39.9867 12.0594 -5.0903
-47.4003 10.3538 -4.8301
-14.8752 1.1842 -0.8935
-14.1949 0.9921 -0.8114
-13.8138 0.8314 -0.7497
-13.0259 0.4057 -0.5945
-13.4755 0.6805 -0.6925
-12.8215 0.2755 -0.5484
-13.2370 0.5403 -0.6421
-12.6708 0.1499 -0.5057
-12.5400 0.0273 -0.4647
-12.4119 -0.0928 -0.4245
-12.2864 -0.2104 -0.3853
-12.2025 -0.3268 -0.3479
-12.1394 -0.4424 -0.3116
-12.0769 -0.5568 -0.2757
-12.0150 -0.6702 -0.2402
-11.9537 -0.7826 -0.2050
-11.8929 -0.8939 -0.1702
-11.8689 -1.0074 -0.1361
-3.6997 15.9432 -4.4997
-3.5518 14.6131 -4.1239
-3.7564 14.7825 -4.1712
-3.9861 15.0296 -4.2405
-4.3922 15.8920 -4.4832
-4.5610 15.8585 -4.4732
-4.6667 15.6134 -4.4035
-4.7883 15.4341 -4.3523
-5.0185 15.6019 -4.3990
-5.2195 15.6670 -4.4167
-5.2239 15.1542 -4.2715
-5.3623 15.0475 -4.2408
-5.8105 15.7860 -4.4482
-5.9245 15.5957 -4.3938
-5.8889 15.0315 -4.2341
-6.0027 14.8673 -4.1870
-6.1149 14.7053 -4.1406
-6.2256 14.5456 -4.0949
-13.3706 17.2104 -4.8089
-13.5989 17.1424 -4.7878
-13.4056 15.5608 -4.3381
-35.4652 33.6401 -9.3252
-35.6258 33.1205 -9.1750
-35.8193 32.6379 -9.0350
-36.3881 32.4958 -8.9893
-36.7040 32.1241 -8.8800
-36.7745 31.5426 -8.7126
-21.3613 15.5530 -4.2658
-20.7774 14.8148 -4.0591
-21.1950 14.7978 -4.0502
-21.3309 14.5807 -3.9863
-21.6845 14.5096 -3.9624
-22.0582 14.4459 -3.9403
-21.9633 14.0757 -3.8346
-22.2748 13.9669 -3.8001
-22.5634 13.8397 -3.7604
-22.1647 13.2961 -3.6077
-23.3748 13.7107 -3.7149
-37.5840 13.8988 -3.6141
-38.1038 13.6707 -3.5419
-38.8203 13.5027 -3.4849
-39.5190 13.3162 -3.4227
-38.9629 12.7083 -3.2521
-38.1620 12.0379 -3.0661
-14.4334 1.0594 -0.1371
-13.9408 0.8881 -0.0926
-13.5964 0.7344 -0.0516
-13.3157 0.5904 -0.0126
-13.1021 0.4543 0.0250
-12.8953 0.3225 0.0613
-12.7192 0.1953 0.0967
-12.5875 0.0718 0.1315
-12.4584 -0.0492 0.1657
-12.3319 -0.1677 0.1991
-12.2256 -0.2843 0.2323
-12.1623 -0.4004 0.2658
-12.0996 -0.5153 0.2990
-12.0374 -0.6291 0.3320
-11.9759 -0.7420 0.3646
-11.9148 -0.8538 0.3970
-3.4833 15.9748 -3.6987
-3.6541 15.9678 -3.6949
-3.8256 15.9609 -3.6910
-3.9976 15.9540 -3.6870
-3.8531 14.7335 -3.4026
-4.0638 14.9122 -3.4414
-4.2807 15.0957 -3.4811
-4.5025 15.2791 -3.5206
-4.7093 15.3965 -3.5448
-4.9630 15.6507 -3.6003
-5.1002 15.5294 -3.5692
-5.2276 15.3839 -3.5325
-5.3455 15.2179 -3.4911
-5.4617 15.0543 -3.4501
-5.5763 14.8932 -3.4097
-5.8398 15.1245 -3.4590
-5.9673 14.9968 -3.4260
-6.1904 15.1065 -3.4471
-6.3225 14.9910 -3.4167
-6.6815 15.4017 -3.5060
-6.8251 15.3035 -3.4793
-6.9682 15.2057 -3.4526
-27.1274 37.0355 -8.1048
-27.6933 37.0213 -8.0815
-28.2665 37.0066 -8.0574
-26.9484 34.5561 -7.5039
-26.5335 33.3290 -7.2176
-26.4888 32.5967 -7.0390
-26.7435 32.2447 -6.9427
-26.9971 31.8951 -6.8467
-27.2494 31.5477 -6.7511
-29.6395 32.9593 -7.0073
-30.4140 33.1490 -7.0235
-31.2042 33.3365 -7.0383
-31.0176 32.4820 -6.8329
-30.9726 31.7946 -6.6631
-34.6583 34.8766 -7.2805
-35.5633 34.3914 -7.1205
-35.8056 33.9441 -6.9976
-35.6608 33.1409 -6.8015
-36.1180 32.9041 -6.7217
-36.5521 32.6425 -6.6363
-37.9407 30.0356 -5.9096
-39.1978 29.7923 -5.7878
-20.7661 15.4629 -2.9839
-20.5094 14.9602 -2.8667
-20.9525 14.9698 -2.8477
-21.1446 14.7952 -2.7931
-21.2097 14.5324 -2.7218
-21.5693 14.4697 -2.6877
-21.9361 14.4056 -2.6527
-21.9500 14.1086 -2.5746
-21.4181 13.4719 -2.4352
-22.7399 13.9944 -2.5046
-23.1749 13.9512 -2.4710
-23.0328 13.5604 -2.3756
-23.9461 13.7846 -2.3872
-31.4614 13.8660 -2.0046
-37.7521 14.4941 -1.8239
-37.9336 14.1433 -1.7178
-38.8553 14.0595 -1.6426
-38.3508 13.4582 -1.5065
-39.2229 13.3391 -1.4239
-39.3240 12.9500 -1.3110
-39.7037 12.6505 -1.2065
-39.6584 12.2147 -1.0886
-39.5805 11.7727 -0.9706
-47.6605 12.6840 -0.7534
-14.6807 1.1293 0.5600
-14.0705 0.9459 0.5765
-13.7199 0.7895 0.6009
-13.3955 0.6413 0.6246
-13.1794 0.5036 0.6519
-12.9703 0.3703 0.6784
-12.7683 0.2413 0.7042
-12.6355 0.1168 0.7329
-12.5055 -0.0051 0.7610
-12.3780 -0.1245 0.7887
-12.2532 -0.2416 0.8159
-12.1854 -0.3580 0.8465
-12.1225 -0.4734 0.8771
-12.0601 -0.5877 0.9075
-11.9982 -0.7010 0.9377
-3.4639 16.1064 -2.9301
-3.6362 16.1107 -2.9270
-3.7763 15.9753 -2.8983
-3.9832 16.1188 -2.9201
-4.0557 15.7260 -2.8446
-4.2190 15.6994 -2.8352
-4.2047 15.0368 -2.7110
-4.5464 15.6460 -2.8159
-4.5284 15.0150 -2.6973
-4.7526 15.2006 -2.7255
-4.9839 15.3919 -2.7543
-5.2059 15.5396 -2.7750
-5.2622 15.1959 -2.7078
-5.4315 15.1867 -2.7001
-5.6497 15.3074 -2.7152
-5.7862 15.2033 -2.6903
-5.9220 15.0999 -2.6653
-6.2816 15.5534 -2.7383
-6.4179 15.4409 -2.7112
-6.5599 15.3444 -2.6867
-6.6603 15.1550 -2.6459
-6.7941 15.0464 -2.6192
-6.9271 14.9384 -2.5923
-7.0593 14.8309 -2.5655
-26.9489 37.4050 -5.9736
-25.1011 34.1194 -5.4163
-25.5840 34.0611 -5.3736
-26.0490 33.9719 -5.3252
-26.5594 33.9343 -5.2841
-27.3282 34.2115 -5.2907
-27.4235 33.6412 -5.1655
-28.2930 34.0138 -5.1843
-28.5045 33.5858 -5.0800
-29.0490 33.5484 -5.0343
-28.8327 32.6403 -4.8579
-29.3544 32.5761 -4.8071
-29.7897 32.4094 -4.7403
-31.7069 33.8188 -4.9011
-33.0781 34.5907 -4.9652
-33.4932 34.3402 -4.8805
-37.3738 32.0843 -4.0830
-36.9011 31.0554 -3.8925
-37.3733 30.8325 -3.8035
-37.2218 30.0998 -3.6517
-37.0737 29.3847 -3.5030
-38.9764 30.2769 -3.5434
-39.2381 29.8697 -3.4286
-20.8520 15.5541 -1.7492
-20.9018 15.2759 -1.6812
-20.9009 14.9645 -1.6097
-20.8875 14.6489 -1.5381
-21.2514 14.5971 -1.4938
-21.6226 14.5441 -1.4482
-22.2292 14.6397 -1.4159
-22.3762 14.4263 -1.3526
-22.2146 14.0180 -1.2712
-22.8410 14.1047 -1.2342
-22.4411 13.5583 -1.1415
-22.6153 13.3654 -1.0794
-22.5566 13.0369 -1.0063
-22.5019 12.7155 -0.9343
-38.9998 13.8090 0.4335
-38.3683 13.1705 0.5342
-39.2345 13.0465 0.6561
-39.1702 12.6072 0.7644
-49.2094 6.8398 3.4087
-47.3162 6.1130 3.4087
-45.5606 5.4409 3.4087
-43.9277 4.8174 3.4087
-42.4049 4.2376 3.4087
-40.9809 3.6971 3.4087
-39.6466 3.1920 3.4087
-14.2574 1.0098 1.2658
-13.8482 0.8468 1.2685
-13.5090 0.6954 1.2755
-13.2593 0.5545 1.2895
-13.0477 0.4197 1.3060
-12.8428 0.2891 1.3221
-12.6849 0.1631 1.3422
-12.5539 0.0403 1.3644
-12.4255 -0.0800 1.3863
-12.2996 -0.1980 1.4079
-12.2092 -0.3145 1.4330
-12.1459 -0.4304 1.4611
-12.0833 -0.5451 1.4891
-3.5675 16.0257 -2.1289
-3.7372 16.0297 -2.1237
-3.8645 15.8562 -2.0948
-4.0732 16.0144 -2.1094
-4.2392 15.9956 -2.1004
-4.4415 16.1065 -2.1080
-4.4283 15.4541 -2.0158
-4.6453 15.6202 -2.0302
-4.8682 15.7907 -2.0447
-5.0971 15.9649 -2.0592
-5.0379 15.2522 -1.9593
-5.2147 15.2739 -1.9539
-5.4650 15.4997 -1.9740
-5.6302 15.4743 -1.9618
-5.7959 15.4487 -1.9493
-5.9622 15.4228 -1.9364
-5.6114 14.0962 -1.7608
-6.2866 15.3458 -1.9067
-6.4111 15.2164 -1.8801
-6.4419 14.8740 -1.8273
-6.6756 15.0028 -1.8321
-6.8066 14.8968 -1.8079
-6.9759 14.8746 -1.7937
-27.2599 37.6716 -3.7888
-27.0501 36.6177 -3.6324
-27.1915 36.0618 -3.5262
-26.1767 34.0154 -3.2765
-26.5817 33.8485 -3.2097
-27.1883 33.9299 -3.1652
-27.3097 33.4044 -3.0633
-27.4327 32.8914 -2.9627
-27.9366 32.8360 -2.9027
-28.1035 32.3839 -2.8070
-28.4599 32.1532 -2.7301
-29.7124 32.9137 -2.7347
-29.5425 32.0888 -2.6060
-30.1824 32.1476 -2.5488
-30.2012 31.5442 -2.4383
-30.0186 30.7468 -2.3139
-21.0845 15.1307 -0.3880
-20.9315 14.7162 -0.3231
-21.3665 14.7154 -0.2670
-21.4378 14.4610 -0.2052
-21.7216 14.3490 -0.1449
-22.3151 14.4334 -0.0846
-22.0503 13.9620 -0.0204
-22.4956 13.9417 0.0432
-22.3464 13.5526 0.1061
-22.3057 13.2353 0.1687
-39.2007 13.1658 2.6242
-45.0818 14.1845 3.2563
-43.4894 13.2263 3.2563
-42.0053 12.3360 3.2563
-40.8560 11.5740 3.2753
-41.1592 11.2345 3.4087
-39.8824 10.4760 3.4087
-38.6810 9.7648 3.4087
-37.5484 9.0966 3.4087
-36.4787 8.4678 3.4087
-35.4665 7.8751 3.4087
-34.5073 7.3154 3.4087
-33.5967 6.7862 3.4087
-32.7309 6.2850 3.4087
-31.9068 5.8098 3.4087
-31.1211 5.3586 3.4087
-30.3710 4.9297 3.4087
-29.6542 4.5216 3.4087
-28.9682 4.1327 3.4087
-28.3112 3.7618 3.4087
-27.6811 3.4078 3.4087
-27.0763 3.0694 3.4087
-26.4950 2.7459 3.4087
-25.9360 2.4361 3.4087
-24.2623 2.0436 3.2563
-14.5130 1.0819 1.9884
-13.9838 0.9072 1.9552
-13.6381 0.7530 1.9454
-13.3431 0.6079 1.9412
-13.1289 0.4714 1.9475
-12.9216 0.3393 1.9538
-12.7366 0.2116 1.9625
-12.6045 0.0878 1.9787
-12.4751 -0.0335 1.9948
-12.3483 -0.1524 2.0107
-12.2339 -0.2692 2.0282
-12.1704 -0.3855 2.0539
1.9869 48.1270 -4.2960
1.5088 48.1036 -4.2974
1.0314 48.0780 -4.2976
0.5546 48.0502 -4.2967
0.0785 48.0202 -4.2946
-0.3969 47.9880 -4.2914
-0.8718 47.9536 -4.2871
-1.3461 47.9170 -4.2816
-1.8198 47.8782 -4.2750
-2.2930 47.8372 -4.2673
-2.7657 47.7941 -4.2584
-3.2379 47.7487 -4.2484
-3.7096 47.7011 -4.2372
-4.1808 47.6513 -4.2250
-4.6517 47.5994 -4.2115
-5.1221 47.5453 -4.1970
-5.5922 47.4889 -4.1813
-6.0619 47.4304 -4.1645
-6.5313 47.3696 -4.1466
-7.0003 47.3067 -4.1275
-7.4690 47.2416 -4.1073
-7.9375 47.1742 -4.0860
-8.4057 47.1047 -4.0635
-8.8737 47.0329 -4.0399
-9.3415 46.9589 -4.0152
-9.8091 46.8826 -3.9893
-3.5152 16.0098 -1.3553
-3.6878 16.0377 -1.3503
-3.8617 16.0658 -1.3450
-4.0371 16.0941 -1.3393
-4.0932 15.6608 -1.2950
-4.2536 15.6420 -1.2849
-4.4145 15.6230 -1.2744
-4.5758 15.6039 -1.2636
-4.7376 15.5846 -1.2524
-4.8998 15.5650 -1.2408
-5.0846 15.6130 -1.2343
-5.2228 15.5163 -1.2159
-5.3654 15.4354 -1.1985
-5.5082 15.3569 -1.1810
-5.6504 15.2785 -1.1632
-5.7922 15.2004 -1.1452
-5.4907 13.9939 -1.0428
-6.1675 15.2752 -1.1253
-6.1861 14.8978 -1.0844
-6.4297 15.0645 -1.0829
-6.5595 14.9601 -1.0614
-6.7081 14.8993 -1.0427
-25.8570 35.5890 -1.4854
-26.2519 35.4032 -1.4139
-26.6478 35.2161 -1.3412
-27.0445 35.0277 -1.2673
-27.4359 34.8299 -1.1920
-27.9058 34.7274 -1.1186
-28.7565 35.0831 -1.0576
-28.3627 33.9260 -0.9506
-27.9268 32.7539 -0.8461
-28.1990 32.4311 -0.7649
-30.6428 34.5597 -0.7352
-30.7494 34.0107 -0.6427
-31.0564 33.6889 -0.5542
-31.4495 33.4598 -0.4663
-31.6882 33.0670 -0.3753
-34.5178 27.9894 0.8462
-35.1501 27.9462 0.9548
-35.7956 27.9020 1.0667
-36.4549 27.8570 1.1818
-37.1285 27.8109 1.3004
-37.7196 27.6922 1.4189
-38.5286 27.7209 1.5488
-39.2491 27.6716 1.6785
-39.9867 27.6212 1.8124
-21.7534 14.7202 1.0414
-22.5335 14.9352 1.1359
-22.1328 14.3662 1.1717
-21.9754 13.9665 1.2188
-22.5573 14.0349 1.3077
-43.7632 22.7848 3.4087
-42.4161 21.5706 3.4087
-41.1503 20.4341 3.4087
-39.9584 19.3684 3.4087
-38.8340 18.3672 3.4087
-37.7709 17.4247 3.4087
-36.7645 16.5363 3.4087
-34.2090 14.9956 3.2563
-33.3429 14.2378 3.2563
-32.5190 13.5203 3.2563
-31.7340 12.8398 3.2563
-31.1308 12.2511 3.2716
-31.6869 12.1218 3.4087
-30.9709 11.5100 3.4087
-30.2856 10.9273 3.4087
-29.6287 10.3716 3.4087
-28.9985 9.8412 3.4087
-28.3931 9.3343 3.4087
-27.8112 8.8496 3.4087
-27.2512 8.3856 3.4087
-26.7119 7.9412 3.4087
-26.1921 7.5150 3.4087
-25.6905 7.1062 3.4087
-25.2062 6.7136 3.4087
-24.7384 6.3364 3.4087
-24.2860 5.9738 3.4087
-23.8482 5.6249 3.4087
-23.4242 5.2890 3.4087
-23.0135 4.9654 3.4087
-22.6152 4.6535 3.4087
-22.2288 4.3527 3.4087
-21.8537 4.0625 3.4087
-21.4893 3.7823 3.4087
-21.1352 3.5116 3.4087
-20.7908 3.2501 3.4087
-20.4560 2.9972 3.4087
-20.1297 2.7526 3.4087
-18.9263 2.4034 3.2563
-18.6307 2.1845 3.2563
-18.3425 1.9724 3.2563
-18.0614 1.7670 3.2563
-17.7872 1.5678 3.2563
-14.7920 1.1607 2.7493
-14.1293 0.9721 2.6659
-13.7766 0.8148 2.6384
-13.4414 0.6653 2.6126
-13.2155 0.5266 2.6067
-13.0056 0.3928 2.6029
-12.8022 0.2632 2.5995
-12.6583 0.1382 2.6075
-12.5278 0.0159 2.6177
-12.3999 -0.1040 2.6279
-12.2745 -0.2216 2.6382
1.8274 44.8668 -1.9057
1.3876 44.8428 -1.9086
0.9485 44.8188 -1.9104
0.5101 44.7949 -1.9111
0.0722 44.7710 -1.9108
-0.3651 44.7471 -1.9095
-0.8021 44.7233 -1.9070
-1.2388 44.6994 -1.9035
-1.6752 44.6756 -1.8990
-2.1115 44.6518 -1.8933
-2.5477 44.6280 -1.8866
-2.9839 44.6042 -1.8789
-3.4201 44.5804 -1.8700
-3.8566 44.5565 -1.8602
-4.2932 44.5327 -1.8492
-4.7302 44.5089 -1.8371
-5.1676 44.4850 -1.8240
-5.6054 44.4611 -1.8098
-6.0438 44.4372 -1.7946
-6.4829 44.4132 -1.7782
-6.9226 44.3892 -1.7607
-7.3631 44.3651 -1.7421
-7.8046 44.3410 -1.7224
-8.2470 44.3169 -1.7016
-8.6904 44.2927 -1.6797
-9.1350 44.2684 -1.6566
-9.5808 44.2441 -1.6324
-3.6079 15.9094 -0.5782
-3.7777 15.9364 -0.5699
-3.9489 15.9635 -0.5612
-4.1200 15.9854 -0.5518
-4.2398 15.8111 -0.5354
-4.3914 15.7612 -0.5228
-4.3660 15.0997 -0.4900
-4.6940 15.6610 -0.4965
-4.8450 15.6107 -0.4828
-4.9656 15.4659 -0.4658
-5.1579 15.5438 -0.4552
-5.3227 15.5332 -0.4414
-5.4177 15.3229 -0.4217
-5.5105 15.1164 -0.4019
-5.4614 14.5408 -0.3727
-5.3731 13.8941 -0.3423
-6.0048 15.0905 -0.3563
-6.1367 14.9965 -0.3382
-6.3110 15.0052 -0.3219
-6.4298 14.8819 -0.3025
-21.1259 45.2356 -0.7566
-23.1741 28.7689 0.8294
-23.6087 28.7392 0.9019
-24.0491 28.7091 0.9763
-24.4955 28.6786 1.0527
-24.9482 28.6476 1.1310
-13.3471 15.0329 0.6364
-25.8731 28.5844 1.2939
-26.3458 28.5521 1.3785
-26.8256 28.5192 1.4654
-27.2363 28.4060 1.5502
-27.7310 28.3733 1.6416
-28.3098 28.4166 1.7401
-28.8210 28.3816 1.8367
-29.3407 28.3461 1.9358
-29.8693 28.3099 2.0376
-30.4071 28.2731 2.1423
-30.9544 28.2357 2.2498
-31.5118 28.1976 2.3602
-32.0794 28.1588 2.4738
-32.5630 28.0378 2.5830
-33.2426 28.0753 2.7103
-33.8435 28.0342 2.8338
-34.4563 27.9923 2.9608
-35.0817 27.9495 3.0916
-36.0546 28.1672 3.2563
-35.2005 26.9639 3.2563
-34.6027 25.9868 3.2767
-35.1837 25.9027 3.4087
-34.4069 24.8295 3.4087
-33.6639 23.8094 3.4087
-32.9521 22.8387 3.4087
-32.2697 21.9142 3.4087
-31.6146 21.0328 3.4087
-22.0524 14.3705 2.4260
-30.3796 19.3880 3.4087
-29.7967 18.6198 3.4087
-29.2351 17.8848 3.4087
-28.6935 17.1808 3.4087
-26.9113 15.7683 3.2563
-26.4290 15.1502 3.2563
-25.9628 14.5570 3.2563
-25.5117 13.9873 3.2563
-25.0751 13.4397 3.2563
-24.6522 12.9131 3.2563
-24.7829 12.6831 3.3289
-24.9606 12.4764 3.4087
-24.5567 11.9844 3.4087
-24.1644 11.5101 3.4087
-23.7833 11.0527 3.4087
-23.4127 10.6114 3.4087
-23.0523 10.1852 3.4087
-22.7015 9.7737 3.4087
-22.3599 9.3759 3.4087
-22.0272 8.9914 3.4087
-21.7030 8.6194 3.4087
-21.3868 8.2595 3.4087
-21.0783 7.9111 3.4087
-20.7773 7.5737 3.4087
-20.4834 7.2469 3.4087
-20.1964 6.9301 3.4087
-19.9159 6.6229 3.4087
-19.6417 6.3250 3.4087
-19.3736 6.0360 3.4087
-19.1114 5.7554 3.4087
-18.8548 5.4831 3.4087
-18.6035 5.2185 3.4087
-18.3575 4.9616 3.4087
-18.1165 4.7118 3.4087
-17.8804 4.4691 3.4087
-17.6489 4.2330 3.4087
-17.4220 4.0034 3.4087
-17.1994 3.7800 3.4087
-16.9810 3.5627 3.4087
-16.7666 3.3511 3.4087
-16.5563 3.1450 3.4087
-16.3497 2.9443 3.4087
-15.4250 2.6259 3.2563
-15.2346 2.4440 3.2563
-15.0475 2.2667 3.2563
-14.8636 2.0938 3.2563
-14.6827 1.9252 3.2563
-14.5162 1.7622 3.2588
-14.3431 1.6019 3.2592
-14.1725 1.4455 3.2596
-14.0045 1.2928 3.2600
-13.8389 1.1438 3.2603
-13.6754 0.9982 3.2605
-13.5116 0.8558 3.2600
-13.3452 0.7166 3.2583
-13.1770 0.5805 3.2555
-13.0066 0.4476 3.2515
-12.8386 0.3181 3.2475
-12.6784 0.1919 3.2448
-12.5123 0.0687 3.2400
-12.3383 -0.0514 3.2324
6.0572 47.4771 0.2998
5.5899 47.4516 0.2827
5.1311 47.4912 0.2674
4.6661 47.4658 0.2530
4.2024 47.4405 0.2400
3.7399 47.4153 0.2284
3.2787 47.3901 0.2181
2.7844 46.7930 0.2067
2.4820 49.8035 0.2121
1.8028 44.8723 0.1853
1.3689 44.8483 0.1806
0.9358 44.8244 0.1772
0.5032 44.8006 0.1750
0.0713 44.7768 0.1741
-0.3602 44.7530 0.1744
-0.7914 44.7292 0.1760
-1.2222 44.7054 0.1788
-1.6527 44.6817 0.1829
-2.0831 44.6579 0.1881
-2.5134 44.6342 0.1947
-2.9437 44.6105 0.2025
-3.3741 44.5867 0.2115
-3.8046 44.5630 0.2218
-4.2353 44.5392 0.2333
-4.6663 44.5154 0.2461
-5.0977 44.4916 0.2601
-5.5296 44.4678 0.2754
-5.9620 44.4440 0.2920
-6.3949 44.4201 0.3098
-6.8286 44.3962 0.3290
-7.2630 44.3722 0.3494
-7.6983 44.3482 0.3711
-8.1345 44.3241 0.3941
-8.5717 44.3000 0.4184
-9.0100 44.2758 0.4440
-9.4495 44.2516 0.4710
-9.8902 44.2273 0.4993
-4.1238 15.5973 0.2213
-4.2856 15.6012 0.2339
-4.4484 15.6048 0.2471
-4.6120 15.6082 0.2608
-4.7735 15.6018 0.2748
-4.9475 15.6320 0.2900
-4.9427 15.1110 0.2951
-5.1895 15.3646 0.3156
-5.2432 15.0457 0.3248
-5.2099 14.5008 0.3288
-5.5846 15.0873 0.3590
-5.7393 15.0599 0.3758
-5.8581 14.9397 0.3906
-6.2229 15.4331 0.4226
-12.2358 29.5263 0.8462
-12.5592 29.5042 0.8844
-12.8847 29.4820 0.9237
-13.2123 29.4596 0.9642
-13.5422 29.4370 1.0058
-13.8743 29.4143 1.0487
-14.2089 29.3915 1.0928
-14.5459 29.3684 1.1382
-14.8855 29.3452 1.1848
-15.2278 29.3218 1.2327
-15.5728 29.2982 1.2820
-15.9207 29.2744 1.3325
-16.2716 29.2505 1.3845
-16.6255 29.2263 1.4378
-16.9332 29.1170 1.4883
-17.2949 29.0965 1.5446
-17.7041 29.1483 1.6064
-18.0713 29.1232 1.6656
-18.4420 29.0979 1.7264
-18.8165 29.0723 1.7888
-19.1949 29.0464 1.8528
-19.5772 29.0203 1.9185
-19.9637 28.9938 1.9859
-20.3544 28.9671 2.0550
-20.7496 28.9401 2.1259
-21.1493 28.9128 2.1987
-21.5537 28.8851 2.2733
-21.9629 28.8571 2.3499
-22.3105 28.7429 2.4212
-22.7918 28.7939 2.5084
-23.2166 28.7649 2.5911
-23.6469 28.7355 2.6758
-24.0830 28.7056 2.7628
-24.5251 28.6754 2.8520
-24.9732 28.6448 2.9436
-13.3429 15.0147 1.5939
-25.8889 28.5821 3.1340
-26.5475 28.7566 3.2563
-26.2026 27.8488 3.2563
-25.8650 26.9732 3.2563
-25.9759 26.5803 3.3126
-26.3898 26.4972 3.4087
-26.0571 25.6725 3.4087
-25.7310 24.8756 3.4087
-25.4112 24.1054 3.4087
-25.0975 23.3608 3.4087
-24.7898 22.6406 3.4087
-24.4879 21.9438 3.4087
-24.1916 21.2694 3.4087
-23.9008 20.6164 3.4087
-23.6153 19.9841 3.4087
-23.3349 19.3715 3.4087
-23.0596 18.7778 3.4087
-22.7891 18.2023 3.4087
-22.5234 17.6442 3.4087
-21.2670 16.3383 3.2563
-21.0218 15.8367 3.2563
-20.7809 15.3498 3.2563
-20.5439 14.8772 3.2563
-20.3110 14.4183 3.2563
-20.0818 13.9725 3.2563
-19.8565 13.5395 3.2563
-19.6348 13.1186 3.2563
-19.8938 13.0220 3.3363
-20.1005 12.8881 3.4087
-19.8793 12.4832 3.4087
-19.6615 12.0894 3.4087
-19.4471 11.7063 3.4087
-19.2359 11.3334 3.4087
-19.0279 10.9704 3.4087
-18.8230 10.6170 3.4087
-18.6212 10.2729 3.4087
-18.4223 9.9377 3.4087
-18.2263 9.6111 3.4087
-18.0331 9.2930 3.4087
-17.8427 8.9828 3.4087
-17.6550 8.6805 3.4087
-17.4698 8.3858 3.4087
-17.2872 8.0983 3.4087
-17.1072 7.8179 3.4087
-16.9295 7.5445 3.4087
-16.7544 7.2775 3.4087
-16.5814 7.0171 3.4087
-16.4108 6.7629 3.4087
-16.2423 6.5148 3.4087
-16.0761 6.2725 3.4087
-15.9120 6.0358 3.4087
-15.7500 5.8047 3.4087
-15.5900 5.5789 3.4087
-15.4320 5.3583 3.4087
-15.2759 5.1427 3.4087
-15.1218 4.9321 3.4087
-14.9695 4.7261 3.4087
-14.8190 4.5248 3.4087
-14.6703 4.3279 3.4087
-14.5234 4.1354 3.4087
-14.3782 3.9471 3.4087
-14.2346 3.7630 3.4087
-14.0927 3.5828 3.4087
-13.9523 3.4065 3.4087
-13.8136 3.2340 3.4087
-13.6764 3.0651 3.4087
-13.5407 2.8999 3.4087
-13.0166 2.6584 3.3095
-12.6745 2.4632 3.2548
-12.5454 2.3144 3.2538
-12.4169 2.1687 3.2527
-12.2889 2.0259 3.2513
-12.1613 1.8859 3.2496
-12.0338 1.7487 3.2476
-11.9058 1.6142 3.2451
-11.7800 1.4827 3.2428
-11.6553 1.3540 3.2405
-11.5300 1.2278 3.2376
-11.4035 1.1041 3.2340
-11.2785 0.9830 3.2304
-11.1511 0.8643 3.2258
-11.0240 0.7481 3.2208
-10.8955 0.6344 3.2151
-10.7672 0.5232 3.2089
-10.6407 0.4146 3.2029
-10.5232 0.3086 3.1992
-10.3853 0.2045 3.1889
-10.2605 0.1031 3.1821
3.8408 30.5284 1.6253
3.5443 30.5101 1.6119
3.2574 30.5725 1.6038
2.9618 30.5524 1.5923
2.6672 30.5323 1.5818
2.3734 30.5122 1.5724
2.0804 30.4922 1.5639
1.7882 30.4723 1.5564
1.4967 30.4524 1.5499
1.2058 30.4325 1.5444
0.9155 30.4127 1.5398
0.6257 30.3929 1.5363
0.3365 30.3732 1.5337
0.0476 30.3535 1.5320
-0.2408 30.3338 1.5313
-0.5289 30.3141 1.5316
-0.8168 30.2944 1.5329
-1.1018 30.2029 1.5315
-1.3880 30.1715 1.5340
-1.6745 30.1519 1.5381
-1.9671 30.2278 1.5481
-2.2544 30.2082 1.5541
-2.5418 30.1886 1.5612
-2.8292 30.1690 1.5691
-3.1167 30.1493 1.5781
-3.4044 30.1297 1.5880
-3.6923 30.1100 1.5989
-3.9804 30.0903 1.6107
-4.2689 30.0706 1.6236
-4.5578 30.0509 1.6374
-4.8471 30.0312 1.6522
-5.1368 30.0114 1.6680
-5.4271 29.9915 1.6847
-5.7180 29.9717 1.7025
-6.0095 29.9518 1.7213
-6.3017 29.9318 1.7412
-6.5735 29.8162 1.7564
-6.8693 29.8090 1.7789
-7.1798 29.8588 1.8060
-7.4751 29.8386 1.8300
-7.7714 29.8184 1.8550
-8.0687 29.7981 1.8811
-8.3671 29.7777 1.9082
-8.6666 29.7572 1.9365
-4.7577 15.7769 1.0430
-9.2693 29.7160 1.9963
-5.0164 15.5616 1.0627
-4.9850 14.9768 1.0400
-5.2866 15.3946 1.0874
-5.4277 15.3312 1.1018
-5.5684 15.2676 1.1167
-11.1107 29.5902 2.2033
-11.4232 29.5688 2.2419
-11.7049 29.4656 2.2755
-12.0201 29.4441 2.3165
-12.3763 29.5157 2.3663
-12.6964 29.4939 2.4101
-13.0186 29.4718 2.4551
-13.3429 29.4497 2.5015
-13.6694 29.4274 2.5492
-13.9982 29.4049 2.5984
-14.3294 29.3822 2.6489
-14.6631 29.3594 2.7009
-14.9993 29.3364 2.7543
-15.3382 29.3133 2.8092
-15.6798 29.2899 2.8656
-16.0243 29.2664 2.9236
-16.3716 29.2426 2.9831
-16.7220 29.2186 3.0442
-17.0260 29.1097 3.0980
-17.9003 29.9532 3.2566
-17.8951 29.3136 3.2563
-17.8857 28.6870 3.2563
-17.8707 28.0706 3.2563
-17.8503 27.4643 3.2563
-18.0046 27.1392 3.2891
-18.3499 27.1024 3.3579
-18.5909 26.9094 3.4087
-18.5498 26.3171 3.4087
-18.5044 25.7353 3.4087
-18.4549 25.1639 3.4087
-18.4015 24.6028 3.4087
-18.3445 24.0519 3.4087
-18.2840 23.5111 3.4087
-18.2202 22.9804 3.4087
-18.1534 22.4595 3.4087
-18.0836 21.9484 3.4087
-18.0111 21.4469 3.4087
-17.9360 20.9550 3.4087
-17.8585 20.4724 3.4087
-13.3422 15.0085 2.5581
-17.6968 19.5349 3.4087
-17.6130 19.0796 3.4087
-17.5273 18.6331 3.4087
-17.4398 18.1953 3.4087
-17.3507 17.7659 3.4087
-16.4885 16.5695 3.2563
-16.4006 16.1753 3.2563
-16.3116 15.7887 3.2563
-16.2213 15.4097 3.2563
-16.1301 15.0381 3.2563
-16.0379 14.6739 3.2563
-15.9448 14.3167 3.2563
-15.8509 13.9666 3.2563
-15.7562 13.6233 3.2563
-15.7061 13.3251 3.2657
-15.8870 12.2481 3.4087
-15.9702 13.2941 3.3410
-15.7844 11.9352 3.4087
-16.1926 13.2247 3.4087
-15.6816 11.6285 3.4087
-16.0911 12.8927 3.4087
-15.5785 11.3277 3.4087
-15.4752 11.0327 3.4087
-15.9893 12.5672 3.4087
-15.3717 10.7435 3.4087
-14.8533 9.3790 3.4086
-15.2682 10.4599 3.4087
-14.7493 9.1214 3.4085
-15.1646 10.1818 3.4087
-14.6453 8.8687 3.4084
-15.0609 9.9090 3.4087
-14.5415 8.6209 3.4082
-14.4379 8.3778 3.4081
-14.9573 9.6415 3.4087
-14.3344 8.1394 3.4080
-13.8204 7.0133 3.4075
-14.2311 7.9055 3.4079
-13.7184 6.8007 3.4074
-14.1281 7.6760 3.4078
-13.6168 6.5921 3.4073
-13.5154 6.3873 3.4072
-14.0253 7.4509 3.4077
-13.4144 6.1864 3.4071
-13.9227 7.2300 3.4076
-13.3137 5.9892 3.4070
-12.8159 5.0565 3.4065
-13.2134 5.7957 3.4069
-12.7175 4.8801 3.4064
-13.1135 5.6057 3.4068
-12.6195 4.7069 3.4063
-13.0139 5.4192 3.4067
-12.5219 4.5369 3.4062
-12.9147 5.2362 3.4066
-12.4248 4.3699 3.4061
-12.3280 4.2060 3.4060
-11.8457 3.4278 3.4042
-12.2317 4.0450 3.4060
-11.7482 3.2797 3.4031
-12.1358 3.8869 3.4059
-11.6510 3.1343 3.4020
-12.0404 3.7316 3.4058
-11.5536 2.9914 3.4007
-11.9432 3.5784 3.4051
-11.4567 2.8511 3.3993
-11.3596 2.7131 3.3978
-10.8779 2.0591 3.3889
-11.2629 2.5776 3.3962
-11.1662 2.4444 3.3945
-10.7817 1.9350 3.3866
-11.0697 2.3137 3.3927
-10.6852 1.8131 3.3840
-10.9736 2.1852 3.3908
-10.5892 1.6934 3.3815
-10.4088 1.4619 3.3796
-10.4976 1.5765 3.3802
-10.3111 1.3482 3.3760
-10.2142 1.2365 3.3725
-10.1179 1.1270 3.3689
-10.0202 1.0193 3.3647
-9.9234 0.9137 3.3605
-9.8275 0.8101 3.3565
-9.7310 0.7084 3.3520
-9.6348 0.6086 3.3474
-9.5394 0.5108 3.3428
-9.4449 0.4148 3.3384
-9.3506 0.3206 3.3338
-9.2572 0.2283 3.3293
3.7859 30.5237 3.0638
3.5032 30.5884 3.0564
3.2110 30.5684 3.0416
2.9197 30.5486 3.0279
2.6294 30.5288 3.0154
2.3398 30.5090 3.0040
2.0510 30.4893 2.9937
1.7630 30.4696 2.9846
1.4756 30.4500 2.9765
1.1888 30.4304 2.9695
0.9026 30.4109 2.9637
0.6169 30.3914 2.9589
0.3317 30.3719 2.9552
0.0470 30.3525 2.9526
-0.2374 30.3331 2.9511
-0.5215 30.3137 2.9506
-0.8053 30.2943 2.9513
-1.0863 30.2031 2.9459
-1.3685 30.1719 2.9476
-1.6510 30.1526 2.9514
-1.9396 30.2288 2.9657
-2.2228 30.2095 2.9717
-2.5061 30.1901 2.9787
-2.7895 30.1708 2.9869
-3.0729 30.1514 2.9961
-3.3566 30.1320 3.0065
-3.6404 30.1127 3.0179
-3.9245 30.0933 3.0304
-4.2089 30.0738 3.0439
-4.4937 30.0544 3.0586
-4.7788 30.0349 3.0744
-5.0644 30.0154 3.0913
-5.3505 29.9959 3.1093
-5.6372 29.9763 3.1285
-5.9245 29.9566 3.1487
-6.3819 30.7537 3.2566
-6.6311 30.5154 3.2565
-6.8750 30.2696 3.2564
-7.1136 30.0165 3.2562
-7.3471 29.7579 3.2563
-7.5751 29.4925 3.2563
-7.7975 29.2209 3.2563
-8.0142 28.9435 3.2563
-8.2252 28.6605 3.2563
-8.4305 28.3723 3.2563
-8.6300 28.0793 3.2563
-4.9395 15.5521 1.8228
-5.0723 15.4676 1.8328
-9.3823 27.7327 3.3231
-9.6630 27.7066 3.3582
-9.9449 27.6803 3.3945
-10.1585 27.4663 3.4087
-10.3248 27.1338 3.4087
-10.4849 26.7988 3.4087
-10.6390 26.4618 3.4087
-10.7871 26.1230 3.4087
-10.9293 25.7826 3.4087
-11.0657 25.4411 3.4087
-11.1964 25.0986 3.4087
-11.3213 24.7553 3.4087
-11.4406 24.4116 3.4087
-11.5544 24.0677 3.4087
-11.6627 23.7239 3.4087
-11.7656 23.3802 3.4087
-11.8633 23.0370 3.4087
-11.9557 22.6944 3.4087
-12.0430 22.3527 3.4087
-12.1254 22.0120 3.4087
-12.2028 21.6726 3.4087
-12.2754 21.3345 3.4087
-12.3434 20.9979 3.4087
-12.4067 20.6630 3.4087
-12.4656 20.3299 3.4087
-12.5201 19.9988 3.4087
-12.5703 19.6697 3.4087
-12.6163 19.3429 3.4087
-12.6582 19.0183 3.4087
-12.6962 18.6962 3.4087
-12.7303 18.3765 3.4087
-12.7607 18.0594 3.4087
-12.2157 16.9516 3.2563
-12.2378 16.6539 3.2563
-12.2566 16.3588 3.2563
-12.2722 16.0665 3.2563
-12.2847 15.7769 3.2563
-12.2942 15.4902 3.2563
-12.3007 15.2064 3.2563
-12.3044 14.9255 3.2563
-12.3054 14.6475 3.2563
-12.3037 14.3726 3.2563
-12.2995 14.1006 3.2563
-12.2927 13.8317 3.2563
-12.2827 13.5649 3.2560
-12.4912 13.5406 3.3144
-12.7025 13.5159 3.3743
-12.8153 13.3850 3.4087
-12.7965 13.1196 3.4087
-12.7755 12.8574 3.4087
-12.7525 12.5984 3.4087
-12.7275 12.3426 3.4087
-12.7006 12.0901 3.4087
-12.6718 11.8408 3.4087
-12.6413 11.5946 3.4086
-12.6087 11.3514 3.4086
-12.5746 11.1113 3.4085
-12.5388 10.8745 3.4084
-12.5016 10.6408 3.4083
-12.4629 10.4102 3.4082
-12.4228 10.1827 3.4081
-12.3814 9.9584 3.4080
-12.3387 9.7370 3.4079
-12.2948 9.5188 3.4078
-12.2497 9.3036 3.4077
-12.2035 9.0913 3.4077
-12.1562 8.8820 3.4076
-12.1079 8.6756 3.4075
-12.0586 8.4722 3.4074
-12.0083 8.2716 3.4073
-11.9571 8.0739 3.4072
-11.9051 7.8789 3.4072
-11.8522 7.6868 3.4071
-11.7986 7.4974 3.4070
-11.7442 7.3107 3.4069
-11.6891 7.1268 3.4068
-11.6333 6.9454 3.4068
-11.5769 6.7667 3.4067
-11.5186 6.5899 3.4062
-11.4590 6.4152 3.4056
-11.3985 6.2430 3.4048
-11.3374 6.0731 3.4040
-11.2753 5.9057 3.4030
-11.2126 5.7406 3.4020
-11.1491 5.5778 3.4009
-11.0851 5.4174 3.3997
-11.0204 5.2592 3.3984
-10.9551 5.1034 3.3970
-10.8893 4.9498 3.3956
-10.8231 4.7985 3.3942
-10.7566 4.6495 3.3927
-10.6884 4.5022 3.3907
-10.6200 4.3572 3.3888
-10.5514 4.2144 3.3869
-10.4863 4.0753 3.3861
-10.4224 3.9387 3.3858
-10.3582 3.8042 3.3854
-10.2940 3.6717 3.3851
-10.2295 3.5412 3.3848
-10.1650 3.4126 3.3845
-10.1003 3.2859 3.3842
-10.0355 3.1611 3.3839
-9.9707 3.0382 3.3836
-9.9058 2.9171 3.3833
-9.8408 2.7978 3.3830
-9.7757 2.6803 3.3827
-9.7106 2.5645 3.3824
-9.6455 2.4504 3.3821
-9.5803 2.3380 3.3819
-9.5152 2.2273 3.3816
-9.4500 2.1183 3.3813
-9.3848 2.0108 3.3810
-9.3196 1.9050 3.3808
-9.2545 1.8007 3.3805
-9.1894 1.6980 3.3803
-9.1243 1.5968 3.3800
-9.0546 1.4963 3.3780
-8.9819 1.3969 3.3749
-8.9095 1.2991 3.3718
-8.8359 1.2027 3.3682
-8.7623 1.1079 3.3645
-8.6891 1.0147 3.3608
-8.6162 0.9231 3.3573
-8.5428 0.8329 3.3535
-8.4691 0.7441 3.3494
-8.3957 0.6569 3.3454
-8.3227 0.5711 3.3415
-8.2502 0.4867 3.3376
-8.1775 0.4038 3.3336
-8.1052 0.3223 3.3297
2.8168 23.0429 3.4087
2.6098 23.1215 3.4087
2.4013 23.1942 3.4087
2.1912 23.2609 3.4087
1.9797 23.3216 3.4087
1.7670 23.3763 3.4087
1.5531 23.4248 3.4087
1.3383 23.4671 3.4087
1.1226 23.5031 3.4087
0.9062 23.5328 3.4087
0.6891 23.5562 3.4087
0.4717 23.5732 3.4087
0.2539 23.5839 3.4087
0.0360 23.5882 3.4087
-0.1819 23.5860 3.4087
-0.3998 23.5775 3.4087
-0.6174 23.5626 3.4087
-0.8345 23.5412 3.4087
-1.0512 23.5136 3.4087
-1.2671 23.4797 3.4087
-1.4823 23.4394 3.4087
-1.6965 23.3930 3.4087
-1.9096 23.3403 3.4087
-2.1215 23.2816 3.4087
-2.3320 23.2169 3.4087
-2.5411 23.1462 3.4087
-2.7486 23.0695 3.4087
-2.9544 22.9871 3.4087
-3.1583 22.8990 3.4087
-3.3603 22.8053 3.4087
-3.5602 22.7061 3.4087
-3.7580 22.6015 3.4087
-3.9535 22.4916 3.4087
-4.1466 22.3766 3.4087
-4.3372 22.2565 3.4087
-4.5253 22.1315 3.4087
-4.7108 22.0018 3.4087
-4.8935 21.8674 3.4087
-5.0734 21.7285 3.4087
-5.2505 21.5853 3.4087
-5.4246 21.4378 3.4087
-5.5957 21.2862 3.4087
-5.7637 21.1307 3.4087
-5.9286 20.9714 3.4087
-6.0904 20.8085 3.4087
-6.2489 20.6420 3.4087
-4.8778 15.5930 2.5963
-5.0089 15.5086 2.6042
-5.1394 15.4251 2.6128
-6.8500 19.9444 3.4087
-6.9919 19.7628 3.4087
-7.1304 19.5785 3.4087
-7.2654 19.3918 3.4087
-7.3970 19.2029 3.4087
-7.5252 19.0116 3.4087
-7.6500 18.8185 3.4087
-7.7713 18.6234 3.4087
-7.8891 18.4266 3.4087
-8.0035 18.2282 3.4087
-7.7517 17.2222 3.2563
-7.8545 17.0300 3.2563
-7.9540 16.8366 3.2563
-8.0504 16.6422 3.2563
-8.1433 16.4468 3.2563
-8.2332 16.2507 3.2563
-8.3199 16.0538 3.2563
-8.4034 15.8564 3.2563
-8.4839 15.6585 3.2563
-8.5612 15.4602 3.2563
-8.6355 15.2617 3.2563
-8.7068 15.0629 3.2563
-8.7751 14.8641 3.2563
-8.8404 14.6653 3.2563
-8.9029 14.4667 3.2563
-8.9626 14.2681 3.2563
-9.0192 14.0699 3.2563
-9.0732 13.8720 3.2563
-9.1920 13.7758 3.2804
-9.3629 13.7567 3.3237
-9.5354 13.7372 3.3681
-9.6955 13.6976 3.4086
-9.7367 13.4915 3.4081
-9.7753 13.2863 3.4077
-9.8113 13.0820 3.4072
-9.8447 12.8786 3.4067
-9.8757 12.6763 3.4062
-9.9042 12.4751 3.4058
-9.9303 12.2750 3.4053
-9.9540 12.0761 3.4048
-9.9755 11.8785 3.4044
-9.9947 11.6820 3.4039
-10.0118 11.4869 3.4035
-10.0266 11.2932 3.4030
-10.0394 11.1008 3.4026
-10.0501 10.9098 3.4021
-10.0588 10.7203 3.4017
-10.0656 10.5323 3.4012
-10.0705 10.3457 3.4008
-10.0735 10.1607 3.4004
-10.0747 9.9772 3.3999
-10.0741 9.7952 3.3995
-10.0718 9.6148 3.3991
-10.0678 9.4361 3.3987
-10.0622 9.2589 3.3982
-10.0549 9.0834 3.3978
-10.0462 8.9094 3.3974
-10.0359 8.7372 3.3970
-10.0242 8.5666 3.3966
-10.0110 8.3976 3.3962
-9.9965 8.2303 3.3958
-9.9806 8.0647 3.3954
-9.9634 7.9007 3.3950
-9.9449 7.7384 3.3946
-9.9252 7.5778 3.3943
-9.9043 7.4189 3.3939
-9.8822 7.2616 3.3935
-9.7556 6.5004 3.3917
-9.8590 7.1060 3.3931
-9.7272 6.3531 3.3913
-9.8347 6.9521 3.3928
-9.6979 6.2074 3.3910
-9.8094 6.7999 3.3924
-9.6677 6.0635 3.3906
-9.7830 6.6493 3.3920
-9.6367 5.9211 3.3903
-9.6047 5.7803 3.3900
-9.4333 5.1007 3.3883
-9.5720 5.6412 3.3896
-9.3969 4.9694 3.3880
-9.5385 5.5037 3.3893
-9.3597 4.8398 3.3877
-9.5041 5.3678 3.3890
-9.3219 4.7117 3.3874
-9.4691 5.2334 3.3887
-9.2835 4.5851 3.3871
-9.2445 4.4601 3.3868
-9.0412 3.8571 3.3853
-9.2050 4.3365 3.3865
-8.9990 3.7409 3.3851
-9.1648 4.2144 3.3862
-9.1241 4.0939 3.3859
-8.9563 3.6261 3.3848
-9.0829 3.9748 3.3856
-8.9132 3.5127 3.3845
-8.8258 3.2901 3.3840
-8.8697 3.4007 3.3842
-8.7814 3.1810 3.3837
-8.6003 2.7576 3.3827
-8.5542 2.6551 3.3824
-8.7366 3.0731 3.3835
-8.5077 2.5538 3.3822
-8.6915 2.9666 3.3832
-8.4610 2.4538 3.3819
-8.6461 2.8614 3.3829
-8.4140 2.3551 3.3817
-8.3667 2.2577 3.3814
-8.1267 1.7887 3.3803
-8.3192 2.1615 3.3812
-8.0780 1.6985 3.3800
-8.2714 2.0665 3.3810
-8.0281 1.6092 3.3794
-8.2234 1.9727 3.3807
-7.9730 1.5201 3.3766
-8.1751 1.8801 3.3805
-7.9178 1.4323 3.3738
-7.8627 1.3458 3.3711
-7.5789 0.9304 3.3545
-7.8052 1.2601 3.3674
-7.5214 0.8509 3.3509
-7.7487 1.1759 3.3642
-7.4640 0.7725 3.3473
-7.6922 1.0929 3.3610
-7.4067 0.6953 3.3438
-7.6358 1.0111 3.3578
-7.3494 0.6193 3.3404
-7.2924 0.5444 3.3370
-7.2350 0.4706 3.3335
-7.1777 0.3979 3.3300
1.9995 16.6040 3.2563
1.8515 16.6506 3.2563
1.7026 16.6937 3.2563
1.5529 16.7332 3.2563
1.4024 16.7691 3.2563
1.2512 16.8014 3.2563
1.0994 16.8301 3.2563
0.9470 16.8550 3.2563
0.7942 16.8763 3.2563
0.6409 16.8938 3.2563
0.4873 16.9076 3.2563
0.3335 16.9176 3.2563
0.1795 16.9239 3.2563
0.0254 16.9264 3.2563
-0.1286 16.9251 3.2563
-0.2827 16.9201 3.2563
-0.4365 16.9113 3.2563
-0.5902 16.8988 3.2563
-0.7436 16.8825 3.2563
-0.8966 16.8624 3.2563
-1.0491 16.8387 3.2563
-1.2011 16.8113 3.2563
-1.3525 16.7802 3.2563
-1.5033 16.7455 3.2563
-1.6533 16.7072 3.2563
-1.8024 16.6652 3.2563
-1.9507 16.6198 3.2563
-2.0980 16.5709 3.2563
-2.2443 16.5185 3.2563
-2.3895 16.4627 3.2563
-2.5336 16.4035 3.2563
-2.6764 16.3411 3.2563
-2.8179 16.2754 3.2563
-2.9581 16.2065 3.2563
-3.0969 16.1344 3.2563
-3.2342 16.0593 3.2563
-3.3700 15.9811 3.2563
-3.5043 15.9000 3.2563
-3.6369 15.8160 3.2563
-3.7679 15.7292 3.2563
-3.8971 15.6396 3.2563
-4.0246 15.5473 3.2563
-4.1504 15.4524 3.2563
-4.2742 15.3550 3.2563
-4.3962 15.2551 3.2563
-4.5163 15.1528 3.2563
-4.6345 15.0482 3.2563
-4.7507 14.9413 3.2563
-4.8649 14.8323 3.2563
-4.9770 14.7212 3.2563
-5.0871 14.6081 3.2563
-5.1952 14.4930 3.2563
-5.3012 14.3761 3.2563
-5.4050 14.2573 3.2563
-5.5067 14.1369 3.2563
-5.6117 14.0284 3.2594
-5.7541 14.0142 3.2851
-5.8974 13.9998 3.3115
-6.0413 13.9852 3.3388
-6.1860 13.9705 3.3668
-6.3315 13.9555 3.3956
-6.4461 13.8720 3.4085
-6.5338 13.7332 3.4082
-6.6192 13.5933 3.4079
-6.7023 13.4525 3.4076
-6.7831 13.3107 3.4072
-6.8617 13.1681 3.4069
-6.9379 13.0247 3.4066
-7.0118 12.8805 3.4063
-7.0835 12.7358 3.4059
-7.1530 12.5904 3.4056
-7.2202 12.4446 3.4053
-7.2852 12.2983 3.4049
-7.3480 12.1516 3.4046
-7.4086 12.0046 3.4043
-7.4670 11.8574 3.4039
-7.5233 11.7100 3.4036
-7.5774 11.5624 3.4032
-7.6295 11.4147 3.4029
-7.6794 11.2670 3.4026
-7.7273 11.1194 3.4022
-7.7731 10.9718 3.4019
-7.8170 10.8243 3.4015
-7.8588 10.6770 3.4012
-7.8987 10.5299 3.4009
-7.9366 10.3831 3.4005
-7.9726 10.2366 3.4002
-8.0068 10.0904 3.3999
-8.0390 9.9446 3.3995
-8.0695 9.7992 3.3992
-8.0981 9.6544 3.3988
-8.1249 9.5100 3.3985
-8.1500 9.3661 3.3982
-8.1734 9.2228 3.3978
-8.1951 9.0801 3.3975
-8.2151 8.9381 3.3972
-8.2335 8.7967 3.3968
-8.2503 8.6559 3.3965
-8.2655 8.5159 3.3962
-8.2792 8.3767 3.3959
-8.2913 8.2382 3.3955
-8.3019 8.1004 3.3952
-8.3111 7.9635 3.3949
-8.3188 7.8274 3.3946
-8.3251 7.6922 3.3943
-8.3301 7.5578 3.3939
-8.3337 7.4243 3.3936
-8.3359 7.2917 3.3933
-8.3369 7.1600 3.3930
-8.3366 7.0292 3.3927
-8.3350 6.8994 3.3924
-8.3323 6.7705 3.3921
-8.3283 6.6425 3.3918
-8.3232 6.5156 3.3915
-8.3170 6.3896 3.3912
-8.3096 6.2646 3.3909
-8.3011 6.1407 3.3906
-8.2916 6.0177 3.3903
-8.2810 5.8957 3.3900
-8.2694 5.7748 3.3897
-8.2568 5.6548 3.3895
-8.2433 5.5359 3.3892
-8.2288 5.4181 3.3889
-8.2134 5.3013 3.3886
-8.1971 5.1854 3.3883
-8.1799 5.0707 3.3881
-8.1618 4.9570 3.3878
-8.1429 4.8443 3.3875
-8.0815 4.5125 3.3867
-8.1233 4.7327 3.3873
-8.1027 4.6221 3.3870
-8.0594 4.4040 3.3865
-7.9642 3.9804 3.3855
-8.0367 4.2966 3.3862
-7.9387 3.8771 3.3852
-8.0132 4.1901 3.3860
-7.9125 3.7748 3.3850
-7.9890 4.0848 3.3857
-7.8857 3.6735 3.3847
-7.8583 3.5732 3.3845
-7.8303 3.4740 3.3842
-7.6821 2.9930 3.3831
-7.8018 3.3758 3.3840
-7.6508 2.8997 3.3828
-7.6191 2.8075 3.3826
-7.7727 3.2786 3.3838
-7.5870 2.7163 3.3824
-7.5543 2.6260 3.3822
-7.7430 3.1824 3.3835
-7.5213 2.5367 3.3819
-7.4878 2.4483 3.3817
-7.7128 3.0872 3.3833
-7.4539 2.3609 3.3815
-7.3497 2.1044 3.3809
-7.4195 2.2745 3.3813
-7.3848 2.1890 3.3811
-7.3142 2.0208 3.3807
-7.1689 1.6954 3.3799
-7.2784 1.9380 3.3805
-7.1278 1.6154 3.3778
-7.2422 1.8562 3.3803
-7.0856 1.5362 3.3753
-7.0432 1.4580 3.3729
-7.2057 1.7754 3.3801
-7.0000 1.3807 3.3702
-6.9550 1.3040 3.3667
-6.7325 0.9363 3.3520
-6.9110 1.2286 3.3638
-6.6870 0.8656 3.3488
-6.6414 0.7958 3.3457
-6.8668 1.1541 3.3610
-6.5957 0.7269 3.3426
-6.8225 1.0806 3.3582
-6.5500 0.6589 3.3395
-6.5042 0.5919 3.3365
-6.7780 1.0081 3.3553
-6.4581 0.5257 3.3333
-6.4120 0.4604 3.3302
1.6479 13.8980 3.4072
1.5255 13.9322 3.4073
1.4024 13.9638 3.4074
1.2787 13.9928 3.4075
1.1545 14.0191 3.4076
1.0298 14.0428 3.4077
0.9046 14.0637 3.4077
0.7791 14.0820 3.4078
0.6533 14.0976 3.4079
0.5272 14.1105 3.4079
0.4008 14.1206 3.4080
0.2743 14.1280 3.4080
0.1476 14.1327 3.4080
0.0209 14.1346 3.4081
-0.1058 14.1338 3.4081
-0.2325 14.1302 3.4081
-0.3590 14.1239 3.4081
-0.4855 14.1148 3.4081
-0.6117 14.1030 3.4081
-0.7376 14.0885 3.4081
-0.8633 14.0713 3.4081
-0.9886 14.0513 3.4080
-1.1134 14.0287 3.4080
-1.2379 14.0034 3.4080
-1.3617 13.9755 3.4079
-1.4851 13.9449 3.4079
-1.6078 13.9118 3.4078
-1.7298 13.8760 3.4077
-1.8511 13.8377 3.4077
-1.9717 13.7969 3.4076
-2.0915 13.7535 3.4075
-2.2104 13.7077 3.4074
-2.3283 13.6595 3.4073
-2.4454 13.6088 3.4072
-2.5615 13.5558 3.4071
-2.6765 13.5004 3.4070
-2.7905 13.4428 3.4069
-2.9034 13.3829 3.4068
-3.0151 13.3208 3.4066
-3.1257 13.2565 3.4065
-3.2350 13.1901 3.4064
-3.3431 13.1216 3.4062
-3.4499 13.0511 3.4061
-3.5554 12.9786 3.4059
-3.6596 12.9041 3.4058
-3.7624 12.8277 3.4056
-3.8637 12.7495 3.4054
-3.9637 12.6695 3.4053
-4.2548 12.4190 3.4047
-4.0622 12.5877 3.4051
-4.7094 11.9702 3.4037
-4.3489 12.3323 3.4045
-4.1593 12.5042 3.4049
-5.1242 11.4875 3.4027
-4.4413 12.2440 3.4043
-4.7956 11.8762 3.4035
-5.4978 10.9774 3.4015
-5.2022 11.3875 3.4024
-4.5323 12.1541 3.4041
-5.5676 10.8726 3.4013
-4.8802 11.7808 3.4033
-5.8299 10.4459 3.4003
-5.2786 11.2864 3.4022
-4.6217 12.0629 3.4039
-5.6356 10.7670 3.4011
-5.3534 11.1843 3.4020
-4.9632 11.6842 3.4031
-5.8913 10.3375 3.4001
-5.7021 10.6606 3.4008
-5.4264 11.0813 3.4018
-6.1204 9.8989 3.3991
-5.0445 11.5865 3.4029
-5.9510 10.2286 3.3998
-6.3703 9.3418 3.3978
-5.7668 10.5536 3.4006
-6.1736 9.7881 3.3988
-6.5807 8.7796 3.3965
-6.0091 10.1192 3.3996
-6.4155 9.2296 3.3976
-6.7533 8.2167 3.3952
-6.6182 8.6669 3.3963
-6.2252 9.6769 3.3986
-6.4592 9.1172 3.3973
-6.0656 10.0092 3.3993
-6.7834 8.1044 3.3950
-6.5012 9.0048 3.3971
-6.6542 8.5542 3.3960
-6.2752 9.5655 3.3983
-6.8899 7.6571 3.3939
-6.8122 7.9922 3.3947
-6.5417 8.8922 3.3968
-6.6887 8.4417 3.3958
-6.3235 9.4537 3.3981
-6.9131 7.5458 3.3937
-6.9927 7.1040 3.3927
-6.8395 7.8803 3.3945
-6.7217 8.3291 3.3955
-7.0639 6.5605 3.3914
-7.0094 6.9945 3.3924
-6.9350 7.4349 3.3934
-6.8654 7.7685 3.3942
-7.1057 6.0288 3.3901
-7.0248 6.8853 3.3921
-7.0745 6.4532 3.3911
-7.1205 5.5108 3.3889
-6.9555 7.3243 3.3932
-7.1204 5.4090 3.3887
-7.0390 6.7766 3.3919
-7.1108 5.9240 3.3899
-7.0840 6.3462 3.3909
-6.9747 7.2140 3.3929
-7.1194 5.3079 3.3884
-7.0521 6.6683 3.3916
-7.1147 5.8199 3.3897
-7.0923 6.2399 3.3906
-7.1174 5.2073 3.3882
-7.1106 5.0082 3.3877
-7.0780 4.5219 3.3866
-7.1144 5.1074 3.3880
-7.1177 5.7163 3.3894
-7.0996 6.1341 3.3904
-7.0690 4.4267 3.3864
-7.1058 4.9096 3.3875
-7.0250 4.0529 3.3855
-7.0592 4.3322 3.3861
-7.0121 3.9613 3.3852
-6.9535 3.6018 3.3844
-6.9985 3.8703 3.3850
-6.9842 3.7801 3.3848
-6.9692 3.6906 3.3846
-7.1196 5.6132 3.3892
-6.8655 3.1687 3.3833
-6.8460 3.0843 3.3831
-7.1002 4.8116 3.3873
-6.8260 3.0007 3.3829
-7.0486 4.2384 3.3859
-6.8054 2.9177 3.3827
-6.7842 2.8355 3.3825
-6.6463 2.3575 3.3813
-6.6216 2.2804 3.3812
-6.9372 3.5137 3.3842
-6.5964 2.2040 3.3810
-6.5708 2.1283 3.3808
-6.7625 2.7540 3.3823
-6.5448 2.0533 3.3806
-6.5183 1.9791 3.3804
-7.0936 4.7144 3.3870
-6.4914 1.9056 3.3802
-7.0371 4.1453 3.3857
-6.4641 1.8327 3.3801
-6.9202 3.4264 3.3839
-6.4364 1.7606 3.3799
-6.4062 1.6886 3.3786
-6.7403 2.6732 3.3821
-6.2041 1.2695 3.3634
-7.0863 4.6178 3.3868
-6.1693 1.2024 3.3608
-6.3739 1.6170 3.3764
-6.1342 1.1360 3.3583
-6.0989 1.0704 3.3557
-6.9026 3.3398 3.3837
-6.0626 1.0055 3.3528
-6.0262 0.9413 3.3499
-6.7175 2.5932 3.3819
-5.9897 0.8779 3.3471
-6.3413 1.5461 3.3742
-5.9529 0.8152 3.3443
-5.9160 0.7533 3.3415
-6.8843 3.2539 3.3835
-5.8789 0.6922 3.3387
-5.8418 0.6317 3.3360
-6.6942 2.5139 3.3817
-6.3084 1.4760 3.3720
-5.8042 0.5720 3.3332
-6.6705 2.4354 3.3815
-6.2738 1.4063 3.3690
-5.7664 0.5131 3.3304
-6.2386 1.3374 3.3660
