ply
format ascii 1.0
element vertex 1403
property float32 x
property float32 y
property float32 z
end_header
-4.3441 14.9527 -7.5461
-4.5158 14.9329 -7.5450
-4.6881 14.9129 -7.5442
-4.6718 14.3136 -7.2503
-4.8333 14.2785 -7.2422
-4.9745 14.1851 -7.2048
-5.1268 14.1250 -7.1846
-5.5259 14.7234 -7.5001
-5.6646 14.6083 -7.4530
-5.8203 14.5393 -7.4297
-5.8296 14.1167 -7.2256
-5.6571 13.2885 -6.8134
-6.0718 13.8446 -7.1110
-6.2648 13.8745 -7.1393
-6.3412 13.6483 -7.0361
-22.3739 14.0055 -9.1945
-22.0622 13.5015 -8.9398
-22.1723 13.2625 -8.8596
-22.6779 13.2558 -8.9360
-22.6777 12.9505 -8.8125
-22.6391 12.6277 -8.6764
-4.8918 14.6762 -6.5684
-4.5355 15.2291 -6.7948
-4.9816 14.4269 -6.4640
-4.4047 14.2282 -6.3545
-5.2246 14.6200 -6.5581
-4.6533 14.4779 -6.4727
-5.4162 14.6579 -6.5829
-5.5949 14.6560 -6.5903
-6.1255 14.1910 -6.4157
-5.7231 14.5227 -6.5387
-6.1328 13.8007 -6.2484
-5.8674 14.4339 -6.5073
-6.1703 13.4951 -6.1192
-5.7218 13.6549 -6.1646
-6.3935 13.5977 -6.1754
-21.4831 13.5009 -7.5063
-21.8921 13.4530 -7.5343
-22.3310 13.4158 -7.5701
-22.8387 12.5049 -7.2893
-22.4639 13.1910 -7.5011
-22.7306 12.1524 -7.1465
-22.8776 13.1276 -7.5250
-22.6774 11.8347 -7.0233
-22.8301 12.7984 -7.3971
-39.4260 12.3327 -9.2746
-39.2381 11.8533 -9.0860
-39.1618 11.4133 -8.9258
-3.8399 13.6207 -5.3021
-4.0551 13.8201 -5.3833
-4.2780 14.0265 -5.4675
-4.5020 14.2183 -5.5463
-4.7913 14.5921 -5.6964
-5.0176 14.7519 -5.7633
-5.0521 14.3526 -5.6119
-5.2745 14.4926 -5.6714
-5.4831 14.5836 -5.7120
-5.5589 14.3234 -5.6152
-5.5950 13.9765 -5.4843
-5.5168 13.3701 -5.2515
-5.9301 13.9524 -5.4857
-6.1778 14.1196 -5.5572
-6.1688 13.7038 -5.3993
-6.2053 13.4058 -5.2877
-6.4874 13.6369 -5.3850
-6.8060 13.9272 -5.5060
-6.9196 13.7904 -5.4586
-13.3133 11.2897 -4.8694
-13.4178 11.1470 -4.8254
-21.7695 14.3451 -6.5135
-21.9125 14.1274 -6.4480
-21.8622 13.4851 -6.2221
-21.4248 13.5121 -6.2002
-22.2189 13.4014 -6.2188
-22.7632 12.8197 -6.0587
-22.4015 13.2093 -6.1659
-22.9323 12.6168 -6.0017
-22.4982 12.9665 -6.0896
-22.8902 12.2996 -5.8904
-23.2224 11.8915 -5.7765
-22.6629 11.8896 -5.7340
-38.9110 12.7237 -7.2827
-38.7360 12.2493 -7.1141
-39.9914 11.3715 -6.9319
-38.9676 11.9058 -7.0213
-39.8798 10.9213 -6.7777
-39.6065 11.6802 -7.0002
-39.6405 10.4424 -6.6043
-3.9866 14.9546 -5.0057
-4.1524 14.9448 -5.0040
-3.9743 13.7432 -4.6032
-4.1912 13.9441 -4.6720
-4.4917 14.3952 -4.8249
-4.7839 14.7853 -4.9574
-4.9470 14.7601 -4.9509
-5.0999 14.7041 -4.9340
-5.2758 14.7127 -4.9389
-5.3238 14.3720 -4.8266
-5.3748 14.0573 -4.7230
-5.7110 14.4818 -4.8678
-5.7611 14.1741 -4.7666
-5.7870 13.8229 -4.6508
-6.3711 14.7839 -4.9766
-6.2415 14.0783 -4.7415
-6.3445 13.9179 -4.6900
-6.4460 13.7598 -4.6393
-6.5461 13.6039 -4.5893
-6.6447 13.4497 -4.5400
-13.6419 13.0694 -4.5646
-21.6480 14.3065 -5.1854
-20.9113 13.5237 -4.9152
-21.3332 13.4987 -4.9200
-22.1693 13.7224 -5.0163
-21.9707 13.3007 -4.8769
-22.2809 13.1894 -4.8514
-22.4444 12.9887 -4.7932
-22.3893 12.6636 -4.6891
-22.6607 12.5239 -4.6536
-22.4836 12.1384 -4.5269
-22.4125 11.8167 -4.4236
-23.5861 12.1405 -4.5627
-31.6985 11.5053 -4.6344
-38.7635 12.8019 -5.2763
-39.0881 12.4892 -5.1912
-38.7745 11.9751 -5.0224
-39.3182 11.7262 -4.9648
-39.4790 11.3582 -4.8576
-39.4068 10.9248 -4.7224
-39.0819 10.4279 -4.5590
-47.8784 9.8399 -4.6910
-3.9369 14.9795 -4.2264
-4.1005 14.9700 -4.2232
-3.8968 13.6695 -3.8559
-4.1043 13.8521 -3.9069
-4.3150 14.0292 -3.9563
-4.5728 14.3382 -4.0429
-4.8608 14.7144 -4.1483
-5.0182 14.6801 -4.1380
-5.1657 14.6169 -4.1196
-5.3692 14.7082 -4.1446
-5.3403 14.1736 -3.9933
-5.6813 14.6203 -4.1184
-5.6494 14.1062 -3.9729
-5.8704 14.2318 -4.0075
-5.9754 14.0738 -3.9623
-6.0789 13.9181 -3.9176
-6.1810 13.7646 -3.8736
-6.4852 14.0542 -3.9543
-6.6022 13.9300 -3.9185
-6.7180 13.8068 -3.8829
-7.2227 14.4653 -4.0672
-27.8272 31.2833 -8.7144
-28.1301 30.9914 -8.6287
-28.4328 30.7000 -8.5430
-29.7759 31.5104 -8.7637
-30.0862 31.2064 -8.6743
-35.1190 33.6254 -9.3239
-35.6648 33.4722 -9.2754
-35.9571 33.0784 -9.1600
-35.6470 32.1434 -8.8949
-35.8554 31.6899 -8.7631
-36.4125 31.5427 -8.7159
-36.9767 31.3936 -8.6680
-37.4240 31.1391 -8.5910
-37.4836 30.5644 -8.4255
-37.5424 29.9975 -8.2622
-20.7772 13.7692 -3.7582
-20.9033 13.5586 -3.6963
-21.3222 13.5344 -3.6850
-21.9040 13.6035 -3.6991
-22.0702 13.4083 -3.6411
-22.2368 13.2126 -3.5829
-22.4477 13.0419 -3.5315
-22.5880 12.8290 -3.4685
-22.4701 12.4727 -3.3669
-23.1882 12.5761 -3.3892
-23.6484 12.5280 -3.3704
-38.2306 12.7480 -3.2721
-38.0110 12.2673 -3.1347
-39.0191 12.1772 -3.0968
-39.0603 11.7768 -2.9797
-39.4229 11.4717 -2.8865
-39.5858 11.1054 -2.7778
-38.8940 10.5073 -2.6114
-3.6048 15.1817 -3.5112
-3.7695 15.1829 -3.5092
-3.8848 14.9904 -3.4624
-4.0411 14.9621 -3.4534
-4.1975 14.9336 -3.4443
-4.3542 14.9051 -3.4351
-4.2838 14.1266 -3.2531
-4.6684 14.8478 -3.4163
-4.5396 13.9395 -3.2045
-4.7570 14.1169 -3.2423
-4.9814 14.2997 -3.2812
-5.1542 14.3242 -3.2836
-5.5530 14.9531 -3.4243
-5.4628 14.2636 -3.2630
-5.5686 14.1085 -3.2240
-5.6729 13.9557 -3.1855
-5.9164 14.1411 -3.2241
-6.0334 14.0192 -3.1925
-6.3209 14.2863 -3.2492
-6.4329 14.1498 -3.2141
-6.5593 14.0480 -3.1867
-6.6808 13.9381 -3.1574
-7.0297 14.2927 -3.2332
-7.1626 14.1983 -3.2071
-26.6046 35.1202 -7.6546
-27.1409 35.0938 -7.6289
-27.6841 35.0667 -7.6024
-28.2320 35.0358 -7.5746
-27.9549 33.9922 -7.3279
-27.1129 32.3065 -6.9439
-27.3623 31.9519 -6.8467
-27.6106 31.5997 -6.7499
-27.7647 31.1452 -6.6312
-27.8348 30.6059 -6.4945
-28.3489 30.5559 -6.4615
-29.7598 31.4447 -6.6256
-13.6730 13.8849 -2.9037
-31.4226 31.2839 -6.5164
-31.9153 31.1515 -6.4624
-35.6814 34.1449 -7.0534
-35.8070 33.5934 -6.9092
-36.0851 33.1903 -6.7954
-36.3622 32.7886 -6.6817
-36.2715 32.0639 -6.5023
-36.7894 31.8813 -6.4328
-38.0850 29.8562 -5.8568
-38.3349 29.4492 -5.7407
-38.4720 28.9590 -5.6082
-38.3031 28.2478 -5.4333
-38.9626 28.1491 -5.3760
-39.5771 28.0076 -5.3095
-20.9282 14.5050 -2.7286
-21.1774 14.3733 -2.6821
-21.2197 14.1012 -2.6093
-20.9678 13.6405 -2.5019
-21.4251 13.6423 -2.4793
-22.7434 14.1719 -2.5509
-22.9603 13.9982 -2.4943
-21.8346 13.0219 -2.2959
-22.5226 13.1366 -2.2905
-21.8249 12.4467 -2.1449
-23.3361 13.0094 -2.2144
-23.3014 12.6948 -2.1330
-23.3154 12.4103 -2.0568
-23.1837 12.0528 -1.9688
-22.9388 11.6442 -1.8731
-22.8793 11.3363 -1.7941
-31.7438 12.4201 -1.5970
-39.2378 13.2088 -1.3872
-38.5761 12.5736 -1.2502
-38.6713 12.1938 -1.1398
-39.3931 12.0056 -1.0460
-40.0208 11.7770 -0.9462
-39.6302 11.2488 -0.8221
-39.7285 10.8648 -0.7094
-39.8145 10.4778 -0.5963
-39.7309 10.0483 -0.4811
-3.6977 15.1019 -2.7367
-3.8599 15.1030 -2.7328
-4.0229 15.1040 -2.7287
-4.1470 14.9619 -2.6985
-4.3514 15.1059 -2.7198
-4.5354 15.1683 -2.7261
-4.5753 14.7585 -2.6474
-4.6857 14.5936 -2.6127
-4.8389 14.5654 -2.6023
-4.8720 14.1863 -2.5293
-5.1464 14.5086 -2.5810
-5.1983 14.2003 -2.5204
-5.5265 14.6393 -2.5921
-5.6166 14.4373 -2.5501
-5.7436 14.3363 -2.5258
-5.8699 14.2358 -2.5015
-5.9363 13.9970 -2.4528
-6.3331 14.5257 -2.5382
-6.4946 14.4977 -2.5259
-6.6403 14.4337 -2.5071
-6.7722 14.3405 -2.4831
-6.8641 14.1663 -2.4450
-6.9880 14.0619 -2.4188
-7.1112 13.9580 -2.3926
-7.2338 13.8546 -2.3664
-26.1362 32.9943 -5.1170
-26.6185 32.9298 -5.0714
-27.0782 32.8305 -5.0197
-30.2104 35.9008 -5.4480
-28.0918 32.7230 -4.9273
-27.1628 31.0174 -4.6330
-29.1278 32.6079 -4.8300
-28.4252 31.1982 -4.5813
-28.7053 30.8900 -4.4953
-29.4909 31.1166 -4.4861
-29.6328 30.6577 -4.3772
-13.6674 13.8652 -1.9597
-33.1569 32.9833 -4.6132
-33.5547 32.7311 -4.5281
-33.9538 32.4774 -4.4421
-37.7878 32.1218 -4.0574
-37.5599 29.4855 -3.4846
-37.7638 29.0561 -3.3699
-37.9741 28.6341 -3.2558
-39.4137 29.1230 -3.2430
-39.5572 28.6390 -3.1195
-39.8247 28.2473 -3.0058
-21.2684 14.1737 -1.3937
-21.2308 13.8535 -1.3222
-21.3525 13.6398 -1.2610
-21.7950 13.6273 -1.2175
-22.1052 13.5255 -1.1648
-21.8275 13.0671 -1.0816
-22.2073 13.0045 -1.0313
-22.5518 12.9153 -0.9776
-22.7302 12.7275 -0.9156
-23.0146 12.5965 -0.8569
-23.0512 12.3289 -0.7886
-22.8081 11.9175 -0.7117
-22.7501 11.6093 -0.6420
-39.0828 12.0406 0.9043
-39.3410 11.7084 1.0191
-39.7133 11.4059 1.1384
-3.8086 15.1106 -1.9917
-3.9358 14.9840 -1.9689
-4.0901 14.9635 -1.9599
-4.2125 14.8296 -1.9358
-4.3996 14.9220 -1.9411
-4.5550 14.9010 -1.9312
-4.7108 14.8798 -1.9211
-4.8790 14.8949 -1.9154
-5.0953 15.0484 -1.9271
-5.3174 15.2055 -1.9388
-5.2569 14.5666 -1.8490
-5.5220 14.8385 -1.8747
-5.5483 14.4683 -1.8190
-5.7029 14.4415 -1.8065
-5.8580 14.4145 -1.7937
-6.0040 14.3640 -1.7777
-6.1966 14.4218 -1.7747
-6.3317 14.3429 -1.7547
-5.8374 12.8769 -1.5657
-6.6005 14.1854 -1.7140
-6.6964 14.0272 -1.6837
-6.8679 14.0282 -1.6724
-6.9893 13.9262 -1.6486
-7.1101 13.8247 -1.6246
-28.2149 36.9683 -3.5830
-28.4962 36.5894 -3.4923
-28.0920 35.3522 -3.3207
-26.8584 33.1302 -3.0604
-27.0214 32.6740 -2.9659
-26.9687 31.9699 -2.8493
-27.6638 32.1525 -2.8112
-28.1324 32.0596 -2.7472
-28.2945 31.6177 -2.6527
-28.4489 31.1740 -2.5581
-29.6432 31.8545 -2.5536
-29.8807 31.4899 -2.4629
-30.6096 31.6363 -2.4109
-13.6681 13.8547 -1.0272
-30.4830 30.3046 -2.1824
-30.2358 29.4810 -2.0586
-22.1615 14.2050 -0.0569
-22.2656 13.9717 0.0061
-21.5088 13.2106 0.0667
-21.9606 13.1994 0.1298
-22.4529 13.2036 0.1954
-22.6455 13.0261 0.2601
-22.5584 12.6896 0.3215
-22.5170 12.3836 0.3828
-22.4722 12.0799 0.4437
-47.2974 15.2309 3.3289
-45.5925 14.2029 3.3289
-39.5209 11.8987 2.9896
-40.5786 11.7958 3.1765
-39.2570 11.0062 3.1765
-38.0178 10.2684 3.1765
-38.6215 10.0368 3.3289
-0.7989 46.7161 -4.1766
-1.2586 46.6710 -4.1706
-1.7175 46.6238 -4.1634
-2.1757 46.5745 -4.1552
-2.6332 46.5232 -4.1458
-3.0901 46.4697 -4.1354
-3.5463 46.4142 -4.1239
-4.0019 46.3566 -4.1113
-4.4568 46.2969 -4.0976
-4.9112 46.2352 -4.0829
-5.3651 46.1713 -4.0670
-5.8183 46.1054 -4.0501
-6.2711 46.0374 -4.0321
-6.7234 45.9673 -4.0130
-7.1752 45.8951 -3.9928
-7.6266 45.8208 -3.9715
-8.0775 45.7444 -3.9492
-8.5280 45.6659 -3.9257
-8.9781 45.5853 -3.9012
-9.4278 45.5027 -3.8756
-9.8773 45.4179 -3.8489
-10.3263 45.3310 -3.8211
-10.7750 45.2419 -3.7923
-11.2235 45.1507 -3.7623
-3.8885 15.0112 -1.2431
-4.0526 15.0346 -1.2369
-4.2181 15.0581 -1.2304
-4.3849 15.0818 -1.2235
-4.5588 15.1244 -1.2177
-4.5480 14.5694 -1.1638
-4.6985 14.5484 -1.1525
-4.8495 14.5271 -1.1409
-5.0010 14.5057 -1.1290
-5.1530 14.4841 -1.1167
-5.3764 14.6558 -1.1188
-5.4610 14.4471 -1.0916
-5.5935 14.3706 -1.0741
-5.7256 14.2943 -1.0564
-5.8572 14.2180 -1.0385
-5.9883 14.1421 -1.0203
-5.8262 13.3930 -0.9539
-5.7314 12.8306 -0.9017
-6.4562 14.0820 -0.9758
-6.6198 14.0744 -0.9611
-6.7436 13.9814 -0.9402
-6.8668 13.8888 -0.9191
-22.5549 44.5210 -2.8970
-26.3176 34.3691 -1.2706
-26.4718 33.8864 -1.1875
-26.8514 33.6958 -1.1141
-27.2320 33.5040 -1.0396
-27.6573 33.3637 -0.9655
-27.9912 33.1107 -0.8870
-28.2537 32.7745 -0.8056
-28.2860 32.1790 -0.7178
-28.5515 31.8564 -0.6362
-28.8167 31.5356 -0.5540
-29.0817 31.2164 -0.4712
-30.9235 32.5591 -0.4087
-30.9066 31.9204 -0.3172
-13.6679 13.8472 -0.1003
-32.2119 32.0127 -0.1433
-32.4394 31.6249 -0.0514
-32.5717 26.6838 0.7531
-33.0540 26.5543 0.8518
-33.7414 26.5792 0.9583
-34.3462 26.5271 1.0653
-34.9635 26.4740 1.1754
-35.5939 26.4197 1.2887
-36.2377 26.3643 1.4053
-36.8957 26.3077 1.5253
-37.5684 26.2498 1.6490
-38.2312 26.1732 1.7753
-38.8494 26.0554 1.9023
-39.6891 26.0730 2.0436
-40.4274 26.0094 2.1832
-41.1841 25.9443 2.3273
-41.9598 25.8775 2.4760
-43.8399 23.6926 3.2392
-43.5979 23.0283 3.3289
-42.2353 21.7970 3.3289
-40.9562 20.6458 3.3289
-39.7531 19.5672 3.3289
-38.6189 18.5547 3.3289
-37.5480 17.6026 3.3289
-36.5348 16.7057 3.3289
-35.5746 15.8594 3.3289
-34.6633 15.0597 3.3289
-32.2497 13.6481 3.1765
-31.4627 12.9637 3.1765
-30.7125 12.3144 3.1765
-29.9964 11.6976 3.1765
-29.3121 11.1109 3.1765
-29.6679 10.9244 3.2885
-29.3748 10.5005 3.3289
-28.7444 9.9680 3.3289
-28.1393 9.4595 3.3289
-27.5578 8.9734 3.3289
-26.9986 8.5083 3.3289
-26.4602 8.0629 3.3289
-25.9415 7.6360 3.3289
-25.4412 7.2266 3.3289
-24.9584 6.8337 3.3289
-0.7399 43.8556 -1.8702
-1.1659 43.8248 -1.8666
-1.5916 43.7941 -1.8619
-2.0169 43.7633 -1.8563
-2.4419 43.7326 -1.8495
-2.8669 43.7019 -1.8418
-3.2917 43.6712 -1.8330
-3.7166 43.6405 -1.8232
-4.1415 43.6098 -1.8124
-4.5665 43.5791 -1.8005
-4.9918 43.5484 -1.7875
-5.4174 43.5177 -1.7736
-5.8434 43.4869 -1.7586
-6.2698 43.4561 -1.7425
-6.6967 43.4252 -1.7254
-7.1243 43.3943 -1.7072
-7.5526 43.3634 -1.6879
-7.9816 43.3324 -1.6676
-8.4115 43.3013 -1.6462
-8.8423 43.2702 -1.6236
-9.2741 43.2390 -1.6000
-9.7071 43.2077 -1.5753
-10.1411 43.1764 -1.5495
-10.5765 43.1449 -1.5226
-3.9640 14.9130 -0.5072
-4.1201 14.9163 -0.4972
-4.2767 14.9181 -0.4866
-4.4340 14.9197 -0.4757
-4.5923 14.9211 -0.4643
-4.6812 14.7020 -0.4458
-4.8220 14.6519 -0.4322
-4.7697 14.0339 -0.4020
-5.1032 14.5514 -0.4039
-5.2436 14.5009 -0.3892
-5.4995 14.7604 -0.3822
-5.5405 14.4422 -0.3598
-5.7470 14.5580 -0.3479
-5.8312 14.3634 -0.3283
-5.7287 13.7288 -0.2990
-5.6842 13.2604 -0.2740
-6.2012 14.0891 -0.2749
-6.3232 13.9983 -0.2566
-6.4877 14.0007 -0.2396
-6.5964 13.8828 -0.2201
-21.7619 44.6835 -0.6507
-21.9441 43.9756 -0.5818
-22.4157 43.8579 -0.5201
-22.9317 43.8206 -0.4578
-23.5308 43.9306 -0.3952
-24.3548 42.4761 -0.1863
-24.8782 42.4379 -0.1172
-25.4065 42.3998 -0.0463
-25.9397 42.3613 0.0264
-26.4983 42.3546 0.1011
-21.6832 27.6827 0.7009
-22.0446 27.5964 0.7662
-22.4514 27.5614 0.8345
-22.7932 27.4414 0.9017
-23.2757 27.4839 0.9760
-23.6986 27.4475 1.0496
-24.1271 27.4107 1.1251
-24.5616 27.3733 1.2024
-25.0022 27.3353 1.2818
-25.4492 27.2969 1.3632
-25.9027 27.2578 1.4467
-26.3630 27.2182 1.5323
-13.6664 13.8435 0.8253
-27.3050 27.1371 1.7104
-27.7845 27.0929 1.8028
-28.1955 26.9752 1.8925
-28.7743 27.0095 1.9955
-29.2807 26.9658 2.0956
-29.7960 26.9215 2.1984
-30.3203 26.8764 2.3040
-30.8539 26.8304 2.4125
-31.3974 26.7836 2.5240
-31.9510 26.7360 2.6386
-32.5149 26.6874 2.7563
-33.0023 26.5674 2.8698
-33.5802 26.5116 2.9934
-34.7848 26.9311 3.1766
-33.9727 25.7910 3.1765
-33.1997 24.7114 3.1765
-33.6705 24.5696 3.2949
-33.2781 23.8034 3.3289
-32.5693 22.8332 3.3289
-31.8901 21.9096 3.3289
-31.2383 21.0292 3.3289
-30.6123 20.1893 3.3289
-30.0104 19.3873 3.3289
-29.4311 18.6207 3.3289
-28.8732 17.8874 3.3289
-28.3353 17.1854 3.3289
-22.1947 13.1756 2.6561
-22.4206 13.0245 2.7324
-25.6026 14.5509 3.1765
-25.1557 13.9839 3.1765
-24.7232 13.4391 3.1765
-24.3044 12.9153 3.1765
-23.8985 12.4113 3.1765
-23.5049 11.9262 3.1765
-23.2144 11.5041 3.1890
-23.6574 11.4464 3.3028
-23.4665 11.0816 3.3289
-23.0997 10.6425 3.3289
-22.7429 10.2187 3.3289
-22.3958 9.8094 3.3289
-22.0579 9.4139 3.3289
-21.7288 9.0316 3.3289
-21.4081 8.6618 3.3289
-21.0954 8.3041 3.3289
-20.7905 7.9579 3.3289
-20.4930 7.6226 3.3289
-20.2026 7.2978 3.3289
-19.9189 6.9831 3.3289
-19.6418 6.6780 3.3289
-19.3710 6.3821 3.3289
-19.1063 6.0951 3.3289
-18.8473 5.8165 3.3289
-18.5939 5.5461 3.3289
-18.3459 5.2834 3.3289
-0.7300 43.8621 0.1723
-1.1503 43.8315 0.1749
-1.5702 43.8010 0.1787
-1.9898 43.7704 0.1837
-2.4092 43.7399 0.1899
-2.8284 43.7093 0.1973
-3.2475 43.6788 0.2059
-3.6666 43.6483 0.2157
-4.0858 43.6178 0.2267
-4.5051 43.5872 0.2390
-4.9246 43.5567 0.2524
-5.3443 43.5261 0.2671
-5.7645 43.4955 0.2830
-6.1851 43.4649 0.3001
-6.6062 43.4342 0.3185
-7.0278 43.4035 0.3381
-9.1476 43.2492 0.4549
-9.5744 43.2181 0.4820
-10.0023 43.1869 0.5105
-10.4314 43.1557 0.5403
-10.8618 43.1243 0.5714
-4.5679 14.5533 0.2666
-4.7212 14.5532 0.2806
-4.8752 14.5529 0.2951
-5.0302 14.5524 0.3101
-5.1861 14.5516 0.3257
-5.3468 14.5613 0.3420
-5.2652 13.9268 0.3430
-5.5017 14.1426 0.3650
-5.4901 13.7237 0.3709
-5.7968 14.0990 0.3988
-5.9424 14.0700 0.4162
-6.0512 13.9549 0.4315
-6.4047 14.3927 0.4649
-6.5396 14.3266 0.4831
-13.2707 28.3546 0.9976
-13.5883 28.3273 1.0394
-13.9081 28.2998 1.0823
-14.2301 28.2721 1.1263
-14.5546 28.2442 1.1716
-14.8814 28.2160 1.2182
-15.2109 28.1877 1.2660
-15.5429 28.1591 1.3150
-15.8777 28.1303 1.3654
-16.2152 28.1013 1.4171
-16.5557 28.0720 1.4701
-16.8992 28.0424 1.5245
-17.2458 28.0126 1.5804
-17.5430 27.8987 1.6328
-17.8976 27.8724 1.6916
-18.3028 27.9174 1.7564
-18.6629 27.8864 1.8182
-19.0266 27.8551 1.8816
-19.3942 27.8235 1.9466
-19.7657 27.7915 2.0132
-20.1412 27.7592 2.0816
-20.5209 27.7265 2.1516
-20.9050 27.6934 2.2235
-21.2935 27.6600 2.2971
-21.6866 27.6261 2.3726
-22.0846 27.5919 2.4500
-22.4874 27.5572 2.5294
-22.8251 27.4375 2.6028
-23.3035 27.4805 2.6937
-23.7222 27.4444 2.7793
-24.1464 27.4079 2.8671
-24.5765 27.3709 2.9571
-25.0127 27.3333 3.0495
-25.7172 27.5762 3.1765
-25.3856 26.7111 3.1765
-13.6633 13.8444 1.7541
-25.0613 25.8768 3.1765
-25.4306 25.2865 3.3063
-24.6623 23.1740 3.3289
-24.3603 22.4622 3.3289
-25.2840 24.6713 3.3289
-24.0639 21.7735 3.3289
-23.7731 21.1069 3.3289
-24.9701 23.9100 3.3289
-23.4878 20.4615 3.3289
-22.3967 18.0756 3.3289
-23.2076 19.8365 3.3289
-22.1360 17.5240 3.3289
-22.9324 19.2311 3.3289
-22.6623 18.6443 3.3289
-21.8798 16.9891 3.3289
-21.3805 15.9665 3.3289
-21.6280 16.4702 3.3289
-20.1694 14.7690 3.1765
-19.9411 14.3160 3.1765
-19.4956 13.4485 3.1765
-19.7165 13.8760 3.1765
-19.2783 13.0332 3.1765
-18.7131 11.8971 3.1878
-19.0371 11.8536 3.2788
-19.0645 12.6294 3.1765
-19.1174 11.6561 3.3289
-18.8540 12.2368 3.1765
-18.9103 11.2876 3.3289
-17.9198 9.5859 3.3289
-18.7062 10.9290 3.3289
-17.7303 9.2715 3.3289
-18.5052 10.5798 3.3289
-17.5435 8.9651 3.3289
-18.3072 10.2398 3.3289
-17.3593 8.6664 3.3289
-17.1778 8.3752 3.3289
-18.1121 9.9086 3.3289
-16.9987 8.0912 3.3289
-16.4759 7.2802 3.3289
-16.8221 7.8142 3.3289
-16.3064 7.0229 3.3289
-15.8108 6.2872 3.3289
-16.6478 7.5439 3.3289
-16.1390 6.7718 3.3289
-15.6499 6.0534 3.3289
-15.9739 6.5266 3.3289
-15.4910 5.8250 3.3289
-15.3341 5.6019 3.3289
-7.4502 43.3728 0.3589
-7.8732 43.3420 0.3810
-8.2971 43.3111 0.4043
-8.7219 43.2802 0.4290
-15.1792 5.3840 3.3289
-15.0256 5.1708 3.3288
-14.8737 4.9624 3.3286
-14.7237 4.7587 3.3284
-14.5755 4.5596 3.3283
-14.4290 4.3650 3.3281
-0.4833 29.4426 1.4874
-0.7614 29.4187 1.4883
-1.0393 29.3948 1.4901
-1.3168 29.3709 1.4928
-1.5941 29.3471 1.4964
-1.8660 29.2396 1.4967
-2.1422 29.2159 1.5021
-2.4263 29.2875 1.5134
-2.7033 29.2636 1.5207
-2.9803 29.2398 1.5290
-3.2574 29.2160 1.5381
-3.5347 29.1922 1.5482
-3.8120 29.1683 1.5593
-4.0896 29.1444 1.5712
-4.3675 29.1205 1.5841
-4.6456 29.0966 1.5979
-4.9241 29.0727 1.6127
-5.2030 29.0487 1.6285
-5.4824 29.0247 1.6451
-5.7622 29.0006 1.6628
-6.0426 28.9765 1.6814
-6.3236 28.9523 1.7010
-6.6052 28.9281 1.7216
-6.8876 28.9038 1.7431
-7.1471 28.7844 1.7599
-7.4334 28.7728 1.7841
-7.7360 28.8178 1.8130
-8.0215 28.7933 1.8386
-8.3080 28.7686 1.8652
-8.5956 28.7439 1.8929
-8.8842 28.7190 1.9216
-9.1739 28.6941 1.9513
-9.4649 28.6691 1.9822
-9.7571 28.6440 2.0141
-10.0505 28.6187 2.0472
-10.3454 28.5933 2.0813
-5.2833 14.1832 1.0508
-5.5115 14.3801 1.0847
-5.6427 14.3174 1.0999
-5.7736 14.2545 1.1154
-5.9042 14.1915 1.1314
-12.1171 28.3689 2.3049
-12.4174 28.3310 2.3462
-12.7246 28.3045 2.3898
-13.0765 28.3704 2.4425
-13.3887 28.3435 2.4888
-13.7030 28.3165 2.5363
-14.0196 28.2893 2.5852
-14.3384 28.2618 2.6355
-14.6595 28.2342 2.6871
-14.9831 28.2063 2.7401
-15.3092 28.1783 2.7946
-15.6379 28.1500 2.8506
-15.9693 28.1215 2.9080
-16.3035 28.0927 2.9669
-16.6406 28.0637 3.0274
-17.4603 28.8264 3.1768
-17.4516 28.2116 3.1765
-17.4389 27.6091 3.1765
-17.4211 27.0167 3.1765
-17.3983 26.4341 3.1765
-17.4655 26.0024 3.1938
-17.7932 25.9616 3.2598
-18.1238 25.9202 3.3273
-18.0898 25.3625 3.3289
-18.0433 24.8030 3.3289
-17.9929 24.2534 3.3289
-17.9389 23.7138 3.3289
-17.8815 23.1840 3.3289
-17.8209 22.6639 3.3289
-17.7571 22.1534 3.3289
-17.6905 21.6525 3.3289
-17.6212 21.1609 3.3289
-17.5493 20.6786 3.3289
-17.4750 20.2054 3.3289
-17.3985 19.7413 3.3289
-17.3198 19.2860 3.3289
-17.2392 18.8394 3.3289
-17.1567 18.4014 3.3289
-17.0724 17.9718 3.3289
-16.9866 17.5506 3.3289
-13.6584 13.8510 2.6905
-16.8105 16.7324 3.3289
-15.9550 15.5874 3.1765
-15.8680 15.2158 3.1765
-15.7798 14.8514 3.1765
-15.6908 14.4941 3.1765
-15.6008 14.1438 3.1765
-15.5100 13.8004 3.1765
-15.4185 13.4636 3.1765
-15.3263 13.1335 3.1765
-15.2335 12.8097 3.1765
-15.1401 12.4923 3.1765
-15.0869 12.2140 3.1851
-15.3350 12.1802 3.2579
-15.5701 12.1322 3.3289
-15.4706 11.8247 3.3289
-15.3707 11.5232 3.3289
-15.2706 11.2276 3.3289
-15.1703 10.9377 3.3289
-15.0699 10.6534 3.3289
-14.9693 10.3746 3.3289
-14.8686 10.1011 3.3289
-14.7679 9.8330 3.3289
-14.6671 9.5700 3.3289
-14.5664 9.3120 3.3289
-14.4657 9.0590 3.3289
-14.3646 8.8105 3.3288
-14.2636 8.5667 3.3287
-14.1628 8.3276 3.3286
-14.0621 8.0931 3.3284
-13.9616 7.8630 3.3283
-13.8613 7.6372 3.3282
-13.7612 7.4157 3.3281
-13.6613 7.1984 3.3280
-13.5617 6.9852 3.3279
-13.4624 6.7759 3.3278
-13.3634 6.5706 3.3277
-13.2647 6.3691 3.3276
-13.1663 6.1713 3.3275
-13.0682 5.9772 3.3274
-12.9704 5.7867 3.3273
-12.8730 5.5997 3.3272
-12.7760 5.4162 3.3271
-12.6793 5.2360 3.3271
-12.5830 5.0591 3.3270
-12.4871 4.8854 3.3269
-12.3916 4.7149 3.3268
-12.2964 4.5474 3.3267
-12.2017 4.3830 3.3266
-12.1073 4.2216 3.3265
-12.0134 4.0630 3.3265
-11.9191 3.9071 3.3262
-11.8232 3.7532 3.3253
-0.4765 29.4423 2.8656
-0.7507 29.4187 2.8656
-1.0247 29.3951 2.8667
-1.2984 29.3716 2.8688
-1.5718 29.3481 2.8719
-1.8398 29.2410 2.8678
-2.1122 29.2176 2.8730
-2.3923 29.2895 2.8886
-2.6654 29.2660 2.8958
-2.9386 29.2425 2.9041
-3.2118 29.2190 2.9135
-3.4851 29.1955 2.9238
-3.7586 29.1720 2.9352
-4.0323 29.1485 2.9477
-4.3062 29.1249 2.9612
-4.5804 29.1014 2.9757
-4.8549 29.0778 2.9913
-5.1298 29.0541 3.0080
-5.4052 29.0304 3.0257
-5.6810 29.0067 3.0445
-5.9574 28.9829 3.0644
-6.2343 28.9591 3.0854
-6.6570 29.5802 3.1767
-6.8898 29.3360 3.1766
-7.1173 29.0850 3.1765
-7.3399 28.8287 3.1765
-7.5570 28.5663 3.1765
-7.7688 28.2982 3.1765
-7.9750 28.0246 3.1765
-8.1757 27.7460 3.1765
-8.3708 27.4626 3.1765
-8.5602 27.1748 3.1765
-8.7440 26.8829 3.1765
-8.9746 26.7431 3.1951
-9.2420 26.7137 3.2279
-9.5106 26.6840 3.2618
-5.3246 14.5112 1.7949
-10.0381 26.5901 3.3289
-10.1955 26.2652 3.3289
-10.3469 25.9381 3.3289
-10.4926 25.6092 3.3289
-10.6325 25.2788 3.3289
-10.7668 24.9471 3.3289
-10.8955 24.6144 3.3289
-11.0187 24.2809 3.3289
-11.1364 23.9470 3.3289
-11.2487 23.6127 3.3289
-11.3557 23.2784 3.3289
-11.4574 22.9443 3.3289
-11.5540 22.6105 3.3289
-11.6456 22.2773 3.3289
-11.7322 21.9448 3.3289
-11.8139 21.6133 3.3289
-11.8909 21.2829 3.3289
-11.9632 20.9537 3.3289
-12.0308 20.6260 3.3289
-12.0940 20.2999 3.3289
-12.1528 19.9754 3.3289
-12.2074 19.6528 3.3289
-12.2577 19.3322 3.3289
-12.3040 19.0136 3.3289
-12.3463 18.6973 3.3289
-12.3848 18.3832 3.3289
-12.4194 18.0714 3.3289
-12.4504 17.7622 3.3289
-12.4778 17.4555 3.3289
-12.5017 17.1514 3.3289
-12.5222 16.8500 3.3289
-11.9654 15.7936 3.1765
-11.9788 15.5113 3.1765
-11.9893 15.2317 3.1765
-11.9969 14.9549 3.1765
-12.0017 14.6809 3.1765
-12.0038 14.4098 3.1765
-12.0033 14.1415 3.1765
-12.0003 13.8761 3.1765
-11.9948 13.6136 3.1765
-11.9870 13.3541 3.1765
-11.9769 13.0975 3.1765
-11.9646 12.8439 3.1765
-11.9501 12.5932 3.1765
-12.0579 12.4742 3.2096
-12.2561 12.4473 3.2674
-12.4569 12.4198 3.3266
-12.4420 12.1780 3.3289
-12.4168 11.9310 3.3289
-12.3897 11.6871 3.3289
-12.3609 11.4463 3.3289
-12.3305 11.2085 3.3289
-12.2983 10.9737 3.3288
-12.2643 10.7419 3.3288
-12.2289 10.5130 3.3287
-12.1921 10.2873 3.3286
-12.1538 10.0646 3.3285
-12.1143 9.8448 3.3284
-12.0734 9.6281 3.3283
-12.0314 9.4143 3.3282
-11.9882 9.2034 3.3282
-11.9439 8.9954 3.3281
-11.8985 8.7904 3.3280
-11.8521 8.5881 3.3279
-11.8047 8.3887 3.3278
-11.7564 8.1921 3.3277
-11.7071 7.9983 3.3277
-11.6570 7.8072 3.3276
-11.6062 7.6188 3.3275
-11.5545 7.4331 3.3274
-11.5020 7.2501 3.3273
-11.4471 7.0685 3.3268
-11.3912 6.8895 3.3261
-11.3344 6.7128 3.3253
-11.2766 6.5386 3.3244
-11.2180 6.3668 3.3235
-11.1585 6.1972 3.3224
-11.0982 6.0301 3.3212
-11.0372 5.8653 3.3200
-10.9754 5.7029 3.3186
-10.9132 5.5428 3.3173
-10.8501 5.3850 3.3158
-10.7857 5.2291 3.3140
-10.7209 5.0755 3.3121
-10.6577 4.9252 3.3109
-10.5970 4.7784 3.3105
-10.5361 4.6338 3.3102
-10.4749 4.4913 3.3098
-10.4134 4.3509 3.3095
-10.3518 4.2127 3.3092
-10.2899 4.0764 3.3088
-10.2278 3.9422 3.3085
-10.1655 3.8100 3.3082
-10.1031 3.6798 3.3079
-10.0406 3.5514 3.3075
-9.9779 3.4250 3.3072
-9.9150 3.3005 3.3069
-0.3673 23.0268 3.3289
-0.5788 23.0130 3.3289
-0.7900 22.9930 3.3289
-1.0006 22.9669 3.3289
-1.2106 22.9346 3.3289
-1.4199 22.8963 3.3289
-1.6282 22.8519 3.3289
-1.8355 22.8016 3.3289
-2.0417 22.7454 3.3289
-2.2466 22.6833 3.3289
-2.4500 22.6155 3.3289
-2.6520 22.5419 3.3289
-2.8523 22.4627 3.3289
-3.0508 22.3780 3.3289
-3.2474 22.2878 3.3289
-3.4422 22.1923 3.3289
-3.6348 22.0916 3.3289
-3.8252 21.9857 3.3289
-4.0134 21.8748 3.3289
-4.1992 21.7591 3.3289
-4.3825 21.6385 3.3289
-4.5633 21.5133 3.3289
-4.7415 21.3836 3.3289
-4.9170 21.2495 3.3289
-5.0897 21.1112 3.3289
-5.2596 20.9687 3.3289
-5.4266 20.8223 3.3289
-5.5906 20.6720 3.3289
-5.7517 20.5180 3.3289
-5.9096 20.3605 3.3289
-6.0645 20.1995 3.3289
-6.2162 20.0353 3.3289
-6.3647 19.8680 3.3289
-6.5101 19.6976 3.3289
-6.6521 19.5245 3.3289
-6.7909 19.3486 3.3289
-5.2592 14.5557 2.5276
-5.3805 14.4745 2.5374
-7.1876 18.8062 3.3289
-7.3131 18.6210 3.3289
-7.4354 18.4338 3.3289
-7.5543 18.2447 3.3289
-7.6698 18.0539 3.3289
-7.7821 17.8615 3.3289
-7.8910 17.6676 3.3289
-7.9966 17.4724 3.3289
-8.0989 17.2760 3.3289
-7.8224 16.2966 3.1765
-7.9140 16.1072 3.1765
-8.0023 15.9170 3.1765
-8.0875 15.7260 3.1765
-8.1695 15.5345 3.1765
-8.2488 15.3425 3.1765
-8.3250 15.1501 3.1765
-8.3982 14.9574 3.1765
-8.4684 14.7645 3.1765
-8.5358 14.5715 3.1765
-8.6003 14.3785 3.1765
-8.6620 14.1855 3.1765
-8.7209 13.9927 3.1765
-8.7771 13.8001 3.1765
-8.8306 13.6078 3.1765
-8.8814 13.4159 3.1765
-8.9295 13.2245 3.1765
-8.9751 13.0335 3.1765
-9.0183 12.8432 3.1765
-9.1157 12.7332 3.1965
-9.2773 12.7119 3.2395
-9.4404 12.6903 3.2836
-9.6051 12.6683 3.3287
-9.6367 12.4717 3.3284
-9.6654 12.2755 3.3280
-9.6918 12.0805 3.3275
-9.7160 11.8865 3.3271
-9.7378 11.6937 3.3266
-9.7575 11.5021 3.3262
-9.7750 11.3118 3.3257
-9.7905 11.1228 3.3253
-9.8039 10.9350 3.3249
-9.8152 10.7487 3.3244
-9.8246 10.5637 3.3240
-9.8321 10.3801 3.3236
-9.8378 10.1979 3.3231
-9.8416 10.0172 3.3227
-9.8436 9.8380 3.3223
-9.8439 9.6603 3.3219
-9.8425 9.4841 3.3214
-9.8394 9.3095 3.3210
-9.8348 9.1363 3.3206
-9.8286 8.9648 3.3202
-9.8209 8.7948 3.3198
-9.8116 8.6264 3.3194
-9.8010 8.4596 3.3190
-9.7889 8.2944 3.3186
-9.7755 8.1308 3.3183
-9.7608 7.9689 3.3179
-9.7447 7.8085 3.3175
-9.7274 7.6498 3.3171
-9.7089 7.4927 3.3167
-9.6892 7.3372 3.3164
-9.6684 7.1833 3.3160
-9.6465 7.0310 3.3156
-9.6235 6.8804 3.3153
-9.5994 6.7314 3.3149
-9.5743 6.5840 3.3146
-9.5483 6.4381 3.3142
-9.5212 6.2940 3.3139
-9.4933 6.1513 3.3135
-9.4645 6.0103 3.3132
-9.4348 5.8709 3.3129
-9.4042 5.7331 3.3125
-9.3729 5.5968 3.3122
-9.3407 5.4620 3.3119
-9.3078 5.3289 3.3116
-9.2742 5.1972 3.3113
-9.2399 5.0671 3.3109
-9.2048 4.9385 3.3106
-9.1691 4.8114 3.3103
-9.1328 4.6859 3.3100
-9.0958 4.5618 3.3097
-9.0583 4.4392 3.3094
-9.0201 4.3180 3.3091
-8.9815 4.1984 3.3088
-8.9422 4.0801 3.3086
-8.9025 3.9633 3.3083
-8.8623 3.8479 3.3080
-8.8215 3.7339 3.3077
-8.7804 3.6213 3.3074
-8.7387 3.5101 3.3072
-8.6967 3.4003 3.3069
-8.6542 3.2917 3.3066
-8.6114 3.1845 3.3064
-8.5681 3.0787 3.3061
-8.5245 2.9742 3.3059
-0.2594 16.5062 3.1765
-0.4088 16.4981 3.1765
-0.5580 16.4863 3.1765
-0.7070 16.4709 3.1765
-0.8556 16.4519 3.1765
-1.0038 16.4294 3.1765
-1.1514 16.4032 3.1765
-1.2986 16.3735 3.1765
-1.4450 16.3403 3.1765
-1.5908 16.3036 3.1765
-1.7357 16.2635 3.1765
-1.8798 16.2199 3.1765
-2.0230 16.1729 3.1765
-2.1653 16.1226 3.1765
-2.3064 16.0690 3.1765
-2.4465 16.0122 3.1765
-2.5853 15.9521 3.1765
-2.7230 15.8889 3.1765
-2.8594 15.8225 3.1765
-2.9944 15.7532 3.1765
-3.1280 15.6808 3.1765
-3.2602 15.6055 3.1765
-3.3909 15.5273 3.1765
-3.5200 15.4464 3.1765
-3.6475 15.3627 3.1765
-3.7734 15.2763 3.1765
-3.8976 15.1873 3.1765
-4.0201 15.0957 3.1765
-4.1408 15.0017 3.1765
-4.2597 14.9053 3.1765
-4.3768 14.8065 3.1765
-4.4920 14.7055 3.1765
-4.6053 14.6023 3.1765
-4.7166 14.4970 3.1765
-4.8261 14.3896 3.1765
-4.9336 14.2803 3.1765
-5.0390 14.1691 3.1765
-5.1424 14.0560 3.1765
-5.2438 13.9412 3.1765
-5.3432 13.8248 3.1765
-5.4405 13.7067 3.1765
-5.5357 13.5871 3.1765
-5.6289 13.4661 3.1765
-5.7199 13.3437 3.1765
-5.8088 13.2199 3.1765
-5.8957 13.0950 3.1765
-5.9979 13.0070 3.1858
-6.1333 12.9906 3.2133
-6.2694 12.9740 3.2416
-6.4062 12.9572 3.2706
-6.5439 12.9402 3.3005
-6.6780 12.9143 3.3289
-6.7529 12.7751 3.3286
-6.8256 12.6352 3.3282
-6.8961 12.4946 3.3279
-6.9644 12.3535 3.3276
-7.0306 12.2118 3.3273
-7.0946 12.0697 3.3270
-7.1565 11.9272 3.3266
-7.2162 11.7844 3.3263
-7.2739 11.6413 3.3260
-7.3294 11.4980 3.3257
-7.3829 11.3545 3.3253
-7.4343 11.2109 3.3250
-7.4838 11.0673 3.3247
-7.5311 10.9237 3.3244
-7.5765 10.7801 3.3240
-7.6200 10.6366 3.3237
-7.6615 10.4933 3.3234
-7.7011 10.3502 3.3230
-7.7388 10.2073 3.3227
-7.7746 10.0647 3.3224
-7.8087 9.9224 3.3221
-7.8408 9.7804 3.3217
-7.8712 9.6389 3.3214
-7.8999 9.4978 3.3211
-7.9268 9.3571 3.3208
-7.9520 9.2170 3.3204
-7.9755 9.0773 3.3201
-7.9974 8.9383 3.3198
-8.0176 8.7998 3.3195
-8.0363 8.6620 3.3191
-8.0534 8.5248 3.3188
-8.0689 8.3883 3.3185
-8.0829 8.2525 3.3182
-8.0955 8.1174 3.3179
-8.1065 7.9831 3.3176
-8.1162 7.8496 3.3173
-8.1244 7.7168 3.3169
-8.1313 7.5848 3.3166
-8.1368 7.4537 3.3163
-8.1410 7.3234 3.3160
-8.1439 7.1940 3.3157
-8.1455 7.0654 3.3154
-8.1459 6.9377 3.3151
-8.1450 6.8110 3.3148
-8.1430 6.6851 3.3145
-8.1398 6.5602 3.3142
-8.1354 6.4362 3.3139
-8.1300 6.3131 3.3136
-8.1234 6.1910 3.3134
-8.1158 6.0699 3.3131
-8.1071 5.9497 3.3128
-8.0974 5.8305 3.3125
-8.0868 5.7123 3.3122
-8.0751 5.5951 3.3119
-8.0624 5.4789 3.3117
-8.0489 5.3636 3.3114
-8.0345 5.2493 3.3111
-8.0191 5.1361 3.3109
-8.0029 5.0239 3.3106
-7.9859 4.9127 3.3103
-7.9680 4.8025 3.3101
-7.9493 4.6933 3.3098
-7.9299 4.5851 3.3095
-7.9097 4.4779 3.3093
-7.8888 4.3717 3.3090
-7.8671 4.2665 3.3088
-7.7979 3.9570 3.3080
-7.8447 4.1624 3.3085
-7.7735 3.8559 3.3078
-7.8216 4.0592 3.3083
-7.7485 3.7557 3.3076
-7.6966 3.5584 3.3071
-7.7229 3.6565 3.3073
-7.6698 3.4612 3.3068
-7.6424 3.3650 3.3066
-7.6145 3.2697 3.3064
-7.5860 3.1755 3.3062
-7.5570 3.0822 3.3059
-7.5275 2.9899 3.3057
-7.4975 2.8986 3.3055
-7.4670 2.8082 3.3053
-7.4360 2.7187 3.3050
-0.2089 13.5004 3.2561
-0.3292 13.4901 3.2550
-0.4493 13.4797 3.2545
-0.5693 13.4692 3.2546
-0.6892 13.4586 3.2552
-0.8091 13.4480 3.2565
-0.9288 13.4372 3.2584
-1.0485 13.4263 3.2609
-1.1682 13.4154 3.2640
-1.2878 13.4043 3.2676
-1.4075 13.3932 3.2719
-1.5271 13.3819 3.2767
-1.6468 13.3706 3.2822
-1.7665 13.3591 3.2882
-1.8863 13.3475 3.2949
-2.0061 13.3359 3.3021
-2.1261 13.3241 3.3100
-2.2461 13.3122 3.3185
-2.3663 13.3002 3.3275
-2.4803 13.2545 3.3288
-2.5924 13.2011 3.3287
-2.7035 13.1456 3.3286
-2.8135 13.0878 3.3285
-2.9224 13.0279 3.3284
-3.0301 12.9658 3.3282
-3.1367 12.9017 3.3281
-3.2421 12.8356 3.3280
-3.3463 12.7675 3.3278
-3.4492 12.6974 3.3277
-3.5508 12.6255 3.3275
-3.6511 12.5517 3.3274
-3.7501 12.4760 3.3272
-3.8476 12.3987 3.3271
-3.9438 12.3196 3.3269
-4.0386 12.2389 3.3267
-4.1319 12.1565 3.3266
-4.2237 12.0726 3.3264
-4.3141 11.9871 3.3262
-4.4030 11.9002 3.3260
-4.4903 11.8118 3.3258
-4.5761 11.7221 3.3256
-4.6605 11.6311 3.3254
-4.7432 11.5388 3.3252
-4.8244 11.4452 3.3250
-4.9040 11.3505 3.3248
-4.9820 11.2546 3.3246
-5.0584 11.1577 3.3244
-5.1332 11.0597 3.3242
-5.2064 10.9608 3.3240
-5.2780 10.8609 3.3238
-5.3480 10.7601 3.3235
-5.4164 10.6585 3.3233
-5.4832 10.5561 3.3231
-5.5483 10.4530 3.3228
-5.6119 10.3491 3.3226
-5.6738 10.2446 3.3224
-5.7341 10.1394 3.3221
-5.7928 10.0337 3.3219
-5.8499 9.9275 3.3217
-5.9055 9.8207 3.3214
-5.9594 9.7136 3.3212
-6.0118 9.6060 3.3210
-6.0626 9.4980 3.3207
-6.1118 9.3898 3.3205
-6.1595 9.2812 3.3202
-6.2056 9.1724 3.3200
-6.2502 9.0634 3.3197
-6.2932 8.9542 3.3195
-6.3348 8.8449 3.3192
-6.3749 8.7354 3.3190
-6.4134 8.6259 3.3187
-6.4505 8.5164 3.3185
-6.4862 8.4068 3.3182
-6.5204 8.2973 3.3180
-6.5531 8.1878 3.3177
-6.5845 8.0784 3.3175
-6.6144 7.9692 3.3172
-6.6430 7.8601 3.3170
-6.7206 7.5338 3.3162
-6.6702 7.7511 3.3167
-6.7437 7.4255 3.3160
-6.6960 7.6423 3.3165
-6.7657 7.3174 3.3157
-6.8056 7.1023 3.3152
-6.8237 6.9952 3.3150
-6.7862 7.2097 3.3155
-6.8405 6.8885 3.3147
-6.8706 6.6762 3.3142
-6.8562 6.7821 3.3145
-6.8838 6.5706 3.3140
-6.9167 6.2567 3.3133
-6.8959 6.4655 3.3137
-6.9254 6.1530 3.3130
-6.9069 6.3609 3.3135
-6.9330 6.0498 3.3128
-6.9451 5.8449 3.3123
-6.9396 5.9471 3.3125
-6.9495 5.7433 3.3121
-6.9568 5.4418 3.3114
-6.9530 5.6422 3.3118
-6.9573 5.3425 3.3111
-6.9554 5.5417 3.3116
-6.9568 5.2437 3.3109
-6.9531 5.0480 3.3104
-6.9554 5.1456 3.3107
-6.9499 4.9511 3.3102
-6.9458 4.8549 3.3100
-6.9350 4.6643 3.3095
-6.9408 4.7592 3.3097
-6.9283 4.5699 3.3093
-6.9035 4.2909 3.3086
-6.9208 4.4763 3.3091
-6.8936 4.1993 3.3084
-6.8830 4.1083 3.3082
-6.9125 4.3833 3.3089
-6.8717 4.0180 3.3080
-6.8596 3.9284 3.3078
-6.8044 3.5770 3.3069
-6.8469 3.8395 3.3076
-6.7890 3.4908 3.3067
-6.8334 3.7513 3.3074
-6.7729 3.4054 3.3065
-6.7561 3.3207 3.3063
-6.8193 3.6638 3.3071
-6.7388 3.2367 3.3061
-6.6636 2.9078 3.3053
-6.7208 3.1534 3.3059
-6.6434 2.8273 3.3051
-6.7023 3.0708 3.3057
-6.6226 2.7476 3.3049
-6.6832 2.9889 3.3055
-6.6014 2.6685 3.3047
-6.5797 2.5902 3.3045
-6.5574 2.5125 3.3043
