ply
format ascii 1.0
element vertex 1321
property float32 x
property float32 y
property float32 z
end_header
9.9427 2.3678 -2.6087
12.3813 15.5092 -8.4852
12.0446 16.1165 -8.7275
12.2380 15.6682 -8.5422
12.0020 16.4217 -8.8640
12.0938 15.8279 -8.5998
11.6987 16.3708 -8.8086
11.0564 16.1933 -8.6603
11.3030 16.1800 -8.6792
10.8910 16.3239 -8.7048
28.0769 17.8252 -9.8783
28.8399 17.9029 -9.9933
12.4165 15.5026 -7.3963
11.9605 15.2590 -7.2588
11.9569 16.2882 -7.6844
11.5936 15.1154 -7.1702
11.7460 16.3598 -7.6980
11.9198 15.8841 -7.5140
10.9181 16.2718 -7.5997
11.4596 16.3220 -7.6606
11.1369 16.2244 -7.5959
10.6900 16.6854 -7.7568
10.4541 16.7049 -7.7485
29.5006 16.7766 -7.9076
28.8379 16.7836 -7.8616
28.7548 17.1228 -7.9721
29.2113 17.7935 -8.2361
28.5896 17.8102 -8.1974
28.4319 18.1107 -8.2901
28.4009 18.4947 -8.4211
12.4412 14.8399 -6.1023
12.4468 15.1629 -6.2211
12.3695 15.3914 -6.3010
12.0565 15.3251 -6.2604
12.3993 16.1023 -6.5643
11.8268 16.3935 -6.6435
11.8994 15.7902 -6.4240
11.6340 16.4860 -6.6685
11.7427 15.9246 -6.4659
11.0756 16.0480 -6.4795
11.0085 16.6867 -6.7139
11.3035 16.7498 -6.7510
10.7721 16.7062 -6.7105
10.5380 16.7255 -6.7073
18.6405 35.9759 -14.2621
45.6796 17.7602 -7.0436
45.4249 19.2207 -7.4883
44.4823 19.3400 -7.4941
29.4723 16.0625 -5.9814
29.4718 16.4432 -6.1011
29.1006 16.6168 -6.1441
29.3848 17.1682 -6.3268
28.6610 17.1296 -6.2921
28.7990 17.6032 -6.4459
28.4031 17.7519 -6.4809
28.1459 17.9836 -6.5463
27.6205 18.0382 -6.5478
13.2319 15.4131 -5.3132
12.4113 14.7603 -5.0822
11.9524 14.5139 -4.9916
12.4112 15.3899 -5.2870
12.5992 15.9555 -5.4754
12.2747 15.8772 -5.4428
11.8374 15.6413 -5.3564
11.8521 16.0004 -5.4739
11.8599 16.3606 -5.5917
11.6897 16.4808 -5.6275
11.3855 16.4080 -5.5975
11.1625 16.4467 -5.6057
10.4581 15.7570 -5.3660
10.7227 16.5241 -5.6225
10.4500 16.4748 -5.6011
10.6166 17.1274 -5.8183
20.5610 33.9515 -11.5247
20.1117 34.0011 -11.5329
19.6663 34.0502 -11.5411
19.4715 34.5371 -11.6978
19.9726 36.3035 -12.2876
19.4053 36.1588 -12.2304
18.9982 36.3030 -12.2712
18.6939 36.6467 -12.3795
18.2756 36.7696 -12.4134
17.8742 36.9243 -12.4582
17.5836 37.3133 -12.5822
17.2023 37.5164 -12.6436
16.7821 38.7195 -13.0352
16.4804 39.1426 -13.1709
16.0899 39.3641 -13.2390
15.6317 39.4188 -13.2510
15.1757 39.4732 -13.2632
15.4514 41.4861 -13.9334
14.9794 41.5489 -13.9485
3.4686 14.1366 -4.7293
46.1641 17.5676 -4.5832
46.2560 18.1215 -4.7431
46.1333 18.5952 -4.8820
45.4456 18.8364 -4.9597
45.6733 19.4563 -5.1370
45.0525 19.7148 -5.2189
36.7101 17.3668 -4.6299
28.9568 15.8502 -4.2743
29.1507 16.3313 -4.4113
27.9248 16.0081 -4.3308
29.0749 17.0505 -4.6197
28.8887 17.3266 -4.7013
28.8507 17.6935 -4.8075
28.5817 17.9195 -4.8754
28.3699 18.1800 -4.9526
28.0481 18.3679 -5.0100
27.6121 18.4756 -5.0454
20.4009 16.4693 -4.5381
20.3556 17.1151 -4.7238
13.2506 15.3928 -4.2913
12.3588 14.6544 -4.0874
12.9501 15.6751 -4.3742
12.0574 14.8999 -4.1597
12.2068 15.4016 -4.3017
12.0454 15.5192 -4.3364
11.9665 15.7455 -4.4015
11.8864 15.9750 -4.4674
11.8321 16.2450 -4.5447
11.7563 16.4914 -4.6154
11.5412 16.5441 -4.6319
11.3276 16.5963 -4.6482
10.3903 15.5622 -4.3601
10.7911 16.5257 -4.6316
10.5377 16.5042 -4.6271
10.8245 17.3422 -4.8636
20.3982 33.4384 -9.3807
19.9515 33.4733 -9.3933
19.5090 33.5079 -9.4058
19.8381 34.8922 -9.7972
19.5320 35.1906 -9.8837
19.2240 35.4908 -9.9707
18.8938 35.7549 -10.0475
19.1470 37.1550 -10.4436
18.7769 37.3777 -10.5088
18.3244 37.4342 -10.5272
18.1330 38.0319 -10.6977
17.5207 37.7457 -10.6196
17.0879 37.8318 -10.6461
16.8198 38.2883 -10.7769
16.3512 38.2923 -10.7802
15.9266 38.3932 -10.8107
15.2749 37.9270 -10.6814
14.9916 38.3659 -10.8071
14.4149 38.0488 -10.7196
14.3756 39.1666 -11.0364
14.1887 39.9337 -11.2544
13.9182 40.5002 -11.4159
13.4919 40.6281 -11.4537
3.3864 15.3970 -4.3460
3.3632 16.0902 -4.5421
3.3005 16.6565 -4.7024
3.2601 17.4038 -4.9138
46.1554 17.1901 -2.0850
46.1803 17.7119 -2.2261
45.3726 17.9096 -2.3254
45.7782 18.5858 -2.4865
45.6156 19.0385 -2.6184
45.4935 20.0355 -2.8947
45.1155 20.3957 -3.0126
29.2040 16.0543 -2.7114
29.3693 16.5213 -2.8262
28.7927 16.5700 -2.8691
28.9559 17.0434 -2.9854
28.9902 17.4483 -3.0900
28.8258 17.7366 -3.1741
28.5260 17.9403 -3.2427
27.2769 17.5306 -3.1989
28.6397 18.8065 -3.4630
28.2861 18.9747 -3.5244
28.0378 19.2106 -3.5980
20.3429 17.1135 -3.4259
12.2097 14.7330 -3.1726
12.3628 15.2262 -3.2884
11.8815 14.9374 -3.2352
12.4039 15.9200 -3.4574
12.2173 16.0100 -3.4863
11.7239 15.6883 -3.4250
11.7108 16.0043 -3.5028
11.5469 16.1186 -3.5364
11.7391 16.7409 -3.6816
11.6502 16.9759 -3.7418
10.5558 15.7191 -3.4724
11.2586 17.1372 -3.7939
10.4720 16.2966 -3.6153
10.0860 16.0507 -3.5679
22.9128 37.2960 -8.3069
21.2831 35.4434 -7.9093
20.4795 34.9019 -7.8028
20.0849 35.0390 -7.8475
20.2756 36.2188 -8.1258
19.1843 35.1011 -7.8883
18.5406 34.7582 -7.8239
17.9133 34.4205 -7.7602
17.6706 34.8146 -7.8611
17.2855 34.9327 -7.8994
16.8692 34.9834 -7.9223
16.4555 35.0338 -7.9448
17.1892 37.5875 -8.5353
17.3286 38.9381 -8.8536
17.0180 39.3159 -8.9508
16.6894 39.6634 -9.0409
16.1952 39.6168 -9.0409
15.7793 39.7553 -9.0829
15.7533 40.9057 -9.3560
15.2383 40.8091 -9.3438
14.8294 40.9901 -9.3949
3.3704 15.5390 -3.5980
46.2669 17.8860 0.1271
46.1949 18.3734 -0.0046
45.2475 18.5051 -0.1339
45.6880 19.2031 -0.2664
45.1941 19.5120 -0.3938
44.6474 19.7907 -0.5183
29.7004 16.0247 -1.0499
29.7055 16.4018 -1.1407
29.0084 16.3866 -1.2031
29.0553 16.7877 -1.2950
29.1202 17.2050 -1.3887
28.5173 17.2252 -1.4496
28.6076 17.6620 -1.5449
28.4386 17.9425 -1.6267
28.4914 18.3663 -1.7216
28.1711 18.5510 -1.7939
27.7262 18.6481 -1.8567
20.3428 17.1243 -2.1469
12.8434 14.5492 -2.1660
12.8455 14.8455 -2.2283
12.8475 15.1488 -2.2920
12.0984 14.5558 -2.2192
12.1611 14.9302 -2.2931
12.1646 15.2412 -2.3577
12.1672 15.5592 -2.4235
12.2366 15.9727 -2.5045
11.5615 15.4067 -2.4313
11.7392 15.9723 -2.5362
11.8050 16.4019 -2.6201
11.2544 15.9703 -2.5660
11.3546 16.4587 -2.6594
11.7011 17.3284 -2.8151
10.7561 16.2771 -2.6582
10.2979 15.9276 -2.6144
9.8364 15.5527 -2.5654
11.0082 17.7971 -2.9496
20.4557 33.8232 -5.6314
20.2954 34.3301 -5.7413
19.7164 34.1269 -5.7319
19.4221 34.4095 -5.8034
19.0051 34.4742 -5.8378
18.5838 34.5255 -5.8693
18.1657 34.5765 -5.9001
17.7506 34.6272 -5.9304
17.3385 34.6778 -5.9600
17.3694 35.6315 -6.1448
16.9463 35.6706 -6.1719
16.3444 35.3171 -6.1302
15.9261 35.3434 -6.1537
15.5180 35.3857 -6.1795
15.1123 35.4280 -6.2046
14.7091 35.4701 -6.2293
14.3080 35.5122 -6.2534
14.6535 37.4567 -6.6129
14.2373 37.5055 -6.6381
15.9565 43.3501 -7.6910
15.4679 43.3711 -7.7126
14.7867 42.8257 -7.6326
14.5385 43.5302 -7.7748
45.7753 18.8628 2.2190
29.0953 16.8812 0.3027
28.9451 17.1697 0.2200
28.8522 17.4935 0.1380
28.6237 17.7354 0.0558
28.2613 17.8912 -0.0254
27.9580 18.0802 -0.1053
12.7033 14.9414 -1.3217
12.7038 15.2428 -1.3739
12.7318 15.5850 -1.4301
12.0459 15.0447 -1.4044
12.0781 15.3927 -1.4606
12.1022 15.7398 -1.5171
12.0316 15.9708 -1.5626
11.7077 15.8635 -1.5746
11.9887 16.5836 -1.6689
11.4153 16.1229 -1.6442
11.1547 16.0890 -1.6617
10.9223 16.0906 -1.6823
10.5784 15.9199 -1.6841
10.2039 15.6904 -1.6786
10.8194 17.0021 -1.8388
10.7837 17.3219 -1.8930
10.5747 17.3667 -1.9171
22.2571 37.3807 -4.1664
22.0944 37.9575 -4.2703
21.6068 37.9805 -4.3113
21.2226 38.1807 -4.3717
20.8259 38.3581 -4.4287
20.3922 38.4647 -4.4767
21.4389 41.4276 -4.8590
19.0813 37.7867 -4.4651
18.5424 37.6446 -4.4803
18.1073 37.7022 -4.5183
17.6749 37.7597 -4.5555
17.2450 37.8170 -4.5918
16.8177 37.8741 -4.6273
19.1451 44.2999 -5.4448
18.9088 44.9783 -5.5600
17.5116 44.0960 -5.5105
17.0192 44.1344 -5.5436
15.7934 42.2057 -5.3276
15.3320 42.2529 -5.3589
14.8796 42.3198 -5.3920
14.4256 42.3768 -5.4230
14.0154 42.5619 -5.4696
13.5854 42.6879 -5.5081
13.1336 42.7431 -5.5366
13.4478 45.3779 -5.8998
29.1729 10.1979 3.3596
29.8201 10.7453 3.3596
30.4952 11.3192 3.3596
31.2006 11.9217 3.3596
31.9381 12.5549 3.3596
32.7103 13.2210 3.3596
33.5198 13.9226 3.3596
34.3696 14.6626 3.3596
35.2629 15.4440 3.3596
36.2033 16.2704 3.3596
36.3974 16.7780 3.2875
36.5076 17.2542 3.2072
37.5654 18.1960 3.2072
36.6271 18.1764 3.0364
39.8774 20.2673 3.2072
43.0998 22.4269 3.3596
28.7803 17.5215 1.7417
12.5273 14.9949 -0.4213
12.5078 15.2706 -0.4615
12.4876 15.5519 -0.5022
12.4740 15.8482 -0.5436
12.2169 15.8361 -0.5742
11.7722 15.5707 -0.5942
11.8006 15.9283 -0.6374
11.8893 16.3793 -0.6849
11.6623 16.4005 -0.7146
11.4376 16.4212 -0.7435
10.8875 15.9612 -0.7492
10.4814 15.6927 -0.7619
11.0986 16.9731 -0.8507
10.6191 16.5915 -0.8569
10.2511 16.3666 -0.8696
10.5677 17.2445 -0.9412
20.4057 40.0309 -2.5933
3.3918 15.5250 -1.3150
1.7398 47.3971 -4.2325
1.2683 47.3672 -4.2328
0.7977 47.3351 -4.2320
0.3277 47.3009 -4.2301
-0.1414 47.2645 -4.2270
-0.6099 47.2259 -4.2228
-1.0776 47.1852 -4.2175
-1.5447 47.1423 -4.2111
-2.0111 47.0973 -4.2035
-2.4769 47.0502 -4.1948
-2.9421 47.0009 -4.1850
-3.4066 46.9494 -4.1741
-3.8707 46.8958 -4.1621
-4.3341 46.8401 -4.1490
-4.7971 46.7822 -4.1347
-5.2596 46.7221 -4.1194
-5.7215 46.6600 -4.1029
-6.1831 46.5956 -4.0853
-6.6442 46.5292 -4.0667
-7.1048 46.4605 -4.0469
-7.5651 46.3897 -4.0259
-8.0250 46.3168 -4.0039
-8.4846 46.2416 -3.9808
20.4646 7.4498 3.3596
20.7614 7.7823 3.3596
21.0655 8.1257 3.3596
21.3772 8.4804 3.3596
21.6970 8.8470 3.3596
22.0251 9.2261 3.3596
22.3618 9.6181 3.3596
22.7077 10.0239 3.3596
23.0631 10.4439 3.3596
23.4285 10.8791 3.3596
23.8043 11.3300 3.3596
24.1912 11.7976 3.3596
24.5895 12.2827 3.3596
25.0000 12.7862 3.3596
25.4233 13.3092 3.3596
25.8599 13.8527 3.3596
26.3106 14.4180 3.3596
26.7763 15.0061 3.3596
27.2577 15.6185 3.3596
27.4137 16.0563 3.3182
26.9888 16.1543 3.2072
27.4988 16.8171 3.2072
28.0277 17.5093 3.2072
28.5766 18.2327 3.2072
29.1468 18.9893 3.2072
31.1529 20.7216 3.3596
31.7993 21.5912 3.3596
32.4726 22.5034 3.3596
33.1749 23.4611 3.3596
33.9082 24.4678 3.3596
34.6745 25.5269 3.3596
35.4767 26.6428 3.3596
36.3181 27.8198 3.3596
37.1993 29.0626 3.3596
38.1259 30.3769 3.3596
38.0317 30.8997 3.2677
38.3087 31.7368 3.2072
37.3164 32.7625 2.8768
36.5364 32.7014 2.7356
35.7756 32.6418 2.5991
34.9229 32.4814 2.4593
34.2966 32.5163 2.3384
33.5883 32.4608 2.2147
32.8961 32.4066 2.0949
32.2191 32.3535 1.9789
31.5569 32.3016 1.8665
30.9088 32.2509 1.7576
30.2743 32.2011 1.6521
29.5693 32.0618 1.5454
29.0501 32.1116 1.4509
28.4530 32.0648 1.3547
27.8674 32.0189 1.2613
27.2930 31.9739 1.1708
26.7293 31.9297 1.0830
26.1759 31.8863 0.9978
25.6325 31.8437 0.9151
12.0531 15.2722 0.4009
12.0289 15.5467 0.3705
11.9028 15.6937 0.3371
11.8253 15.9072 0.3053
11.8921 16.3232 0.2769
11.3309 15.8720 0.2348
11.0507 15.7995 0.2004
11.2751 16.4559 0.1749
11.0599 16.4805 0.1423
10.7412 16.3444 0.1093
10.4556 16.2494 0.0780
20.5899 40.0359 -0.4601
3.3512 15.5530 -0.5747
1.1710 44.3274 -1.8881
0.7365 44.2992 -1.8892
0.3026 44.2711 -1.8893
-0.1306 44.2431 -1.8883
-0.5633 44.2151 -1.8862
-0.9956 44.1871 -1.8831
-1.4275 44.1591 -1.8790
-1.8591 44.1311 -1.8738
-2.2905 44.1032 -1.8675
-2.7218 44.0752 -1.8602
-3.1530 44.0473 -1.8519
-3.5843 44.0194 -1.8424
-4.0156 43.9914 -1.8320
-4.4472 43.9635 -1.8204
-4.8790 43.9355 -1.8078
-5.3111 43.9075 -1.7942
-5.7437 43.8795 -1.7794
-6.1768 43.8514 -1.7636
-6.6104 43.8234 -1.7467
-7.0447 43.7952 -1.7288
-7.4798 43.7670 -1.7097
-7.9157 43.7388 -1.6895
15.6754 5.9384 3.3596
15.8373 6.1717 3.3596
16.0013 6.4106 3.3596
16.1674 6.6553 3.3596
16.3357 6.9060 3.3596
16.5063 7.1628 3.3596
16.6792 7.4260 3.3596
16.8544 7.6957 3.3596
17.0321 7.9721 3.3596
17.2122 8.2556 3.3596
17.3948 8.5463 3.3596
17.5800 8.8444 3.3596
17.7680 9.1503 3.3596
17.9585 9.4642 3.3596
18.1519 9.7862 3.3596
18.3481 10.1168 3.3596
18.5473 10.4563 3.3596
18.7494 10.8049 3.3596
18.9547 11.1630 3.3596
19.1630 11.5308 3.3596
19.3746 11.9088 3.3596
19.5895 12.2973 3.3596
19.8078 12.6968 3.3596
20.0296 13.1076 3.3596
20.2550 13.5301 3.3596
20.4840 13.9647 3.3596
20.7169 14.4120 3.3596
20.9536 14.8725 3.3596
21.1943 15.3465 3.3596
21.0565 15.5523 3.2996
20.7041 15.5966 3.2072
20.9459 16.0914 3.2072
21.1920 16.6014 3.2072
21.4423 17.1272 3.2072
21.6972 17.6695 3.2072
21.9566 18.2290 3.2072
22.2208 18.8063 3.2072
23.5586 20.3242 3.3596
23.8456 20.9688 3.3596
24.1381 21.6347 3.3596
24.4362 22.3227 3.3596
24.7400 23.0339 3.3596
25.0496 23.7692 3.3596
25.3654 24.5297 3.3596
25.6874 25.3167 3.3596
26.0158 26.1312 3.3596
26.3512 26.9747 3.3596
26.6929 27.8483 3.3596
27.0419 28.7537 3.3596
27.3983 29.6922 3.3596
27.1873 30.0305 3.2900
26.8575 30.2385 3.2072
27.2199 31.2392 3.2072
27.5902 32.2783 3.2072
26.7730 31.9318 3.0701
26.2248 31.8889 2.9662
25.6864 31.8467 2.8653
25.1575 31.8053 2.7674
24.5657 31.6719 2.6645
24.0898 31.6762 2.5760
23.6215 31.6820 2.4900
23.1270 31.6432 2.4028
11.4493 15.9827 1.1723
22.1614 31.5676 2.2360
21.6897 31.5306 2.1561
21.2252 31.4942 2.0785
20.7674 31.4583 2.0031
20.3163 31.4230 1.9299
19.8716 31.3881 1.8587
19.3758 31.2613 1.7844
18.9469 31.2316 1.7177
18.5712 31.2823 1.6571
18.1501 31.2493 1.5938
17.7343 31.2167 1.5323
17.3237 31.1845 1.4726
16.9182 31.1527 1.4146
16.5176 31.1213 1.3583
14.9607 30.9993 1.1493
16.1216 31.0903 1.3036
14.5822 30.9696 1.1009
15.7303 31.0596 1.2506
14.1717 30.8618 1.0513
15.3434 31.0293 1.1992
13.7981 30.8241 1.0056
13.4740 30.8911 0.9646
12.0413 30.7788 0.8018
13.1107 30.8626 0.9219
12.7508 30.8344 0.8806
12.3944 30.8065 0.8405
7.1132 46.5873 0.3428
6.7320 47.1331 0.3265
6.2609 47.0749 0.3072
11.6913 30.7514 0.7643
5.7956 47.0447 0.2894
5.3318 47.0147 0.2730
4.8659 46.9476 0.2578
3.0368 46.8938 0.2117
4.4056 46.9178 0.2442
2.5808 46.8643 0.2034
3.9466 46.8881 0.2319
2.0999 46.2626 0.1941
3.4938 46.9234 0.2213
1.1552 44.3331 0.1769
-0.5557 44.2213 0.1730
0.7266 44.3051 0.1740
-0.9822 44.1934 0.1751
0.2986 44.2771 0.1724
-1.4083 44.1656 0.1784
-0.1289 44.2492 0.1721
-1.8341 44.1377 0.1830
-2.2597 44.1099 0.1888
-3.9616 43.9987 0.2243
-2.6852 44.0821 0.1958
-4.3873 43.9709 0.2363
-3.1106 44.0543 0.2041
-4.8132 43.9431 0.2495
-3.5360 44.0265 0.2136
-5.2394 43.9152 0.2640
-5.6661 43.8873 0.2797
-6.0932 43.8594 0.2967
-6.5209 43.8315 0.3149
-6.9492 43.8035 0.3344
-7.3783 43.7754 0.3551
-7.8081 43.7473 0.3772
12.6349 4.9789 3.3596
12.7321 5.1561 3.3596
12.8298 5.3365 3.3596
12.9277 5.5204 3.3596
13.0260 5.7077 3.3596
13.1247 5.8985 3.3596
13.2238 6.0929 3.3596
13.3231 6.2910 3.3596
13.4228 6.4929 3.3596
13.5227 6.6985 3.3596
13.6230 6.9082 3.3596
13.7235 7.1218 3.3596
13.8243 7.3395 3.3596
13.9254 7.5614 3.3596
14.0267 7.7875 3.3596
14.1282 8.0181 3.3596
14.2299 8.2531 3.3596
14.3317 8.4927 3.3596
14.4337 8.7369 3.3596
14.5358 8.9859 3.3596
14.6379 9.2398 3.3596
14.7402 9.4986 3.3596
14.8425 9.7626 3.3596
14.9448 10.0317 3.3596
15.0471 10.3062 3.3596
15.1492 10.5860 3.3596
15.2513 10.8714 3.3596
15.3533 11.1625 3.3596
15.4550 11.4593 3.3596
15.5566 11.7621 3.3596
15.6578 12.0709 3.3596
15.7587 12.3858 3.3596
15.8593 12.7071 3.3596
15.9594 13.0347 3.3596
16.0591 13.3690 3.3596
16.1582 13.7099 3.3596
16.2566 14.0576 3.3596
16.3544 14.4123 3.3596
16.4514 14.7741 3.3596
16.5475 15.1432 3.3596
16.2711 15.1730 3.2845
15.9778 15.1822 3.2072
16.0668 15.5562 3.2072
16.1547 15.9375 3.2072
16.2413 16.3266 3.2072
16.3266 16.7233 3.2072
16.4105 17.1280 3.2072
16.4928 17.5407 3.2072
16.5736 17.9616 3.2072
16.6526 18.3907 3.2072
17.5247 19.7231 3.3596
17.6033 20.1905 3.3596
17.6797 20.6671 3.3596
17.7538 21.1529 3.3596
17.8252 21.6481 3.3596
17.8940 22.1529 3.3596
17.9599 22.6673 3.3596
18.0227 23.1915 3.3596
18.0823 23.7257 3.3596
18.1385 24.2698 3.3596
11.9388 16.2920 2.2049
11.7063 16.2944 2.1562
18.2843 25.9632 3.3596
18.3247 26.5482 3.3596
18.3605 27.1436 3.3596
18.3916 27.7496 3.3596
18.4177 28.3660 3.3596
18.4384 28.9929 3.3596
18.2551 29.3117 3.3234
17.8628 29.2940 3.2503
17.6286 29.5333 3.2072
17.6256 30.1718 3.2072
17.6162 30.8202 3.2072
17.6002 31.4784 3.2072
17.0384 31.1611 3.1089
16.6413 31.1300 3.0417
16.2489 31.0992 2.9764
15.8609 31.0688 2.9131
15.4774 31.0388 2.8515
15.0981 31.0090 2.7918
14.7229 30.9796 2.7337
14.3517 30.9505 2.6774
13.9449 30.8346 2.6154
13.6245 30.9019 2.5706
13.2643 30.8737 2.5192
12.9077 30.8457 2.4694
12.5544 30.8180 2.4211
12.2043 30.7906 2.3743
11.8575 30.7634 2.3291
11.5137 30.7364 2.2852
11.1728 30.7097 2.2428
10.8348 30.6832 2.2018
10.4996 30.6569 2.1622
10.1670 30.6309 2.1239
9.8370 30.6050 2.0869
9.5095 30.5793 2.0513
9.1845 30.5538 2.0169
8.8365 30.4416 1.9781
8.5172 30.4175 1.9464
8.2226 30.4775 1.9212
7.9064 30.4527 1.8918
7.5922 30.4281 1.8635
7.2799 30.4036 1.8364
6.9695 30.3793 1.8105
3.4050 15.5173 0.9129
6.3540 30.3310 1.7621
6.0488 30.3071 1.7396
5.7451 30.2832 1.7181
5.4430 30.2596 1.6978
5.1424 30.2360 1.6785
4.8432 30.2125 1.6603
4.5453 30.1891 1.6432
4.2487 30.1659 1.6270
3.9533 30.1427 1.6120
3.6485 30.0328 1.5933
3.3562 30.0099 1.5803
3.0736 30.0717 1.5728
2.7825 30.0489 1.5618
2.4924 30.0261 1.5517
2.2031 30.0034 1.5427
1.9147 29.9808 1.5346
1.6270 29.9583 1.5276
1.3401 29.9357 1.5214
1.0538 29.9133 1.5163
0.7681 29.8909 1.5121
0.4831 29.8685 1.5089
0.1985 29.8462 1.5066
-0.0857 29.8239 1.5053
-0.3694 29.8016 1.5050
-0.6528 29.7794 1.5055
-0.9358 29.7572 1.5071
-1.2186 29.7350 1.5095
-1.4976 29.6409 1.5093
-1.7786 29.6070 1.5131
-2.0668 29.6803 1.5233
-2.3491 29.6582 1.5295
-2.6315 29.6360 1.5367
-2.9139 29.6138 1.5449
-3.1964 29.5917 1.5540
-3.4790 29.5695 1.5640
-3.7618 29.5473 1.5750
-4.0448 29.5251 1.5870
-4.3281 29.5028 1.5999
-4.6118 29.4805 1.6138
-4.8958 29.4582 1.6287
-5.1803 29.4359 1.6445
10.0481 4.1175 3.2072
10.5874 4.4545 3.3596
10.6489 4.5980 3.3596
10.7102 4.7436 3.3596
10.7712 4.8913 3.3596
10.8319 5.0413 3.3596
10.8922 5.1935 3.3596
10.9522 5.3479 3.3596
11.0117 5.5047 3.3596
11.0708 5.6638 3.3596
11.1295 5.8252 3.3596
11.1878 5.9891 3.3596
11.2455 6.1553 3.3596
11.3027 6.3240 3.3596
11.3593 6.4952 3.3596
11.4154 6.6689 3.3596
11.4709 6.8452 3.3596
11.5258 7.0241 3.3596
11.5799 7.2055 3.3596
11.6333 7.3896 3.3596
11.6860 7.5764 3.3596
11.7380 7.7659 3.3596
11.7891 7.9582 3.3596
11.8394 8.1532 3.3596
11.8887 8.3510 3.3596
11.9371 8.5517 3.3596
11.9845 8.7552 3.3596
12.0309 8.9616 3.3596
12.0762 9.1709 3.3596
12.1205 9.3831 3.3596
12.1635 9.5983 3.3596
12.2053 9.8166 3.3596
12.2459 10.0378 3.3596
12.2853 10.2621 3.3596
12.3230 10.4894 3.3596
12.3594 10.7198 3.3596
12.3943 10.9534 3.3596
12.4277 11.1900 3.3596
12.4595 11.4298 3.3596
12.4895 11.6728 3.3596
12.5179 11.9189 3.3596
12.5444 12.1682 3.3596
12.5691 12.4206 3.3596
12.5917 12.6763 3.3596
12.6124 12.9352 3.3596
12.6310 13.1972 3.3596
12.6474 13.4624 3.3596
12.6616 13.7309 3.3596
12.6734 14.0025 3.3596
12.6828 14.2772 3.3596
12.6897 14.5552 3.3596
12.6940 14.8363 3.3596
12.4835 14.8677 3.3034
12.2427 14.8591 3.2399
12.1150 14.9859 3.2072
12.1084 15.2660 3.2072
12.0990 15.5489 3.2072
12.0866 15.8345 3.2072
12.0711 16.1230 3.2072
11.9873 16.3255 3.1898
11.6479 16.1766 3.1052
11.6180 16.4559 3.1037
11.9764 17.3031 3.2072
11.9441 17.6044 3.2072
11.9081 17.9081 3.2072
11.8685 18.2140 3.2072
12.3868 19.4023 3.3596
12.3370 19.7271 3.3596
12.2831 20.0540 3.3596
12.2247 20.3829 3.3596
12.1620 20.7135 3.3596
12.0947 21.0458 3.3596
12.0227 21.3796 3.3596
11.9460 21.7147 3.3596
11.8644 22.0511 3.3596
11.7778 22.3884 3.3596
11.6863 22.7265 3.3596
11.5896 23.0653 3.3596
11.4877 23.4045 3.3596
11.3805 23.7440 3.3596
11.2678 24.0834 3.3596
11.1496 24.4226 3.3596
11.0259 24.7613 3.3596
10.8966 25.0994 3.3596
10.7615 25.4364 3.3596
10.6207 25.7722 3.3596
10.4740 26.1065 3.3596
10.3214 26.4390 3.3596
10.1630 26.7694 3.3596
9.9985 27.0974 3.3596
9.8281 27.4227 3.3596
9.6516 27.7450 3.3596
9.4691 28.0640 3.3596
9.2805 28.3793 3.3596
9.0487 28.5732 3.3458
8.7500 28.5563 3.3084
8.4533 28.5393 3.2723
8.1585 28.5223 3.2375
7.8732 28.5331 3.2072
7.6589 28.8063 3.2072
7.4390 29.0736 3.2072
7.2137 29.3348 3.2072
6.9828 29.5894 3.2072
6.7467 29.8372 3.2072
3.3587 15.5292 1.6558
6.2588 30.3110 3.2072
6.0074 30.5363 3.2072
5.7513 30.7546 3.2073
5.4905 30.9643 3.2074
5.0681 30.2292 3.1112
4.7734 30.2061 3.0899
4.4799 30.1831 3.0698
4.1877 30.1602 3.0508
3.8967 30.1374 3.0331
3.5964 30.0278 3.0077
3.3085 30.0072 2.9925
3.0299 30.0674 2.9864
2.7430 30.0449 2.9732
2.4570 30.0225 2.9610
2.1719 30.0001 2.9500
1.8876 29.9778 2.9401
1.6040 29.9556 2.9313
1.3212 29.9334 2.9236
1.0390 29.9112 2.9170
0.7573 29.8891 2.9114
-0.3642 29.8011 2.8999
0.4763 29.8671 2.9069
-0.6436 29.7792 2.8996
0.1957 29.8451 2.9035
-0.9227 29.7573 2.9005
-0.0845 29.8231 2.9011
-1.2015 29.7354 2.9024
-1.4766 29.6417 2.8983
-2.5946 29.6380 2.9289
-1.7537 29.6080 2.9011
-2.8731 29.6161 2.9371
-2.0312 29.5863 2.9062
-3.1516 29.5943 2.9465
-2.3162 29.6598 2.9217
-3.4302 29.5724 2.9568
-3.7090 29.5505 2.9683
-3.9881 29.5286 2.9808
-4.2673 29.5067 2.9944
-4.5470 29.4847 3.0091
-4.8270 29.4628 3.0248
-5.1074 29.4407 3.0417
8.5635 3.6491 3.2072
8.7460 3.8231 3.2607
9.0514 4.0569 3.3596
9.0911 4.1763 3.3596
9.1302 4.2972 3.3596
9.1687 4.4195 3.3596
9.2067 4.5432 3.3596
9.2440 4.6685 3.3596
9.2807 4.7953 3.3596
9.3168 4.9235 3.3596
9.3521 5.0533 3.3596
9.3868 5.1846 3.3596
9.4207 5.3174 3.3596
9.4539 5.4518 3.3596
9.4862 5.5877 3.3596
9.5178 5.7252 3.3596
9.5486 5.8642 3.3596
9.5785 6.0049 3.3596
9.6075 6.1471 3.3596
9.6356 6.2909 3.3596
9.6628 6.4365 3.3596
9.6889 6.5833 3.3596
9.7140 6.7320 3.3596
9.7382 6.8822 3.3596
9.7612 7.0340 3.3596
9.7831 7.1875 3.3596
9.8040 7.3426 3.3596
9.8236 7.4993 3.3596
9.8421 7.6576 3.3596
9.8592 7.8176 3.3596
9.8752 7.9791 3.3596
9.8898 8.1423 3.3596
9.9030 8.3071 3.3596
9.9149 8.4735 3.3596
9.9253 8.6414 3.3596
9.9343 8.8110 3.3596
9.9418 8.9821 3.3596
9.9477 9.1549 3.3596
9.9520 9.3291 3.3596
9.9547 9.5049 3.3596
9.9557 9.6823 3.3596
9.9550 9.8611 3.3596
9.9526 10.0414 3.3596
9.9483 10.2232 3.3596
9.9421 10.4065 3.3596
9.9341 10.5911 3.3596
9.9242 10.7772 3.3596
9.9122 10.9646 3.3596
9.8982 11.1534 3.3596
9.8821 11.3435 3.3596
9.8639 11.5348 3.3596
9.8436 11.7274 3.3596
9.8210 11.9212 3.3596
9.7961 12.1161 3.3596
9.7689 12.3121 3.3596
9.7393 12.5092 3.3596
9.7073 12.7073 3.3596
9.6728 12.9063 3.3596
9.6358 13.1063 3.3596
9.5963 13.3071 3.3596
9.5541 13.5086 3.3596
9.5093 13.7110 3.3596
9.4618 13.9139 3.3596
9.4116 14.1174 3.3596
9.3585 14.3215 3.3596
9.3026 14.5260 3.3596
9.1607 14.5983 3.3293
8.9701 14.5911 3.2820
8.7817 14.5837 3.2359
8.6392 14.6504 3.2072
8.5717 14.8465 3.2072
8.5012 15.0425 3.2072
8.4277 15.2383 3.2072
8.3513 15.4339 3.2072
8.2717 15.6290 3.2072
8.1891 15.8237 3.2072
8.1034 16.0179 3.2072
8.0146 16.2113 3.2072
7.9226 16.4039 3.2072
7.8274 16.5956 3.2072
7.7291 16.7863 3.2072
7.6275 16.9758 3.2072
7.5227 17.1641 3.2072
7.4146 17.3509 3.2072
7.3034 17.5363 3.2072
7.1888 17.7199 3.2072
7.0711 17.9018 3.2072
7.2803 18.9410 3.3596
7.1501 19.1274 3.3596
7.0165 19.3115 3.3596
6.8795 19.4931 3.3596
6.7392 19.6721 3.3596
6.5955 19.8485 3.3596
6.4486 20.0220 3.3596
6.2983 20.1924 3.3596
6.1448 20.3597 3.3596
5.9880 20.5236 3.3596
5.8281 20.6841 3.3596
5.6650 20.8410 3.3596
5.4989 20.9941 3.3596
5.3297 21.1433 3.3596
5.1576 21.2885 3.3596
4.9825 21.4294 3.3596
4.8047 21.5661 3.3596
4.6240 21.6983 3.3596
4.4407 21.8258 3.3596
4.2548 21.9487 3.3596
4.0663 22.0667 3.3596
3.8755 22.1796 3.3596
3.6823 22.2875 3.3596
3.4868 22.3902 3.3596
3.2893 22.4875 3.3596
3.0897 22.5793 3.3596
2.8882 22.6657 3.3596
2.6849 22.7463 3.3596
2.4799 22.8212 3.3596
2.2734 22.8904 3.3596
2.0654 22.9536 3.3596
1.8561 23.0108 3.3596
1.6456 23.0620 3.3596
1.4341 23.1070 3.3596
1.2216 23.1460 3.3596
1.0084 23.1786 3.3596
0.7945 23.2051 3.3596
0.5801 23.2253 3.3596
0.3653 23.2392 3.3596
0.1503 23.2468 3.3596
-0.0649 23.2481 3.3596
-0.2800 23.2430 3.3596
-1.1371 23.1597 3.3596
-0.4949 23.2316 3.3596
-1.3499 23.1232 3.3596
-0.7094 23.2139 3.3596
-1.5618 23.0806 3.3596
-0.9236 23.1899 3.3596
-1.7727 23.0318 3.3596
-1.9825 22.9770 3.3596
-2.8077 22.6983 3.3596
-2.1910 22.9161 3.3596
-3.0100 22.6143 3.3596
-2.3981 22.8494 3.3596
-3.2103 22.5246 3.3596
-2.6038 22.7768 3.3596
-3.4087 22.4294 3.3596
-3.6050 22.3289 3.3596
-3.7991 22.2231 3.3596
7.7720 3.4442 3.3596
7.7993 3.5426 3.3596
7.8260 3.6419 3.3596
7.8521 3.7423 3.3596
7.8775 3.8436 3.3596
7.9023 3.9460 3.3596
7.9265 4.0494 3.3596
7.9499 4.1538 3.3596
7.9727 4.2591 3.3596
7.9947 4.3656 3.3596
8.0160 4.4730 3.3596
8.0365 4.5814 3.3596
8.0563 4.6909 3.3596
8.0752 4.8013 3.3596
8.0934 4.9128 3.3596
8.1106 5.0253 3.3596
8.1271 5.1388 3.3596
8.1427 5.2534 3.3596
8.1573 5.3689 3.3596
8.1710 5.4855 3.3596
8.1838 5.6030 3.3596
8.1956 5.7215 3.3596
8.2064 5.8411 3.3596
8.2163 5.9616 3.3596
8.2250 6.0831 3.3596
8.2327 6.2056 3.3596
8.2393 6.3290 3.3596
8.2448 6.4534 3.3596
8.2492 6.5788 3.3596
8.2524 6.7051 3.3596
8.2544 6.8323 3.3596
8.2552 6.9604 3.3596
8.2547 7.0894 3.3596
8.2530 7.2194 3.3596
8.2500 7.3502 3.3596
8.2457 7.4818 3.3596
8.2400 7.6144 3.3596
8.2329 7.7477 3.3596
8.2245 7.8818 3.3596
8.2146 8.0168 3.3596
8.2033 8.1525 3.3596
8.1905 8.2889 3.3596
8.1761 8.4261 3.3596
8.1602 8.5640 3.3596
8.1428 8.7026 3.3596
8.1238 8.8418 3.3596
8.1031 8.9816 3.3596
8.0808 9.1220 3.3596
8.0568 9.2630 3.3596
8.0312 9.4045 3.3596
8.0038 9.5465 3.3596
7.9746 9.6890 3.3596
7.9436 9.8319 3.3596
7.9109 9.9752 3.3596
7.8762 10.1188 3.3596
7.8397 10.2628 3.3596
7.8014 10.4070 3.3596
7.7611 10.5515 3.3596
7.7188 10.6961 3.3596
7.6747 10.8409 3.3596
7.6285 10.9858 3.3596
7.5803 11.1307 3.3596
7.5300 11.2756 3.3596
7.4778 11.4204 3.3596
7.4234 11.5652 3.3596
7.3669 11.7097 3.3596
7.3084 11.8541 3.3596
7.2476 11.9981 3.3596
7.1848 12.1419 3.3596
7.1198 12.2852 3.3596
7.0525 12.4280 3.3596
6.9831 12.5704 3.3596
6.9115 12.7121 3.3596
6.8377 12.8532 3.3596
6.7616 12.9935 3.3596
6.6833 13.1331 3.3596
6.6028 13.2718 3.3596
6.5200 13.4095 3.3596
6.4349 13.5463 3.3596
6.3476 13.6819 3.3596
6.2580 13.8165 3.3596
6.1662 13.9498 3.3596
6.0721 14.0817 3.3596
5.9757 14.2123 3.3596
5.8730 14.3314 3.3572
5.7185 14.3243 3.3259
5.5653 14.3172 3.2956
5.4131 14.3100 3.2661
5.2622 14.3027 3.2375
5.1123 14.2954 3.2098
5.0014 14.3971 3.2072
4.8926 14.5086 3.2072
4.7818 14.6180 3.2072
4.6690 14.7253 3.2072
4.5543 14.8305 3.2072
4.4375 14.9335 3.2072
4.3189 15.0342 3.2072
4.1984 15.1325 3.2072
4.0760 15.2284 3.2072
3.9519 15.3217 3.2072
3.8259 15.4125 3.2072
3.6983 15.5005 3.2072
3.5689 15.5859 3.2072
3.4033 15.5108 3.1748
3.3054 15.7482 3.2072
3.1712 15.8250 3.2072
3.0357 15.8988 3.2072
2.7602 16.0371 3.2072
2.8986 15.9695 3.2072
2.6205 16.1016 3.2072
2.1939 16.2754 3.2072
2.4795 16.1628 3.2072
2.0495 16.3267 3.2072
1.9041 16.3746 3.2072
2.3372 16.2208 3.2072
1.7577 16.4190 3.2072
1.6105 16.4599 3.2072
0.4099 16.6576 3.2072
1.4625 16.4973 3.2072
1.0143 16.5879 3.2072
0.2581 16.6658 3.2072
1.3137 16.5311 3.2072
0.8638 16.6108 3.2072
-0.1978 16.6680 3.2072
0.1061 16.6702 3.2072
1.1643 16.5613 3.2072
0.7128 16.6301 3.2072
-0.3497 16.6613 3.2072
-0.0459 16.6710 3.2072
-0.8039 16.6189 3.2072
-1.4035 16.5111 3.2072
0.5615 16.6457 3.2072
-0.5014 16.6509 3.2072
-0.9546 16.5974 3.2072
-1.9919 16.3461 3.2072
-0.6528 16.6367 3.2072
-1.5518 16.4751 3.2072
-1.1048 16.5723 3.2072
-2.1367 16.2962 3.2072
-1.6994 16.4356 3.2072
-1.2545 16.5435 3.2072
-2.2805 16.2429 3.2072
-1.8461 16.3926 3.2072
-2.4232 16.1862 3.2072
-2.5646 16.1263 3.2072
-2.7049 16.0631 3.2072
6.8091 3.1393 3.3560
6.8285 3.2242 3.3565
6.8471 3.3096 3.3569
6.8650 3.3958 3.3573
6.8823 3.4828 3.3577
6.8989 3.5704 3.3581
6.9441 3.8374 3.3589
6.9148 3.6588 3.3584
6.9574 3.9276 3.3590
6.9300 3.7479 3.3588
6.9700 4.0186 3.3591
6.9819 4.1102 3.3592
7.0514 4.9649 3.3596
6.9930 4.2026 3.3594
7.0291 4.5785 3.3596
7.0547 5.0631 3.3596
7.0592 5.3614 3.3596
7.0033 4.2956 3.3595
7.0359 4.6741 3.3596
7.0571 5.1619 3.3596
7.0588 5.4621 3.3596
7.0516 5.7676 3.3596
7.0128 4.3893 3.3596
7.0419 4.7704 3.3596
7.0587 5.2614 3.3596
7.0471 5.8706 3.3596
7.0471 4.8673 3.3596
7.0214 4.4836 3.3596
7.0574 5.5634 3.3596
7.0273 6.1828 3.3596
6.9853 6.6059 3.3596
6.9243 7.0360 3.3596
7.0416 5.9741 3.3596
7.0550 5.6652 3.3596
7.0185 6.2878 3.3596
6.9719 6.7128 3.3596
6.9059 7.1445 3.3596
7.0350 6.0782 3.3596
7.0086 6.3934 3.3596
6.8432 7.4719 3.3596
6.9572 6.8202 3.3596
6.8863 7.2533 3.3596
6.7410 7.9121 3.3596
6.9975 6.4994 3.3596
6.8197 7.5816 3.3596
6.9414 6.9279 3.3596
6.8654 7.3624 3.3596
6.7120 8.0226 3.3596
6.6164 8.3549 3.3596
6.7948 7.6915 3.3596
6.4686 8.7986 3.3596
6.2967 9.2410 3.3596
6.6815 8.1332 3.3596
6.5817 8.4658 3.3596
6.7686 7.8017 3.3596
6.4280 8.9094 3.3596
6.2499 9.3512 3.3596
6.6497 8.2440 3.3596
6.5455 8.5767 3.3596
6.3857 9.0201 3.3596
6.0999 9.6800 3.3596
6.2014 9.4611 3.3596
5.8775 10.1130 3.3596
6.5078 8.6877 3.3596
6.3420 9.1307 3.3596
6.0467 9.7889 3.3596
6.1514 9.5707 3.3596
5.8178 10.2200 3.3596
5.6291 10.5374 3.3596
5.9919 9.8974 3.3596
5.3545 10.9503 3.3596
5.7565 10.3264 3.3596
5.0536 11.3483 3.3594
5.9355 10.0054 3.3596
5.5629 10.6418 3.3596
5.2818 11.0514 3.3596
5.6936 10.4322 3.3596
4.9739 11.4440 3.3591
5.4951 10.7454 3.3596
4.7204 11.7126 3.3547
5.2074 11.1515 3.3596
4.3689 12.0716 3.3544
4.8920 11.5373 3.3583
5.4256 10.8483 3.3596
4.6337 11.8014 3.3537
4.2776 12.1587 3.3547
5.1315 11.2506 3.3596
4.8076 11.6272 3.3569
3.9945 12.4108 3.3553
4.5470 11.8928 3.3540
4.1847 12.2443 3.3549
3.5969 12.7230 3.3562
3.1776 13.0052 3.3569
3.8972 12.4915 3.3556
4.4587 11.9829 3.3542
4.0903 12.3284 3.3551
3.4940 12.7965 3.3564
3.0696 13.0707 3.3571
3.7985 12.5704 3.3558
2.7385 13.2543 3.3576
3.3898 12.8680 3.3566
2.2821 13.4678 3.3582
2.9604 13.1340 3.3573
3.6984 12.6476 3.3560
2.6260 13.3111 3.3578
3.2843 12.9376 3.3568
2.1655 13.5153 3.3583
2.8500 13.1953 3.3574
1.8108 13.6433 3.3587
2.5123 13.3657 3.3579
1.3275 13.7788 3.3591
2.0481 13.5604 3.3585
0.8353 13.8728 3.3594
1.6910 13.6810 3.3588
2.3977 13.4179 3.3581
1.2052 13.8063 3.3592
1.9299 13.6031 3.3586
0.7112 13.8896 3.3595
1.5705 13.7162 3.3589
1.0823 13.8311 3.3593
0.3366 13.8907 3.3516
-0.1619 13.8528 3.3406
0.5869 13.9038 3.3595
1.4493 13.7488 3.3590
0.9590 13.8532 3.3594
0.2117 13.8814 3.3479
-0.2861 13.8431 3.3395
0.4617 13.9000 3.3559
-0.6580 13.8134 3.3396
-1.1528 13.7724 3.3485
0.0870 13.8719 3.3449
-0.4102 13.8333 3.3389
-1.2764 13.7619 3.3523
-0.7818 13.8033 3.3409
-0.0375 13.8624 3.3424
-0.5341 13.8234 3.3390
-1.4000 13.7513 3.3567
-0.9055 13.7931 3.3429
-1.5227 13.7318 3.3595
-1.0292 13.7828 3.3454
-1.6435 13.6978 3.3595
-1.7637 13.6613 3.3594
-1.8831 13.6223 3.3593
-2.0017 13.5807 3.3593
-2.1195 13.5367 3.3592
-2.2365 13.4904 3.3591
