ply
format ascii 1.0
element vertex 1363
property float32 x
property float32 y
property float32 z
end_header
7.7043 0.3647 -1.5314
7.7216 0.4404 -1.5584
7.7390 0.5166 -1.5858
7.7565 0.5932 -1.6135
7.7741 0.6704 -1.6415
7.7919 0.7481 -1.6699
7.8302 0.8286 -1.7031
7.8861 0.9120 -1.7406
7.9430 0.9969 -1.7790
8.0009 1.0832 -1.8181
8.0598 1.1712 -1.8581
8.1198 1.2608 -1.8991
8.1809 1.3520 -1.9409
8.2635 1.4486 -1.9886
8.3682 1.5513 -2.0425
8.4761 1.6571 -2.0983
8.5873 1.7662 -2.1559
8.7021 1.8788 -2.2155
8.8466 2.0009 -2.2840
9.0285 2.1353 -2.3636
9.2192 2.2761 -2.4473
9.4395 2.4291 -2.5407
9.7974 2.6242 -2.6736
12.4955 15.8843 -8.6698
12.3506 16.0475 -8.7289
12.4003 16.8408 -9.1000
12.0906 16.7917 -9.0446
11.2771 16.7686 -8.9508
11.8383 16.8163 -9.0298
11.0546 16.8234 -8.9544
11.4096 16.5804 -8.8764
7.7285 0.4706 -1.1813
7.7459 0.5469 -1.2073
7.7634 0.6237 -1.2335
7.7811 0.7009 -1.2601
7.7989 0.7788 -1.2869
7.8520 0.8610 -1.3199
7.9081 0.9448 -1.3540
7.9653 1.0301 -1.3888
8.0234 1.1169 -1.4243
8.0827 1.2053 -1.4606
8.1430 1.2953 -1.4976
8.2044 1.3871 -1.5355
8.3025 1.4869 -1.5809
8.4081 1.5905 -1.6287
8.5169 1.6972 -1.6781
8.6291 1.8072 -1.7291
8.7448 1.9207 -1.7818
8.9114 2.0487 -1.8461
9.0957 2.1849 -1.9157
9.2889 2.3277 -1.9886
9.5618 2.4958 -2.0806
9.9286 2.6957 -2.1956
29.3378 18.1150 -10.1293
27.9862 18.0707 -9.9610
12.5591 15.9112 -7.5761
12.7017 15.7499 -7.5214
12.1008 15.6654 -7.4378
12.1066 16.7376 -7.8826
12.3685 16.3640 -7.7480
11.7839 16.6580 -7.8250
12.0111 16.2431 -7.6699
11.6102 16.7848 -7.8648
10.9062 16.5008 -7.6947
11.1756 16.5265 -7.7250
7.7525 0.5759 -0.8332
7.7701 0.6528 -0.8581
7.7878 0.7301 -0.8832
7.8173 0.8093 -0.9100
7.8728 0.8921 -0.9401
7.9292 0.9763 -0.9709
7.9866 1.0620 -1.0022
8.0451 1.1492 -1.0341
8.1045 1.2380 -1.0667
8.1651 1.3284 -1.1000
8.2366 1.4223 -1.1353
8.3400 1.5236 -1.1758
8.4464 1.6280 -1.2175
8.5561 1.7356 -1.2605
8.6691 1.8465 -1.3050
8.7954 1.9630 -1.3524
8.9737 2.0948 -1.4090
9.1604 2.2327 -1.4684
9.3561 2.3772 -1.5308
9.6805 2.5605 -1.6161
28.7908 16.6691 -7.8188
29.3387 17.3796 -8.1028
28.9441 17.5388 -8.1291
28.7169 17.7962 -8.2016
28.3225 17.9466 -8.2255
28.4851 18.4522 -8.4123
12.6573 15.3169 -6.2887
12.5807 15.5489 -6.3699
12.1995 15.7333 -6.4181
12.5032 15.7846 -6.4525
12.1799 16.0490 -6.5336
12.0425 16.2149 -6.5880
11.7131 16.4763 -6.6687
11.9871 16.4956 -6.6891
11.6308 16.7266 -6.7576
11.0774 17.0447 -6.8504
11.2264 16.5093 -6.6580
10.8395 17.0664 -6.8479
10.6038 17.0877 -6.8455
11.3432 17.0613 -6.8686
7.7765 0.6810 -0.4856
7.7942 0.7585 -0.5094
7.8374 0.8392 -0.5352
7.8931 0.9224 -0.5621
7.9498 1.0070 -0.5896
8.0074 1.0931 -0.6175
8.0661 1.1807 -0.6460
8.1259 1.2698 -0.6751
8.1867 1.3606 -0.7047
8.2723 1.4573 -0.7369
8.3765 1.5595 -0.7716
8.4837 1.6646 -0.8073
8.5942 1.7730 -0.8441
8.7081 1.8848 -0.8821
8.8542 2.0065 -0.9243
9.0346 2.1398 -0.9712
9.2236 2.2794 -1.0205
9.4436 2.4314 -1.0746
9.7977 2.6244 -1.1460
44.8425 19.3953 -7.5233
29.6413 16.4536 -6.1098
29.2571 16.6211 -6.1504
29.2618 17.0092 -6.2728
29.0440 17.2700 -6.3483
29.0595 17.6716 -6.4756
28.8582 17.9441 -6.5555
28.7009 18.2441 -6.6456
28.0530 18.2265 -6.6205
29.1406 19.3483 -7.0087
13.3562 15.7820 -5.4359
12.5706 15.1652 -5.2175
12.1647 14.9848 -5.1497
12.5540 15.7919 -5.4211
12.7812 16.4203 -5.6308
12.4321 16.3142 -5.5887
12.0565 16.1628 -5.5313
12.1113 16.5890 -5.6716
11.9365 16.7076 -5.7067
11.5883 16.5782 -5.6573
11.5028 16.8223 -5.7354
11.2778 16.8636 -5.7445
11.0548 16.9050 -5.7537
10.7789 16.8605 -5.7338
10.9085 17.4581 -5.9323
20.8728 34.1868 -11.6077
20.4219 34.2401 -11.6170
19.9748 34.2929 -11.6263
20.7518 36.4914 -12.3628
20.1650 36.3316 -12.3001
19.7021 36.3827 -12.3091
19.2427 36.4333 -12.3181
18.7625 36.4365 -12.3113
18.4914 36.8470 -12.4423
18.2046 37.2378 -12.5667
17.9144 37.6332 -12.6928
18.9736 40.9530 -13.8047
17.0897 39.0014 -13.1327
16.7889 39.4304 -13.2703
16.3907 39.6400 -13.3343
15.9306 39.6985 -13.3475
15.4727 39.7566 -13.3608
15.7547 41.7707 -14.0314
15.2810 41.8375 -14.0477
7.8021 0.7866 -0.1370
7.8572 0.8688 -0.1605
7.9132 0.9524 -0.1844
7.9701 1.0373 -0.2086
8.0280 1.1238 -0.2333
8.0869 1.2117 -0.2584
8.1469 1.3013 -0.2839
8.2080 1.3924 -0.3099
8.3078 1.4921 -0.3379
8.4127 1.5950 -0.3668
8.5207 1.7009 -0.3965
8.6320 1.8101 -0.4271
8.7468 1.9227 -0.4587
8.9127 2.0497 -0.4939
9.0953 2.1846 -0.5311
9.2864 2.3258 -0.5701
9.5536 2.4913 -0.6153
9.9154 2.6885 -0.6686
46.3035 17.5286 -4.5704
45.6541 17.7929 -4.6545
45.3803 19.7574 -5.2276
36.8928 17.3655 -4.6276
29.2226 16.2900 -4.3986
29.4351 16.7897 -4.5407
29.3263 17.1120 -4.6349
29.2164 17.4355 -4.7294
28.9936 17.6921 -4.8056
28.4212 17.7295 -4.8223
28.7752 18.3470 -4.9967
27.6334 18.0050 -4.9096
28.0129 18.6490 -5.0913
20.5832 16.5286 -4.5534
13.3759 15.7604 -4.3953
13.2245 15.9051 -4.4377
12.4409 15.2743 -4.2637
12.2819 15.3948 -4.2992
12.2942 15.7346 -4.3960
12.2160 15.9655 -4.4624
12.1365 16.1997 -4.5297
12.0556 16.4369 -4.5978
11.9476 16.6417 -4.6569
11.7933 16.7844 -4.6986
11.6383 16.9276 -4.7404
10.8886 16.1880 -4.5349
11.3631 17.2710 -4.8399
10.8670 16.8897 -4.7347
10.5926 16.8385 -4.7218
10.7686 17.5128 -4.9125
20.2611 33.7181 -9.4610
19.8168 33.7563 -9.4746
20.1928 35.2179 -9.8876
19.8865 35.5221 -9.9758
19.3288 35.3721 -9.9364
18.9931 35.6215 -10.0091
19.4825 37.4607 -10.5286
19.0839 37.6340 -10.5799
18.9881 38.4193 -10.8032
18.4638 38.3465 -10.7853
17.7860 37.9330 -10.6714
17.5439 38.4420 -10.8169
17.2291 38.8064 -10.9218
16.6918 38.6665 -10.8847
16.2188 38.6624 -10.8857
15.6630 38.4456 -10.8267
15.2886 38.6651 -10.8906
14.8502 38.7222 -10.9086
14.7278 39.6243 -11.1647
14.6639 40.7384 -11.4805
14.2111 40.8012 -11.5001
13.7834 40.9335 -11.5391
3.5849 15.9601 -4.5048
7.8772 0.8986 0.2156
7.9334 0.9826 0.1948
7.9906 1.0679 0.1737
8.0487 1.1547 0.1522
8.1079 1.2430 0.1305
8.1681 1.3329 0.1084
8.2408 1.4264 0.0860
8.3435 1.5272 0.0635
8.4492 1.6308 0.0404
8.5581 1.7376 0.0166
8.6702 1.8475 -0.0079
8.7954 1.9631 -0.0331
8.9720 2.0935 -0.0594
9.1567 2.2300 -0.0868
9.3501 2.3729 -0.1155
9.6660 2.5526 -0.1472
46.4170 17.7120 -2.2128
45.3184 17.7977 -2.2980
45.9574 18.5648 -2.4707
45.5805 18.9287 -2.5905
45.3757 20.4120 -3.0027
36.8231 18.3178 -2.9069
29.3388 16.0497 -2.7030
29.4135 16.4654 -2.8091
28.9322 16.5689 -2.8616
28.5943 16.7483 -2.9264
29.2272 17.5047 -3.0926
29.0353 17.7778 -3.1741
28.8147 18.0326 -3.2521
28.5973 18.2886 -3.3301
28.2748 18.4750 -3.3949
28.5911 19.0841 -3.5377
12.3201 14.7732 -3.1783
12.4981 15.2953 -3.3003
11.9938 14.9817 -3.2419
12.1873 15.5401 -3.3721
12.5435 16.3288 -3.5527
11.9492 15.8826 -3.4646
11.9386 16.2046 -3.5438
11.9276 16.5351 -3.6249
11.6662 16.5204 -3.6303
11.4120 16.5105 -3.6365
11.3140 16.7263 -3.6922
11.6005 17.5279 -3.8776
11.3851 17.5851 -3.8984
10.5356 16.6385 -3.6961
10.2632 16.5763 -3.6896
21.6355 35.7457 -7.9715
20.8295 35.2128 -7.8673
20.4268 35.3430 -7.9107
20.1840 35.7535 -8.0165
19.2377 34.8981 -7.8380
18.8652 35.0583 -7.8869
18.2421 34.7399 -7.8278
17.8955 34.9366 -7.8843
17.5838 35.2045 -7.9566
17.1656 35.2587 -7.9804
16.7500 35.3127 -8.0039
17.4095 37.6884 -8.5540
17.6551 39.2649 -8.9235
17.4525 39.8953 -9.0784
17.1167 40.2393 -9.1679
16.4722 39.8469 -9.0894
16.4447 40.9587 -9.3537
15.6382 41.3727 -9.4690
3.5344 15.9560 -3.6936
7.9541 1.0135 0.5770
8.0115 1.0992 0.5590
8.0699 1.1863 0.5408
8.1293 1.2750 0.5223
8.1898 1.3653 0.5036
8.2768 1.4617 0.4861
8.3803 1.5632 0.4691
8.4868 1.6676 0.4517
8.5964 1.7752 0.4339
8.7094 1.8860 0.4156
8.8545 2.0067 0.3982
9.0331 2.1387 0.3813
9.2201 2.2768 0.3638
9.4339 2.4261 0.3462
9.7832 2.6165 0.3320
46.4645 17.8733 0.1505
46.4183 18.3711 0.0186
45.9491 19.2185 -0.2440
45.5008 19.5489 -0.3724
44.9583 19.8320 -0.4977
29.8798 16.4192 -1.1283
29.1775 16.4033 -1.1911
29.2281 16.8067 -1.2833
30.0036 17.6420 -1.4105
28.8733 17.3565 -1.4478
28.4042 17.4521 -1.5139
28.7378 18.0438 -1.6232
28.5699 18.3278 -1.7054
28.5925 18.7371 -1.7994
28.1229 18.8229 -1.8618
27.6848 18.9223 -1.9242
13.0120 14.9479 -2.2382
12.2728 14.9737 -2.2947
12.3414 15.3654 -2.3717
12.3743 15.7230 -2.4438
12.5277 16.2469 -2.5422
12.2453 16.2109 -2.5530
11.8619 16.0318 -2.5407
12.0203 16.5881 -2.6448
11.9610 16.8564 -2.7033
11.3265 16.3034 -2.6295
11.5055 16.9181 -2.7436
11.8129 17.7477 -2.8934
10.8437 16.6490 -2.7282
10.3155 16.1887 -2.6659
10.3015 16.5283 -2.7349
11.1148 18.2362 -3.0315
20.6143 34.5953 -5.7768
20.1129 34.5341 -5.7917
19.7090 34.6323 -5.8326
19.3114 34.7379 -5.8742
18.8884 34.7927 -5.9066
18.4686 34.8472 -5.9384
18.0516 34.9015 -5.9696
17.6375 34.9556 -6.0001
17.6683 35.9080 -6.1849
17.2432 35.9506 -6.2129
16.6627 35.6543 -6.1815
16.2181 35.6321 -6.1969
15.8079 35.6779 -6.2236
15.4002 35.7236 -6.2497
14.9948 35.7692 -6.2752
15.2445 37.4170 -6.5821
15.0512 38.0347 -6.7083
14.9469 38.9126 -6.8805
16.2624 43.6471 -7.7365
15.7277 43.5495 -7.7373
15.0444 43.0112 -7.6589
14.8391 43.8392 -7.8234
8.0333 1.1317 0.9493
8.0920 1.2193 0.9342
8.1517 1.3084 0.9190
8.2130 1.3991 0.9037
8.3144 1.4986 0.8924
8.4187 1.6009 0.8810
8.5260 1.7061 0.8693
8.6365 1.8145 0.8575
8.7503 1.9261 0.8455
8.9165 2.0525 0.8377
9.0974 2.1861 0.8305
9.2866 2.3260 0.8232
9.5502 2.4895 0.8212
9.9077 2.6843 0.8257
42.1307 11.8489 3.3996
43.5581 12.7019 3.3996
45.0849 13.6172 3.3996
46.7217 14.6016 3.3996
13.4425 4.3429 0.9426
13.4614 4.4919 0.9084
13.4266 4.6238 0.8705
13.4187 4.7654 0.8346
45.9705 18.8525 2.2500
29.2999 16.9202 0.3221
29.1964 17.2375 0.2394
29.1055 17.5641 0.1570
28.4695 17.5567 0.0732
28.6072 18.0246 -0.0077
27.8935 17.9530 -0.0871
28.0050 18.4092 -0.1680
12.8689 15.0462 -1.3233
12.8724 15.3520 -1.3761
12.8753 15.6645 -1.4297
12.2076 15.1525 -1.4071
12.2432 15.5054 -1.4639
13.0299 16.8388 -1.6152
12.7829 16.8588 -1.6418
11.9117 16.0345 -1.5844
11.9111 16.3673 -1.6400
11.7739 16.5175 -1.6774
11.5082 16.4856 -1.6957
11.2470 16.4539 -1.7135
11.0107 16.4537 -1.7339
10.6689 16.2879 -1.7361
10.2299 15.9585 -1.7197
10.8419 17.2861 -1.8825
10.8651 17.7090 -1.9482
10.6542 17.7561 -1.9726
22.4121 38.2016 -4.2841
21.6830 37.8099 -4.2788
21.5554 38.4637 -4.3909
21.1407 38.6144 -4.4453
20.7059 38.7251 -4.4943
19.8374 38.0008 -4.4449
19.3901 38.0582 -4.4852
18.8490 37.9206 -4.5015
18.4122 37.9819 -4.5405
17.9780 38.0431 -4.5785
17.5464 38.1041 -4.6158
17.1173 38.1649 -4.6522
19.4243 44.4869 -5.4556
19.4015 45.6667 -5.6330
17.8308 44.4030 -5.5376
16.6554 42.6996 -5.3529
16.0952 42.5081 -5.3556
15.6354 42.5691 -5.3891
15.1776 42.6300 -5.4218
14.6034 42.3481 -5.4100
14.3339 42.9508 -5.5105
13.8785 43.0099 -5.5407
13.4248 43.0691 -5.5702
13.7476 45.7053 -5.9335
8.1153 1.2541 1.3345
8.1753 1.3436 1.3225
8.2521 1.4374 1.3130
8.3543 1.5377 1.3072
8.4594 1.6408 1.3014
8.5676 1.7469 1.2956
8.6790 1.8562 1.2898
8.8073 1.9718 1.2860
8.9826 2.1014 1.2883
9.1659 2.2368 1.2910
9.3577 2.3785 1.2940
9.6758 2.5579 1.3133
13.5215 3.7130 1.8008
13.5138 3.8500 1.7654
13.5061 3.9875 1.7302
13.4983 4.1256 1.6952
13.4905 4.2644 1.6602
13.4498 4.3931 1.6214
13.4320 4.5295 1.5857
29.4197 10.2345 3.3996
30.0686 10.7828 3.3996
30.7454 11.3577 3.3996
31.4521 11.9609 3.3996
32.1909 12.5947 3.3996
32.9642 13.2612 3.3996
33.7747 13.9630 3.3996
34.6251 14.7030 3.3996
35.5187 15.4841 3.3996
36.4591 16.3098 3.3996
36.9170 16.9393 3.3512
36.7709 17.2989 3.2472
37.8278 18.2391 3.2472
38.9475 19.2394 3.2472
40.1361 20.3055 3.2472
43.3434 22.4505 3.3996
12.7267 15.1436 -0.4156
12.7104 15.4252 -0.4563
12.6922 15.7110 -0.4975
12.6903 16.0240 -0.5398
12.4912 16.0910 -0.5738
11.9357 15.6874 -0.5894
11.9674 16.0503 -0.6330
11.9999 16.4244 -0.6775
11.6119 16.2220 -0.6978
11.7369 16.7382 -0.7487
11.5545 16.8239 -0.7806
10.9448 16.2734 -0.7815
10.5457 16.0144 -0.7944
11.1218 17.2530 -0.8824
10.6342 16.8550 -0.8872
10.2966 16.6780 -0.9022
20.7669 40.3874 -2.5999
3.5533 15.9425 -1.3473
8.2006 1.3814 1.7351
8.2941 1.4787 1.7332
8.3972 1.5798 1.7329
8.5033 1.6839 1.7328
8.6125 1.7909 1.7329
8.7249 1.9012 1.7333
8.8765 2.0229 1.7409
9.0543 2.1543 1.7530
9.2402 2.2917 1.7659
9.4658 2.4434 1.7855
9.8136 2.6330 1.8269
13.5186 3.7652 2.4834
13.5109 3.9018 2.4490
13.5032 4.0390 2.4148
13.4954 4.1768 2.3809
13.4876 4.3152 2.3471
13.4320 4.4384 2.3053
13.4292 4.5794 2.2729
20.3703 7.1629 3.3996
20.6617 7.4864 3.3996
20.9600 7.8204 3.3996
21.2658 8.1652 3.3996
21.5792 8.5213 3.3996
21.9005 8.8893 3.3996
22.2302 9.2697 3.3996
22.5686 9.6632 3.3996
22.9161 10.0702 3.3996
23.2730 10.4916 3.3996
23.6400 10.9280 3.3996
24.0174 11.3802 3.3996
24.4058 11.8490 3.3996
24.8057 12.3352 3.3996
25.2176 12.8399 3.3996
25.6423 13.3639 3.3996
26.0802 13.9084 3.3996
26.5324 14.4744 3.3996
26.9993 15.0634 3.3996
27.4819 15.6764 3.3996
27.9413 16.2918 3.3947
27.3038 16.2694 3.2571
27.7314 16.8829 3.2472
28.2614 17.5754 3.2472
28.8112 18.2990 3.2472
29.3823 19.0557 3.2472
29.9759 19.8477 3.2472
32.0293 21.6478 3.3996
32.7027 22.5586 3.3996
33.4047 23.5145 3.3996
34.1374 24.5189 3.3996
34.9030 25.5753 3.3996
35.7039 26.6877 3.3996
36.5428 27.8605 3.3996
37.4227 29.0984 3.3996
38.3468 30.4070 3.3996
38.3735 31.0277 3.3178
36.8778 32.8426 2.7824
36.1188 32.7896 2.6451
35.2683 32.6365 2.5044
34.6427 32.6768 2.3827
33.9354 32.6273 2.2582
33.2439 32.5790 2.1375
32.5674 32.5317 2.0206
31.9055 32.4854 1.9073
31.2575 32.4401 1.7974
30.6229 32.3957 1.6910
29.9178 32.2624 1.5833
29.3979 32.3164 1.4879
28.8001 32.2746 1.3907
28.2138 32.2336 1.2964
27.6385 32.1934 1.2050
27.0738 32.1539 1.1162
26.5193 32.1151 1.0300
25.9745 32.0770 0.9464
25.4393 32.0396 0.8652
12.2280 15.7077 0.3859
12.2049 15.9924 0.3551
12.0650 16.1279 0.3209
11.9866 16.3483 0.2887
11.8143 16.4423 0.2545
11.3887 16.1760 0.2160
11.0896 16.0775 0.1815
11.3943 16.8641 0.1565
11.1219 16.8074 0.1230
10.8224 16.7021 0.0905
10.5108 16.5687 0.0591
20.8809 40.2594 -0.4424
3.5112 15.9733 -0.5866
8.3400 1.5237 2.1670
8.4441 1.6258 2.1724
8.5512 1.7309 2.1782
8.6615 1.8390 2.1844
8.7795 1.9513 2.1923
8.9525 2.0791 2.2133
9.1331 2.2125 2.2355
9.3220 2.3521 2.2590
9.6093 2.5216 2.3055
9.9672 2.7167 2.3675
13.8084 3.9045 3.2472
13.9479 4.0869 3.2472
14.0891 4.2734 3.2472
14.2319 4.4642 3.2472
14.3765 4.6593 3.2472
13.5537 4.5346 3.0305
13.4261 4.6334 2.9716
15.5165 5.5194 3.3996
15.6755 5.7433 3.3996
15.8365 5.9724 3.3996
15.9995 6.2070 3.3996
16.1647 6.4473 3.3996
16.3320 6.6933 3.3996
16.5015 6.9453 3.3996
16.6734 7.2034 3.3996
16.8475 7.4679 3.3996
17.0239 7.7390 3.3996
17.2028 8.0168 3.3996
17.3841 8.3016 3.3996
17.5680 8.5937 3.3996
17.7545 8.8932 3.3996
17.9436 9.2005 3.3996
18.1354 9.5157 3.3996
18.3301 9.8392 3.3996
18.5276 10.1712 3.3996
18.7280 10.5120 3.3996
18.9314 10.8620 3.3996
19.1379 11.2214 3.3996
19.3476 11.5907 3.3996
19.5604 11.9700 3.3996
19.7767 12.3599 3.3996
19.9963 12.7607 3.3996
20.2194 13.1728 3.3996
20.4461 13.5967 3.3996
20.6764 14.0326 3.3996
20.9106 14.4812 3.3996
21.1486 14.9430 3.3996
21.3906 15.4183 3.3996
21.5404 15.8370 3.3844
21.1024 15.8236 3.2777
21.1490 16.1723 3.2472
21.3964 16.6836 3.2472
21.6482 17.2108 3.2472
21.9045 17.7543 3.2472
22.1653 18.3150 3.2472
20.5532 17.3119 2.9754
23.7668 20.4053 3.3996
24.0552 21.0507 3.3996
24.3491 21.7172 3.3996
24.6484 22.4058 3.3996
24.9535 23.1174 3.3996
25.2645 23.8530 3.3996
25.5816 24.6138 3.3996
25.9048 25.4008 3.3996
26.2346 26.2153 3.3996
26.5710 27.0585 3.3996
26.9142 27.9318 3.3996
27.2646 28.8365 3.3996
27.6220 29.7742 3.3996
27.5349 30.2496 3.3446
27.0883 30.3315 3.2472
27.4522 31.3313 3.2472
27.8234 32.3686 3.2471
27.1145 32.1555 3.1218
26.5652 32.1171 3.0170
26.0256 32.0793 2.9153
25.4953 32.0423 2.8165
24.9022 31.9139 2.7127
24.3934 31.8812 2.6199
23.9547 31.9316 2.5364
23.4586 31.8969 2.4484
11.9520 16.5791 1.2295
11.5372 16.3286 1.1695
22.0158 31.7961 2.1990
21.5492 31.7634 2.1205
21.0894 31.7313 2.0443
20.6362 31.6996 1.9702
20.1893 31.6684 1.8982
19.6912 31.5456 1.8229
19.2601 31.5194 1.7553
18.8822 31.5731 1.6939
18.4586 31.5434 1.6298
18.0404 31.5142 1.5674
17.6274 31.4853 1.5069
17.2193 31.4568 1.4481
16.8162 31.4286 1.3910
16.4177 31.4007 1.3355
16.0237 31.3731 1.2817
15.6342 31.3459 1.2295
15.2488 31.3190 1.1788
14.8676 31.2923 1.1296
14.4542 31.1877 1.0792
14.0778 31.1530 1.0327
13.7512 31.2225 0.9910
13.3850 31.1969 0.9476
13.0223 31.1716 0.9055
12.6630 31.1464 0.8647
12.3070 31.1215 0.8252
12.0248 31.2806 0.7917
7.3749 46.9634 0.3550
6.9933 47.5121 0.3380
6.5194 47.4577 0.3180
8.4959 1.6766 2.6291
8.6041 1.7827 2.6409
8.7156 1.8920 2.6535
8.8611 2.0116 2.6760
9.0370 2.1415 2.7072
9.2208 2.2773 2.7400
9.4290 2.4234 2.7795
9.7712 2.6099 2.8575
11.1928 3.1030 3.2472
11.2821 3.2426 3.2472
11.3719 3.3847 3.2472
11.4620 3.5293 3.2472
11.5526 3.6766 3.2472
11.6435 3.8266 3.2472
11.7348 3.9792 3.2472
11.8266 4.1347 3.2472
11.9187 4.2930 3.2472
12.0113 4.4542 3.2472
12.1042 4.6184 3.2472
12.7699 5.0102 3.3996
12.8680 5.1885 3.3996
12.9665 5.3702 3.3996
13.0653 5.5552 3.3996
13.1645 5.7436 3.3996
13.2640 5.9356 3.3996
13.3639 6.1312 3.3996
13.4641 6.3305 3.3996
13.5647 6.5336 3.3996
13.6655 6.7405 3.3996
13.7666 6.9513 3.3996
13.8681 7.1662 3.3996
13.9698 7.3851 3.3996
14.0717 7.6083 3.3996
14.1739 7.8357 3.3996
14.2763 8.0676 3.3996
14.3789 8.3039 3.3996
14.4817 8.5448 3.3996
14.5846 8.7903 3.3996
14.6876 9.0406 3.3996
14.7907 9.2959 3.3996
14.8939 9.5561 3.3996
14.9971 9.8214 3.3996
15.1004 10.0919 3.3996
15.2036 10.3677 3.3996
15.3068 10.6490 3.3996
15.4099 10.9358 3.3996
15.5128 11.2283 3.3996
15.6156 11.5266 3.3996
15.7181 11.8308 3.3996
15.8204 12.1410 3.3996
15.9223 12.4574 3.3996
16.0239 12.7801 3.3996
16.1251 13.1093 3.3996
16.2258 13.4450 3.3996
16.3259 13.7874 3.3996
16.4254 14.1367 3.3996
16.5243 14.4929 3.3996
16.6224 14.8563 3.3996
16.7197 15.2269 3.3996
16.6954 15.4930 3.3752
16.3759 15.4841 3.2919
16.2435 15.6493 3.2472
16.3326 16.0325 3.2472
16.4204 16.4233 3.2472
16.5069 16.8219 3.2472
16.5920 17.2283 3.2472
16.6757 17.6429 3.2472
16.7577 18.0656 3.2472
16.8379 18.4966 3.2472
16.9163 18.9361 3.2472
17.7903 20.2941 3.3996
17.8681 20.7724 3.3996
17.9435 21.2600 3.3996
18.0164 21.7571 3.3996
18.0867 22.2637 3.3996
18.1541 22.7800 3.3996
18.2185 23.3062 3.3996
18.2796 23.8422 3.3996
18.3374 24.3883 3.3996
18.3916 24.9445 3.3996
11.9591 16.5432 2.2045
11.8661 16.7435 2.1819
18.5304 26.6750 3.3996
18.5681 27.2726 3.3996
18.6010 27.8808 3.3996
18.6290 28.4995 3.3996
18.6518 29.1288 3.3996
18.5650 29.6031 3.3807
18.1704 29.5887 3.3068
17.8490 29.6870 3.2472
17.8473 30.3284 3.2472
17.8400 30.9798 3.2472
17.8261 31.6410 3.2472
17.3378 31.4640 3.1619
16.9383 31.4360 3.0940
16.5433 31.4084 3.0279
16.1528 31.3811 2.9637
15.7667 31.3541 2.9014
15.3848 31.3274 2.8409
15.0070 31.3010 2.7821
14.6331 31.2749 2.7251
14.2234 31.1622 2.6623
13.9005 31.2320 2.6167
13.5376 31.2066 2.5646
13.1781 31.1814 2.5141
12.8220 31.1565 2.4651
12.4692 31.1319 2.4176
12.1195 31.1074 2.3716
11.7728 31.0832 2.3271
11.4291 31.0591 2.2840
11.0882 31.0353 2.2423
10.7500 31.0116 2.2020
10.4145 30.9881 2.1630
10.0815 30.9648 2.1254
9.7511 30.9417 2.0891
9.4230 30.9188 2.0541
9.0717 30.8093 2.0147
8.7493 30.7876 1.9824
8.4520 30.8499 1.9566
8.1327 30.8276 1.9265
7.8154 30.8054 1.8977
7.5000 30.7833 1.8700
7.1865 30.7614 1.8436
3.5635 15.9335 0.9425
6.5647 30.7179 1.7940
6.2563 30.6963 1.7709
5.9495 30.6748 1.7490
5.6442 30.6535 1.7281
5.3403 30.6322 1.7083
5.0379 30.6110 1.6896
4.7367 30.5900 1.6719
4.4368 30.5690 1.6553
4.1382 30.5481 1.6398
8.6632 1.8407 3.1250
8.7810 1.9524 3.1459
8.9528 2.0793 3.1857
9.1320 2.2118 3.2276
9.2491 2.3324 3.2472
9.3108 2.4413 3.2472
9.3724 2.5518 3.2472
9.4340 2.6640 3.2472
9.4955 2.7778 3.2472
9.5569 2.8933 3.2472
9.6183 3.0105 3.2472
9.6795 3.1295 3.2472
9.7406 3.2503 3.2472
9.8016 3.3728 3.2472
9.8624 3.4972 3.2472
9.9231 3.6235 3.2472
9.9836 3.7516 3.2472
10.0439 3.8816 3.2472
10.1041 4.0136 3.2472
10.1640 4.1476 3.2472
10.2236 4.2835 3.2472
10.2830 4.4215 3.2472
10.8276 4.7756 3.3996
10.8892 4.9243 3.3996
10.9505 5.0753 3.3996
11.0114 5.2286 3.3996
11.0720 5.3841 3.3996
11.1321 5.5419 3.3996
11.1919 5.7020 3.3996
11.2512 5.8645 3.3996
11.3101 6.0294 3.3996
11.3685 6.1968 3.3996
11.4263 6.3666 3.3996
11.4836 6.5389 3.3996
11.5403 6.7137 3.3996
11.5964 6.8912 3.3996
11.6519 7.0712 3.3996
11.7067 7.2538 3.3996
11.7608 7.4391 3.3996
11.8142 7.6270 3.3996
11.8668 7.8177 3.3996
11.9185 8.0112 3.3996
11.9694 8.2074 3.3996
12.0194 8.4065 3.3996
12.0685 8.6084 3.3996
12.1166 8.8131 3.3996
12.1637 9.0208 3.3996
12.2097 9.2314 3.3996
12.2546 9.4449 3.3996
12.2983 9.6614 3.3996
12.3408 9.8810 3.3996
12.3820 10.1036 3.3996
12.4220 10.3292 3.3996
12.4605 10.5579 3.3996
12.4977 10.7897 3.3996
12.5333 11.0246 3.3996
12.5674 11.2627 3.3996
12.5998 11.5039 3.3996
12.6307 11.7483 3.3996
12.6597 11.9959 3.3996
12.6870 12.2467 3.3996
12.7124 12.5007 3.3996
12.7358 12.7579 3.3996
12.7572 13.0183 3.3996
12.7766 13.2819 3.3996
12.7937 13.5487 3.3996
12.8086 13.8188 3.3996
12.8212 14.0920 3.3996
12.8314 14.3685 3.3996
12.8391 14.6481 3.3996
12.8443 14.9309 3.3996
12.8446 15.2143 3.3990
12.5994 15.2077 3.3342
12.3580 15.2010 3.2711
12.2618 15.3717 3.2472
12.2531 15.6566 3.2472
12.2415 15.9442 3.2472
12.2268 16.2347 3.2472
12.2089 16.5279 3.2472
12.0085 16.5763 3.1994
11.8043 16.6169 3.1513
12.1353 17.4233 3.2472
12.1039 17.7268 3.2472
12.0688 18.0327 3.2472
12.0299 18.3409 3.2472
12.5498 19.5267 3.3996
12.5009 19.8539 3.3996
12.4479 20.1833 3.3996
12.3905 20.5146 3.3996
12.3286 20.8477 3.3996
12.2623 21.1825 3.3996
12.1912 21.5189 3.3996
12.1155 21.8568 3.3996
12.0348 22.1958 3.3996
11.9492 22.5359 3.3996
11.8586 22.8770 3.3996
11.7628 23.2187 3.3996
11.6618 23.5610 3.3996
11.5555 23.9035 3.3996
11.4438 24.2461 3.3996
11.3265 24.5886 3.3996
11.2037 24.9307 3.3996
11.0753 25.2722 3.3996
10.9411 25.6128 3.3996
10.8011 25.9522 3.3996
10.6553 26.2902 3.3996
10.5036 26.6265 3.3996
10.3459 26.9609 3.3996
10.1822 27.2929 3.3996
10.0125 27.6224 3.3996
9.8368 27.9489 3.3996
9.6549 28.2722 3.3996
9.4670 28.5919 3.3996
9.2730 28.9078 3.3996
8.9807 28.9224 3.3650
8.6810 28.9079 3.3283
8.3832 28.8932 3.2930
8.0879 28.8811 3.2591
7.8440 29.0530 3.2472
7.6243 29.3255 3.2472
7.3989 29.5918 3.2472
7.1681 29.8517 3.2472
6.9319 30.1049 3.2472
3.5162 15.9516 1.7066
6.4436 30.5898 3.2472
6.1918 30.8207 3.2472
5.9351 31.0442 3.2472
5.6738 31.2598 3.2474
5.2632 30.6259 3.1607
4.9653 30.6050 3.1389
4.6686 30.5843 3.1184
4.3732 30.5636 3.0990
4.0673 30.4562 3.0720
7.7987 1.7795 3.2283
7.8558 1.8702 3.2330
7.9112 1.9620 3.2371
7.9617 2.0538 3.2393
8.0108 2.1466 3.2410
8.0592 2.2406 3.2424
8.1070 2.3357 3.2438
8.1538 2.4318 3.2448
8.2008 2.5294 3.2460
8.2466 2.6279 3.2468
8.2908 2.7273 3.2472
8.3338 2.8277 3.2472
8.3765 2.9293 3.2472
8.4187 3.0322 3.2472
8.4607 3.1364 3.2472
8.5022 3.2419 3.2472
8.5433 3.3486 3.2472
8.5840 3.4567 3.2472
8.6243 3.5662 3.2472
8.6641 3.6769 3.2472
8.7034 3.7891 3.2472
8.7423 3.9026 3.2472
8.7806 4.0175 3.2472
8.8184 4.1337 3.2472
9.2713 4.4509 3.3996
9.3097 4.5756 3.3996
9.3475 4.7018 3.3996
9.3847 4.8294 3.3996
9.4212 4.9586 3.3996
9.4570 5.0893 3.3996
9.4921 5.2215 3.3996
9.5265 5.3553 3.3996
9.5601 5.4906 3.3996
9.5930 5.6275 3.3996
9.6250 5.7660 3.3996
9.6562 5.9061 3.3996
9.6865 6.0477 3.3996
9.7160 6.1909 3.3996
9.7445 6.3357 3.3996
9.7721 6.4822 3.3996
9.7987 6.6298 3.3996
9.8244 6.7799 3.3996
9.8489 6.9312 3.3996
9.8724 7.0841 3.3996
9.8948 7.2386 3.3996
9.9161 7.3948 3.3996
9.9362 7.5526 3.3996
9.9551 7.7120 3.3996
9.9727 7.8731 3.3996
9.9891 8.0358 3.3996
10.0042 8.2001 3.3996
10.0179 8.3660 3.3996
10.0302 8.5336 3.3996
10.0411 8.7027 3.3996
10.0505 8.8735 3.3996
10.0584 9.0458 3.3996
10.0648 9.2197 3.3996
10.0696 9.3952 3.3996
10.0727 9.5723 3.3996
10.0742 9.7509 3.3996
10.0739 9.9310 3.3996
10.0719 10.1126 3.3996
10.0681 10.2957 3.3996
10.0624 10.4803 3.3996
10.0549 10.6663 3.3996
10.0454 10.8537 3.3996
10.0338 11.0425 3.3996
10.0203 11.2327 3.3996
10.0047 11.4241 3.3996
9.9869 11.6169 3.3996
9.9670 11.8109 3.3996
9.9448 12.0062 3.3996
9.9203 12.2026 3.3996
9.8936 12.4001 3.3996
9.8644 12.5987 3.3996
9.8329 12.7983 3.3996
9.7988 12.9990 3.3996
9.7623 13.2005 3.3996
9.7232 13.4029 3.3996
9.6815 13.6062 3.3996
9.6371 13.8101 3.3996
9.5900 14.0148 3.3996
9.5401 14.2200 3.3996
9.4875 14.4258 3.3996
9.4320 14.6321 3.3996
9.3736 14.8387 3.3996
9.2603 14.9617 3.3806
9.0680 14.9559 3.3334
8.8778 14.9500 3.2874
8.7019 14.9650 3.2472
8.6317 15.1630 3.2472
8.5586 15.3609 3.2472
8.4824 15.5585 3.2472
8.4032 15.7557 3.2472
8.3208 15.9525 3.2472
8.2354 16.1488 3.2472
8.1468 16.3444 3.2472
8.0550 16.5392 3.2472
7.9600 16.7331 3.2472
7.8618 16.9261 3.2472
7.7604 17.1179 3.2472
7.6558 17.3085 3.2472
7.5479 17.4978 3.2472
7.4367 17.6855 3.2472
7.3223 17.8716 3.2472
7.2046 18.0560 3.2472
7.0836 18.2385 3.2472
7.2859 19.2835 3.3996
7.1524 19.4702 3.3996
7.0155 19.6545 3.3996
6.8752 19.8362 3.3996
6.7315 20.0153 3.3996
6.5844 20.1915 3.3996
6.4341 20.3648 3.3996
6.2804 20.5349 3.3996
6.1235 20.7018 3.3996
5.9634 20.8652 3.3996
5.8001 21.0250 3.3996
5.6336 21.1811 3.3996
5.4641 21.3334 3.3996
5.2916 21.4816 3.3996
5.1162 21.6257 3.3996
4.9378 21.7654 3.3996
4.7566 21.9007 3.3996
4.5728 22.0315 3.3996
4.3862 22.1575 3.3996
4.1971 22.2787 3.3996
4.0055 22.3950 3.3996
3.8115 22.5061 3.3996
3.6152 22.6120 3.3996
3.4167 22.7126 3.3996
3.2162 22.8078 3.3996
3.0136 22.8974 3.3996
6.8194 1.6679 3.2018
6.8622 1.7463 3.2058
6.9046 1.8258 3.2097
6.9464 1.9062 3.2135
6.9896 1.9882 3.2181
7.0307 2.0707 3.2218
7.0706 2.1539 3.2250
7.1093 2.2380 3.2279
7.1473 2.3230 3.2307
7.1860 2.4094 3.2339
7.2220 2.4960 3.2360
7.2576 2.5836 3.2382
7.2915 2.6719 3.2398
7.3248 2.7610 3.2412
7.3570 2.8509 3.2425
7.3904 2.9424 3.2444
7.4193 3.0334 3.2445
7.4493 3.1260 3.2454
7.4787 3.2195 3.2462
7.5299 3.3239 3.2567
7.6651 3.4680 3.3036
7.8525 3.6400 3.3728
7.9413 3.7700 3.3996
7.9671 3.8721 3.3996
7.9922 3.9753 3.3996
8.0167 4.0795 3.3996
8.0405 4.1846 3.3996
8.0636 4.2908 3.3996
8.0859 4.3980 3.3996
8.1076 4.5063 3.3996
8.1284 4.6155 3.3996
8.1485 4.7258 3.3996
8.1678 4.8371 3.3996
8.1863 4.9495 3.3996
8.2039 5.0628 3.3996
8.2206 5.1772 3.3996
8.2366 5.2926 3.3996
8.2515 5.4090 3.3996
8.2656 5.5264 3.3996
8.2786 5.6448 3.3996
8.2908 5.7643 3.3996
8.3019 5.8847 3.3996
8.3120 6.0062 3.3996
8.3211 6.1286 3.3996
8.3291 6.2520 3.3996
8.3361 6.3764 3.3996
8.3418 6.5017 3.3996
8.3465 6.6280 3.3996
8.3500 6.7553 3.3996
8.3523 6.8834 3.3996
8.3534 7.0126 3.3996
8.3533 7.1426 3.3996
8.3518 7.2735 3.3996
8.3491 7.4053 3.3996
8.3451 7.5380 3.3996
8.3397 7.6715 3.3996
8.3329 7.8059 3.3996
8.3248 7.9411 3.3996
8.3152 8.0771 3.3996
8.3041 8.2139 3.3996
8.2915 8.3514 3.3996
8.2775 8.4897 3.3996
8.2619 8.6287 3.3996
8.2447 8.7683 3.3996
8.2259 8.9087 3.3996
8.2056 9.0496 3.3996
8.1835 9.1912 3.3996
8.1598 9.3333 3.3996
8.1343 9.4760 3.3996
8.0149 10.0515 3.3996
8.1072 9.6192 3.3996
7.9806 10.1964 3.3996
8.0782 9.7629 3.3996
7.9443 10.3416 3.3996
8.0475 9.9070 3.3996
7.9061 10.4871 3.3996
7.8660 10.6329 3.3996
7.6860 11.2174 3.3996
7.8240 10.7788 3.3996
7.6360 11.3636 3.3996
7.7800 10.9249 3.3996
7.4733 11.8020 3.3996
7.2267 12.3832 3.3996
7.5838 11.5099 3.3996
7.4149 11.9477 3.3996
7.1596 12.5276 3.3996
7.7340 11.0711 3.3996
7.3544 12.0932 3.3996
7.5297 11.6560 3.3996
7.0903 12.6714 3.3996
7.2916 12.2384 3.3996
6.9450 12.9573 3.3996
6.6275 13.5201 3.3996
7.0188 12.8147 3.3996
6.8690 13.0992 3.3996
6.2737 14.0670 3.3996
5.8835 14.5933 3.3996
6.7908 13.2404 3.3996
6.1795 14.2007 3.3996
6.5424 13.6585 3.3996
6.0831 14.3330 3.3996
6.7103 13.3807 3.3996
5.7762 14.7105 3.3971
5.9844 14.4639 3.3996
6.4551 13.7958 3.3996
5.6203 14.7044 3.3669
4.7725 14.8664 3.2472
5.3122 14.6921 3.3090
6.3655 13.9320 3.3996
5.4657 14.6983 3.3375
4.6574 14.9735 3.2472
5.1597 14.6858 3.2814
4.5403 15.0784 3.2472
4.3004 15.2813 3.2472
3.7982 15.6573 3.2472
5.0082 14.6795 3.2546
3.6683 15.7446 3.2472
4.4213 15.1810 3.2472
4.1775 15.3791 3.2472
4.8857 14.7572 3.2472
3.5367 15.8292 3.2472
3.2687 15.9897 3.2472
4.0529 15.4744 3.2472
3.4035 15.9109 3.2472
3.1324 16.0655 3.2472
3.9264 15.5672 3.2472
2.9946 16.1383 3.2472
2.8554 16.2080 3.2472
2.7149 16.2745 3.2472
2.5730 16.3377 3.2472
2.4299 16.3977 3.2472
2.2857 16.4544 3.2472
2.1403 16.5077 3.2472
6.3096 1.6518 3.3303
6.3402 1.7227 3.3320
6.3713 1.7947 3.3341
6.4077 1.8691 3.3392
6.4447 1.9446 3.3448
6.4832 2.0217 3.3513
6.5272 2.1016 3.3608
6.5669 2.1814 3.3683
6.5977 2.2592 3.3713
6.6275 2.3377 3.3741
6.6569 2.4170 3.3769
6.6855 2.4970 3.3795
6.7130 2.5777 3.3819
6.7400 2.6591 3.3842
6.7658 2.7411 3.3861
6.7906 2.8237 3.3878
6.8151 2.9071 3.3896
6.8388 2.9913 3.3913
6.8612 3.0760 3.3926
6.8830 3.1614 3.3939
6.9037 3.2474 3.3949
6.9238 3.3341 3.3959
6.9425 3.4212 3.3966
6.9601 3.5088 3.3970
6.9769 3.5971 3.3973
6.9932 3.6862 3.3977
7.0087 3.7760 3.3981
7.0235 3.8665 3.3985
7.0375 3.9576 3.3988
7.0503 4.0493 3.3989
7.0624 4.1417 3.3990
7.0738 4.2347 3.3991
7.0844 4.3285 3.3992
7.0941 4.4230 3.3993
7.1031 4.5181 3.3995
7.1113 4.6139 3.3996
7.1184 4.7103 3.3996
7.1246 4.8073 3.3996
7.1300 4.9050 3.3996
7.1345 5.0034 3.3996
7.1381 5.1024 3.3996
7.1408 5.2020 3.3996
7.1425 5.3022 3.3996
7.1433 5.4031 3.3996
7.1431 5.5046 3.3996
7.1419 5.6067 3.3996
7.1397 5.7093 3.3996
7.1365 5.8126 3.3996
7.1322 5.9164 3.3996
7.1269 6.0207 3.3996
7.1205 6.1256 3.3996
7.1130 6.2311 3.3996
7.1044 6.3370 3.3996
7.0946 6.4434 3.3996
7.0837 6.5503 3.3996
7.0717 6.6577 3.3996
7.0584 6.7655 3.3996
7.0440 6.8737 3.3996
7.0283 6.9824 3.3996
7.0114 7.0914 3.3996
6.9932 7.2008 3.3996
6.9737 7.3105 3.3996
6.9530 7.4206 3.3996
6.9309 7.5310 3.3996
6.9075 7.6416 3.3996
6.8828 7.7525 3.3996
6.8567 7.8637 3.3996
6.8292 7.9750 3.3996
6.8003 8.0865 3.3996
6.7700 8.1982 3.3996
6.7383 8.3100 3.3996
6.7051 8.4219 3.3996
6.6705 8.5338 3.3996
6.6344 8.6458 3.3996
6.5968 8.7577 3.3996
6.5578 8.8697 3.3996
6.5171 8.9816 3.3996
6.4750 9.0933 3.3996
6.4313 9.2050 3.3996
6.3861 9.3164 3.3996
6.3393 9.4277 3.3996
6.2909 9.5387 3.3996
6.2410 9.6495 3.3996
6.1894 9.7599 3.3996
6.1363 9.8699 3.3996
6.0815 9.9796 3.3996
6.0251 10.0888 3.3996
5.9671 10.1975 3.3996
5.9074 10.3057 3.3996
5.8461 10.4133 3.3996
5.7832 10.5203 3.3996
5.7186 10.6267 3.3996
5.6523 10.7323 3.3996
5.5845 10.8372 3.3996
5.5149 10.9413 3.3996
5.4438 11.0446 3.3996
5.3709 11.1468 3.3995
5.2962 11.2477 3.3994
5.2195 11.3469 3.3990
5.1408 11.4442 3.3984
5.0598 11.5388 3.3973
4.9764 11.6301 3.3956
4.8901 11.7168 3.3929
4.8058 11.8109 3.3928
4.7205 11.9050 3.3930
4.6336 11.9978 3.3933
4.5451 12.0892 3.3935
4.4551 12.1793 3.3938
4.3635 12.2678 3.3940
4.2704 12.3548 3.3942
4.1757 12.4402 3.3944
4.0796 12.5240 3.3946
3.9820 12.6061 3.3949
3.8829 12.6865 3.3951
3.7824 12.7651 3.3953
3.6805 12.8419 3.3955
3.5773 12.9168 3.3957
3.4727 12.9898 3.3959
3.3667 13.0608 3.3961
3.2595 13.1299 3.3963
3.1511 13.1968 3.3964
3.0414 13.2617 3.3966
2.9305 13.3244 3.3968
2.8185 13.3849 3.3969
2.7053 13.4432 3.3971
2.5911 13.4992 3.3973
2.4758 13.5529 3.3974
2.3596 13.6043 3.3975
2.2424 13.6533 3.3977
2.1243 13.6998 3.3978
2.0053 13.7440 3.3979
1.8855 13.7856 3.3980
1.7649 13.8248 3.3982
