ply
format ascii 1.0
element vertex 2074
property float32 x
property float32 y
property float32 z
end_header
-11.4388 -5.7242 1.2219
-11.4273 -5.8585 1.2596
-11.4157 -5.9940 1.2976
-11.4040 -6.1308 1.3359
-11.3923 -6.2687 1.3744
-11.3804 -6.4079 1.4133
-11.3683 -6.5485 1.4525
-11.3522 -6.6882 1.4915
-11.3398 -6.8314 1.5314
-11.3273 -6.9762 1.5716
-11.3147 -7.1225 1.6122
-11.3020 -7.2703 1.6532
-11.2891 -7.4199 1.6945
-11.2760 -7.5711 1.7364
-11.2628 -7.7241 1.7786
-11.2495 -7.8789 1.8213
-11.2360 -8.0356 1.8645
-11.2223 -8.1942 1.9081
-11.2084 -8.3548 1.9523
-11.1944 -8.5176 1.9970
-11.1802 -8.6825 2.0422
-11.1657 -8.8497 2.0880
-11.1511 -9.0191 2.1344
-11.1363 -9.1910 2.1813
-11.1213 -9.3654 2.2290
-11.1060 -9.5424 2.2772
-11.0885 -9.7203 2.3257
-11.0724 -9.9024 2.3753
-11.0561 -10.0873 2.4256
-11.0395 -10.2752 2.4766
-10.8734 -10.3246 2.4942
-10.6337 -10.3004 2.4938
-10.4000 -10.2769 2.4935
-10.1720 -10.2542 2.4932
-9.9494 -10.2321 2.4928
-9.7320 -10.2107 2.4925
-9.5196 -10.1899 2.4921
-9.3125 -10.1704 2.4919
-9.2052 -10.2576 2.5177
-9.1775 -10.4353 2.5658
-9.1130 -10.5740 2.6042
-8.9151 -10.5568 2.6042
-8.7211 -10.5401 2.6042
-8.5045 -10.4912 2.5961
-8.2366 -10.3722 2.5704
-8.0636 -10.3671 2.5728
-7.8471 -10.3013 2.5601
-7.6285 -10.2266 2.5450
-7.4336 -10.1780 2.5362
-7.2675 -10.1646 2.5361
-7.1043 -10.1516 2.5360
-6.9438 -10.1389 2.5359
-6.7858 -10.1265 2.5358
-6.6303 -10.1145 2.5357
-6.4772 -10.1028 2.5355
-6.3264 -10.0914 2.5354
-6.1779 -10.0803 2.5352
-6.0314 -10.0695 2.5351
-5.8870 -10.0590 2.5349
-5.7447 -10.0487 2.5347
-5.6042 -10.0387 2.5345
-5.4656 -10.0290 2.5343
-5.3262 -10.0148 2.5329
-5.1818 -9.9876 2.5282
-5.0397 -9.9610 2.5235
-4.8998 -9.9349 2.5189
-4.7619 -9.9093 2.5143
-4.6261 -9.8841 2.5098
-4.4922 -9.8595 2.5054
-4.3589 -9.8325 2.5003
-4.2271 -9.8049 2.4949
-4.0972 -9.7778 2.4896
-3.9690 -9.7511 2.4844
-3.8425 -9.7250 2.4793
-3.7176 -9.6989 2.4741
-3.5930 -9.6697 2.4680
-3.4701 -9.6409 2.4621
-3.3487 -9.6127 2.4561
-3.2289 -9.5849 2.4503
-3.1127 -9.5641 2.4462
-3.0047 -9.5656 2.4477
-2.8974 -9.5674 2.4493
-2.7906 -9.5691 2.4508
-2.6845 -9.5710 2.4523
-2.5788 -9.5730 2.4538
-2.4738 -9.5751 2.4553
-2.3692 -9.5773 2.4568
-2.2651 -9.5796 2.4582
-2.1615 -9.5820 2.4596
-2.0583 -9.5844 2.4611
-1.9554 -9.5870 2.4625
-1.8529 -9.5897 2.4639
-0.9006 -4.9344 1.2681
-0.8479 -4.9340 1.2683
-0.7954 -4.9338 1.2686
-0.7431 -4.9335 1.2688
-0.6910 -4.9334 1.2690
-0.6390 -4.9333 1.2692
-0.5871 -4.9332 1.2694
-0.5354 -4.9332 1.2697
-0.4837 -4.9333 1.2699
-0.4322 -4.9334 1.2700
-0.3808 -4.9335 1.2702
-0.3294 -4.9337 1.2704
-0.2781 -4.9340 1.2706
-0.2268 -4.9343 1.2708
-0.1756 -4.9346 1.2709
-0.1245 -4.9351 1.2711
-0.0733 -4.9355 1.2712
-0.0221 -4.9361 1.2714
0.0290 -4.9366 1.2715
-14.6000 0.0516 0.1619
-14.1257 -0.0862 0.1968
-13.8188 -0.2174 0.2319
-13.5249 -0.3431 0.2654
-13.3082 -0.4660 0.2991
-13.1137 -0.5857 0.3322
-12.9247 -0.7021 0.3643
-12.7640 -0.8168 0.3963
-12.6382 -0.9312 0.4287
-12.5146 -1.0435 0.4604
-12.3933 -1.1538 0.4916
-12.2793 -1.2627 0.5226
-12.2156 -1.3753 0.5552
-12.1523 -1.4871 0.5876
-12.0895 -1.5980 0.6198
-12.0273 -1.7080 0.6517
-11.9654 -1.8172 0.6834
-11.9155 -1.9276 0.7156
-11.8896 -2.0414 0.7491
-11.8636 -2.1552 0.7827
-11.8377 -2.2689 0.8162
-11.8118 -2.3826 0.8498
-11.7858 -2.4962 0.8833
-11.7683 -2.6117 0.9175
-11.7548 -2.7284 0.9521
-11.7414 -2.8454 0.9869
-11.7279 -2.9627 1.0217
-11.7143 -3.0804 1.0567
-11.6971 -3.1975 1.0914
-11.6777 -3.3142 1.1261
-11.6581 -3.4313 1.1608
-11.6386 -3.5487 1.1957
-11.6144 -3.6650 1.2302
-11.6041 -3.7862 1.2664
-11.5937 -3.9080 1.3027
-11.5832 -4.0304 1.3392
-11.5727 -4.1535 1.3760
-11.5621 -4.2773 1.4130
-11.5515 -4.4018 1.4502
-11.5408 -4.5271 1.4877
-11.5300 -4.6533 1.5254
-11.5191 -4.7802 1.5634
-11.5082 -4.9080 1.6016
-11.4972 -5.0368 1.6402
-11.4861 -5.1665 1.6790
-11.4749 -5.2971 1.7182
-11.4637 -5.4288 1.7577
-11.4524 -5.5615 1.7975
-11.4409 -5.6954 1.8376
-11.4294 -5.8303 1.8781
-11.4177 -5.9665 1.9190
-11.4060 -6.1038 1.9603
-11.3942 -6.2425 2.0019
-11.3822 -6.3824 2.0440
-11.3701 -6.5238 2.0865
-11.3537 -6.6640 2.1287
-11.3413 -6.8081 2.1720
-11.3287 -6.9537 2.2159
-11.3160 -7.1008 2.2602
-11.3032 -7.2496 2.3050
-11.2902 -7.4000 2.3503
-11.2771 -7.5522 2.3962
-11.2638 -7.7062 2.4427
-11.2503 -7.8620 2.4897
-11.2367 -8.0198 2.5373
-11.2229 -8.1795 2.5855
-11.2090 -8.3413 2.6344
-11.1092 -8.4402 2.6634
-10.8818 -8.4398 2.6611
-10.6600 -8.4393 2.6589
-10.4435 -8.4389 2.6568
-10.2320 -8.4384 2.6547
-10.0255 -8.4378 2.6526
-9.8236 -8.4373 2.6506
-9.6261 -8.4367 2.6486
-9.4337 -8.4368 2.6470
-9.3552 -8.5370 2.6767
-9.3310 -8.6882 2.7225
-9.2924 -8.8283 2.7647
-9.1077 -8.8288 2.7633
-8.9265 -8.8292 2.7619
-8.7378 -8.8185 2.7570
-8.5474 -8.8022 2.7505
-8.3154 -8.7379 2.7290
-8.1655 -8.7559 2.7333
-7.9794 -8.7318 2.7244
-7.7939 -8.7040 2.7145
-7.6069 -8.6703 2.7027
-7.4242 -8.6371 2.6912
-7.2354 -8.5923 2.6761
-7.0605 -8.5596 2.6648
-6.9157 -8.5597 2.6637
-6.7730 -8.5598 2.6627
-6.6325 -8.5599 2.6617
-6.4941 -8.5599 2.6607
-6.3576 -8.5599 2.6598
-6.2230 -8.5599 2.6588
-6.0903 -8.5598 2.6579
-5.9594 -8.5597 2.6570
-5.8301 -8.5595 2.6560
-5.7026 -8.5594 2.6552
-5.5767 -8.5592 2.6543
-5.4523 -8.5589 2.6534
-5.3295 -8.5587 2.6526
-5.2081 -8.5584 2.6517
-5.0881 -8.5581 2.6509
-4.9695 -8.5577 2.6501
-4.8522 -8.5573 2.6493
-4.7361 -8.5569 2.6485
-4.6213 -8.5565 2.6477
-4.5076 -8.5560 2.6469
-4.3951 -8.5555 2.6462
-4.2837 -8.5550 2.6454
-4.1719 -8.5514 2.6437
-4.0565 -8.5378 2.6390
-3.9424 -8.5243 2.6343
-3.8297 -8.5110 2.6296
-3.7184 -8.4978 2.6251
-3.6082 -8.4847 2.6205
-3.4994 -8.4717 2.6161
-3.3907 -8.4564 2.6109
-3.2830 -8.4409 2.6056
-3.1766 -8.4254 2.6005
-3.0713 -8.4101 2.5953
-2.9670 -8.3950 2.5903
-2.8636 -8.3788 2.5849
-2.7605 -8.3610 2.5791
-2.6585 -8.3434 2.5733
-2.5576 -8.3258 2.5675
-2.4577 -8.3085 2.5618
-2.3627 -8.3052 2.5605
-2.2704 -8.3097 2.5616
-2.1786 -8.3141 2.5627
-2.0870 -8.3185 2.5638
-1.9958 -8.3228 2.5649
-1.9049 -8.3271 2.5659
-1.8143 -8.3314 2.5670
-0.8911 -4.3083 1.3273
-0.8443 -4.3090 1.3275
-0.7976 -4.3097 1.3276
-0.7511 -4.3104 1.3277
-0.7048 -4.3111 1.3278
-0.6585 -4.3118 1.3279
-0.6124 -4.3124 1.3281
-0.5664 -4.3131 1.3282
-0.5205 -4.3137 1.3283
-0.4747 -4.3143 1.3284
-0.4289 -4.3148 1.3285
-0.3833 -4.3154 1.3287
-0.3377 -4.3160 1.3288
-0.2922 -4.3165 1.3289
-0.2467 -4.3170 1.3290
-0.2012 -4.3175 1.3292
-0.1558 -4.3180 1.3293
-0.1104 -4.3185 1.3294
-0.0650 -4.3190 1.3296
-0.0196 -4.3195 1.3297
0.0258 -4.3199 1.3298
-14.8011 0.1050 0.8679
-14.2697 -0.0362 0.8774
-13.9307 -0.1696 0.8964
-13.6320 -0.2973 0.9162
-13.3814 -0.4209 0.9379
-13.1848 -0.5420 0.9621
-12.9936 -0.6597 0.9857
-12.8108 -0.7743 1.0090
-12.6840 -0.8895 1.0359
-12.5595 -1.0027 1.0625
-12.4372 -1.1138 1.0886
-12.3170 -1.2231 1.1144
-12.2385 -1.3348 1.1435
-12.1750 -1.4470 1.1738
-12.1119 -1.5584 1.2039
-12.0494 -1.6689 1.2338
-11.9873 -1.7787 1.2636
-11.9256 -1.8876 1.2933
-11.8986 -2.0017 1.3267
-11.8726 -2.1157 1.3602
-11.8466 -2.2298 1.3938
-11.8206 -2.3437 1.4274
-11.7946 -2.4577 1.4612
-11.7728 -2.5726 1.4955
-11.7593 -2.6896 1.5310
-11.7458 -2.8069 1.5667
-11.7323 -2.9245 1.6026
-11.7187 -3.0424 1.6387
-11.7033 -3.1603 1.6747
-11.6838 -3.2775 1.7103
-11.6642 -3.3949 1.7460
-11.6446 -3.5127 1.7820
-11.6173 -3.6284 1.8169
-11.6069 -3.7499 1.8548
-11.5964 -3.8720 1.8928
-11.5859 -3.9948 1.9312
-11.5754 -4.1183 1.9699
-11.5648 -4.2425 2.0088
-11.5541 -4.3675 2.0481
-11.5433 -4.4932 2.0877
-11.5325 -4.6198 2.1277
-11.5216 -4.7472 2.1679
-11.5107 -4.8755 2.2086
-11.4996 -5.0047 2.2496
-11.4885 -5.1349 2.2910
-11.4773 -5.2661 2.3328
-11.4660 -5.3983 2.3750
-11.4546 -5.5316 2.4176
-11.4431 -5.6660 2.4607
-11.4315 -5.8016 2.5042
-11.4198 -5.9384 2.5482
-11.4080 -6.0764 2.5927
-11.3961 -6.2158 2.6376
-11.3841 -6.3564 2.6831
-11.3719 -6.4985 2.7291
-11.3552 -6.6395 2.7746
-11.2390 -6.7223 2.7959
-11.0268 -6.7452 2.7926
-10.8196 -6.7674 2.7893
-10.6168 -6.7887 2.7861
-10.4177 -6.8087 2.7827
-10.2230 -6.8281 2.7794
-10.0325 -6.8469 2.7762
-9.8462 -6.8651 2.7731
-9.6702 -6.8873 2.7719
-9.5091 -6.9172 2.7740
-9.4822 -7.0442 2.8153
-9.4607 -7.1767 2.8587
-9.3988 -7.2798 2.8903
-9.2272 -7.2966 2.8879
-9.0588 -7.3129 2.8855
-8.8877 -7.3239 2.8813
-8.7164 -7.3317 2.8761
-8.5130 -7.3086 2.8590
-8.3791 -7.3421 2.8644
-8.2114 -7.3433 2.8573
-8.0470 -7.3444 2.8504
-7.8859 -7.3453 2.8436
-7.7231 -7.3414 2.8353
-7.5613 -7.3352 2.8262
-7.4028 -7.3291 2.8174
-7.2412 -7.3165 2.8063
-7.0814 -7.3023 2.7948
-6.9188 -7.2818 2.7811
-6.7603 -7.2621 2.7679
-6.6322 -7.2720 2.7661
-6.5059 -7.2817 2.7644
-6.3813 -7.2912 2.7628
-6.2584 -7.3003 2.7612
-6.1371 -7.3092 2.7596
-6.0173 -7.3178 2.7581
-5.8991 -7.3262 2.7565
-5.7823 -7.3343 2.7550
-5.6669 -7.3422 2.7536
-5.5529 -7.3499 2.7522
-5.4402 -7.3573 2.7508
-5.3288 -7.3645 2.7494
-5.2187 -7.3715 2.7480
-5.1098 -7.3783 2.7467
-5.0020 -7.3849 2.7454
-4.8954 -7.3912 2.7441
-4.7899 -7.3974 2.7429
-4.6854 -7.4034 2.7417
-4.5820 -7.4092 2.7405
-4.4795 -7.4148 2.7393
-4.3781 -7.4202 2.7381
-4.2775 -7.4254 2.7370
-4.1779 -7.4305 2.7359
-4.0792 -7.4354 2.7348
-3.9813 -7.4401 2.7337
-3.8842 -7.4447 2.7326
-3.7879 -7.4490 2.7316
-3.6924 -7.4533 2.7306
-3.5977 -7.4573 2.7296
-3.5037 -7.4613 2.7286
-3.4103 -7.4650 2.7276
-3.3168 -7.4666 2.7259
-3.2205 -7.4601 2.7213
-3.1252 -7.4536 2.7168
-3.0308 -7.4470 2.7124
-2.9372 -7.4404 2.7080
-2.8444 -7.4338 2.7037
-2.7525 -7.4271 2.6994
-2.6606 -7.4182 2.6944
-2.5695 -7.4092 2.6894
-2.4791 -7.4002 2.6845
-2.3896 -7.3911 2.6796
-2.3008 -7.3820 2.6748
-2.2122 -7.3715 2.6695
-2.1242 -7.3600 2.6640
-2.0369 -7.3486 2.6585
-1.9503 -7.3372 2.6531
-1.8647 -7.3267 2.6481
-0.9256 -3.8053 1.3748
-0.8834 -3.8070 1.3748
-0.8413 -3.8085 1.3748
-0.7993 -3.8100 1.3748
-0.7574 -3.8115 1.3748
-0.7157 -3.8128 1.3749
-0.6741 -3.8142 1.3749
-0.6326 -3.8154 1.3750
-0.5911 -3.8166 1.3750
-0.5498 -3.8178 1.3751
-0.5086 -3.8189 1.3751
-0.4674 -3.8199 1.3752
-0.4263 -3.8209 1.3753
-0.3853 -3.8218 1.3753
-0.3443 -3.8226 1.3754
-0.3034 -3.8234 1.3755
-0.2625 -3.8242 1.3756
-0.2216 -3.8248 1.3757
-0.1808 -3.8255 1.3758
-0.1400 -3.8260 1.3759
-0.0992 -3.8266 1.3760
-0.0584 -3.8270 1.3761
-0.0176 -3.8274 1.3762
0.0231 -3.8278 1.3764
-47.7020 6.5144 3.3370
-45.8870 5.8181 3.3370
-44.2023 5.1736 3.3370
-42.6342 4.5752 3.3370
-41.1707 4.0184 3.3370
-39.8013 3.4989 3.3370
-38.5171 3.0133 3.3370
-37.3101 2.5582 3.3370
-36.1733 2.1310 3.3370
-35.1007 1.7292 3.3370
-34.0867 1.3507 3.3370
-33.1265 0.9935 3.3370
-32.2157 0.6559 3.3370
-15.1796 0.1629 1.6157
-14.4658 0.0159 1.5813
-14.0468 -0.1199 1.5760
-13.7432 -0.2497 1.5817
-13.4570 -0.3743 1.5879
-13.2581 -0.4968 1.6031
-13.0649 -0.6158 1.6181
-12.8769 -0.7316 1.6328
-12.7312 -0.8467 1.6521
-12.6057 -0.9607 1.6734
-12.4824 -1.0727 1.6945
-12.3613 -1.1828 1.7153
-12.2621 -1.2931 1.7388
-12.1983 -1.4058 1.7670
-12.1350 -1.5177 1.7951
-12.0721 -1.6288 1.8231
-12.0097 -1.7390 1.8511
-11.9477 -1.8485 1.8790
-11.9079 -1.9608 1.9104
-11.8819 -2.0752 1.9440
-11.8558 -2.1895 1.9778
-11.8297 -2.3039 2.0116
-11.8036 -2.4182 2.0457
-11.7776 -2.5325 2.0798
-11.7639 -2.6497 2.1164
-11.7504 -2.7672 2.1532
-11.7368 -2.8851 2.1902
-11.7232 -3.0034 2.2275
-11.7095 -3.1220 2.2651
-11.6901 -3.2395 2.3018
-11.6705 -3.3573 2.3387
-11.6508 -3.4755 2.3759
-11.6310 -3.5940 2.4133
-11.6097 -3.7125 2.4507
-11.5993 -3.8349 2.4907
-11.5887 -3.9581 2.5311
-11.5782 -4.0819 2.5718
-11.5675 -4.2065 2.6129
-11.5568 -4.3319 2.6544
-11.5460 -4.4581 2.6963
-11.5351 -4.5850 2.7387
-11.5242 -4.7129 2.7814
-11.5132 -4.8417 2.8246
-11.5021 -4.9714 2.8683
-11.4580 -5.0875 2.9041
-11.2579 -5.1328 2.8999
-11.0623 -5.1767 2.8959
-10.8711 -5.2193 2.8920
-10.6839 -5.2606 2.8882
-10.5007 -5.3007 2.8845
-10.3200 -5.3390 2.8805
-10.1426 -5.3760 2.8765
-9.9689 -5.4119 2.8726
-9.7987 -5.4468 2.8688
-9.6399 -5.4854 2.8676
-9.6112 -5.5970 2.9048
-9.5918 -5.7150 2.9453
-9.5722 -5.8342 2.9863
-9.4333 -5.8801 2.9900
-9.2753 -5.9117 2.9870
-9.1200 -5.9425 2.9840
-8.9632 -5.9696 2.9797
-8.8091 -5.9960 2.9755
-8.6261 -5.9996 2.9605
-8.5064 -6.0447 2.9664
-8.3554 -6.0654 2.9608
-8.2071 -6.0855 2.9553
-8.0614 -6.1049 2.9499
-7.9183 -6.1238 2.9446
-7.7758 -6.1408 2.9388
-7.6322 -6.1543 2.9317
-7.4911 -6.1673 2.9248
-7.3525 -6.1798 2.9180
-7.2117 -6.1880 2.9095
-7.0720 -6.1946 2.9006
-6.9333 -6.1994 2.8912
-6.7919 -6.1991 2.8799
-6.6503 -6.1958 2.8674
-6.5066 -6.1878 2.8531
-6.3924 -6.2053 2.8509
-6.2795 -6.2223 2.8487
-6.1681 -6.2388 2.8466
-6.0580 -6.2550 2.8445
-5.9492 -6.2707 2.8425
-5.8417 -6.2860 2.8405
-5.7355 -6.3009 2.8385
-5.6304 -6.3155 2.8366
-5.5266 -6.3296 2.8347
-5.4238 -6.3435 2.8328
-5.3222 -6.3569 2.8310
-5.2216 -6.3700 2.8293
-5.1221 -6.3827 2.8275
-5.0236 -6.3951 2.8258
-4.9261 -6.4072 2.8241
-4.8294 -6.4190 2.8225
-4.7338 -6.4304 2.8209
-4.6390 -6.4416 2.8193
-4.5451 -6.4524 2.8178
-4.4521 -6.4629 2.8163
-4.3598 -6.4732 2.8148
-4.2684 -6.4832 2.8133
-4.1777 -6.4928 2.8119
-4.0878 -6.5022 2.8105
-3.9986 -6.5114 2.8091
-3.9102 -6.5203 2.8078
-3.8224 -6.5289 2.8064
-3.7353 -6.5373 2.8051
-3.6488 -6.5454 2.8039
-3.5629 -6.5532 2.8026
-3.4777 -6.5609 2.8014
-3.3931 -6.5682 2.8002
-3.3090 -6.5754 2.7990
-3.2255 -6.5823 2.7979
-3.1425 -6.5890 2.7967
-3.0600 -6.5955 2.7956
-2.9781 -6.6017 2.7945
-2.8966 -6.6078 2.7935
-2.8156 -6.6136 2.7924
-2.7351 -6.6192 2.7914
-2.6545 -6.6234 2.7899
-2.5718 -6.6208 2.7856
-2.4898 -6.6180 2.7814
-2.4084 -6.6151 2.7773
-2.3275 -6.6121 2.7732
-2.2473 -6.6090 2.7691
-2.1675 -6.6055 2.7650
-2.0878 -6.6003 2.7603
-2.0086 -6.5950 2.7557
-1.9300 -6.5896 2.7511
-1.8519 -6.5841 2.7466
-0.9149 -3.3920 1.4139
-0.8766 -3.3944 1.4138
-0.8383 -3.3966 1.4138
-0.8002 -3.3988 1.4137
-0.7622 -3.4009 1.4137
-0.7243 -3.4028 1.4136
-0.6864 -3.4047 1.4136
-0.6487 -3.4065 1.4136
-0.6111 -3.4082 1.4136
-0.5735 -3.4099 1.4135
-0.5360 -3.4114 1.4135
-0.4986 -3.4129 1.4136
-0.4612 -3.4142 1.4136
-0.4239 -3.4155 1.4136
-0.3867 -3.4167 1.4136
-0.3495 -3.4178 1.4137
-0.3123 -3.4189 1.4137
-0.2752 -3.4198 1.4138
-0.2381 -3.4207 1.4138
-0.2011 -3.4215 1.4139
-0.1640 -3.4221 1.4140
-0.1270 -3.4228 1.4141
-0.0900 -3.4233 1.4142
-0.0530 -3.4237 1.4143
-0.0160 -3.4241 1.4144
0.0210 -3.4244 1.4145
-37.5634 9.3798 3.3370
-36.4740 8.7378 3.3370
-35.4444 8.1331 3.3370
-34.4695 7.5628 3.3370
-33.5452 7.0240 3.3370
-32.6673 6.5143 3.3370
-31.8323 6.0314 3.3370
-31.0369 5.5733 3.3370
-30.2784 5.1382 3.3370
-29.5540 4.7244 3.3370
-28.8614 4.3305 3.3370
-28.1984 3.9550 3.3370
-27.5631 3.5968 3.3370
-26.9537 3.2547 3.3370
-26.3685 2.9278 3.3370
-25.8060 2.6149 3.3370
-25.2647 2.3154 3.3370
-24.7436 2.0283 3.3370
-24.2412 1.7529 3.3370
-23.7567 1.4887 3.3370
-22.2254 1.1784 3.1846
-21.7941 0.9456 3.1846
-21.3772 0.7216 3.1846
-20.9738 0.5061 3.1846
-20.5832 0.2985 3.1846
-14.6750 0.0715 2.3130
-14.1694 -0.0674 2.2746
-13.8606 -0.1995 2.2657
-13.5646 -0.3261 2.2573
-13.3352 -0.4493 2.2588
-13.1397 -0.5698 2.2649
-12.9495 -0.6868 2.2711
-12.7806 -0.8018 2.2802
-12.6541 -0.9167 2.2963
-12.5298 -1.0296 2.3122
-12.4078 -1.1406 2.3282
-12.2877 -1.2497 2.3440
-12.2226 -1.3628 2.3700
-12.1590 -1.4752 2.3962
-12.0959 -1.5868 2.4224
-12.0332 -1.6976 2.4487
-11.9709 -1.8076 2.4749
-11.9177 -1.9182 2.5030
-11.8915 -2.0329 2.5369
-11.8654 -2.1475 2.5709
-11.8392 -2.2621 2.6051
-11.8131 -2.3768 2.6396
-11.7869 -2.4914 2.6742
-11.7687 -2.6079 2.7109
-11.7551 -2.7257 2.7489
-11.7416 -2.8439 2.7873
-11.7279 -2.9624 2.8260
-11.7142 -3.0814 2.8650
-11.6967 -3.1998 2.9035
-11.6770 -3.3179 2.9417
-11.6573 -3.4364 2.9802
-11.5275 -3.5217 2.9906
-11.3433 -3.5879 2.9861
-11.1630 -3.6522 2.9818
-10.9863 -3.7148 2.9776
-10.8132 -3.7756 2.9735
-10.6435 -3.8347 2.9695
-10.4758 -3.8918 2.9652
-10.3105 -3.9469 2.9608
-10.1482 -4.0006 2.9564
-9.9891 -4.0528 2.9522
-9.8336 -4.1039 2.9483
-9.7405 -4.1792 2.9626
-9.7230 -4.2867 3.0000
-9.7053 -4.3949 3.0377
-9.6875 -4.5038 3.0760
-9.5415 -4.5523 3.0733
-9.3953 -4.5984 3.0700
-9.2514 -4.6433 3.0666
-9.1088 -4.6865 3.0630
-8.9683 -4.7285 3.0594
-8.8300 -4.7694 3.0559
-8.6624 -4.7920 3.0414
-8.5553 -4.8458 3.0475
-8.4199 -4.8817 3.0430
-8.2865 -4.9167 3.0385
-8.1553 -4.9509 3.0341
-8.0260 -4.9841 3.0299
-7.8987 -5.0165 3.0257
-7.7717 -5.0471 3.0210
-7.6443 -5.0753 3.0154
-7.5188 -5.1027 3.0100
-7.3951 -5.1294 3.0046
-7.2733 -5.1553 2.9994
-7.1491 -5.1776 2.9925
-7.0266 -5.1990 2.9857
-6.9060 -5.2197 2.9789
-6.7826 -5.2363 2.9703
-6.6608 -5.2520 2.9617
-6.5365 -5.2635 2.9512
-6.4118 -5.2725 2.9398
-6.2835 -5.2763 2.9259
-6.1802 -5.2989 2.9229
-6.0788 -5.3216 2.9203
-5.9785 -5.3437 2.9178
-5.8794 -5.3654 2.9154
-5.7813 -5.3865 2.9130
-5.6843 -5.4072 2.9106
-5.5884 -5.4273 2.9083
-5.4934 -5.4470 2.9060
-5.3994 -5.4662 2.9038
-5.3063 -5.4849 2.9016
-5.2141 -5.5032 2.8995
-5.1229 -5.5210 2.8974
-5.0324 -5.5385 2.8953
-4.9429 -5.5555 2.8933
-4.8541 -5.5721 2.8913
-4.7662 -5.5883 2.8894
-4.6790 -5.6041 2.8875
-4.5926 -5.6195 2.8856
-4.5069 -5.6345 2.8838
-4.4219 -5.6492 2.8820
-4.3377 -5.6634 2.8803
-4.2541 -5.6774 2.8785
-4.1711 -5.6910 2.8768
-4.0888 -5.7042 2.8752
-4.0071 -5.7171 2.8736
-3.9261 -5.7297 2.8720
-3.8456 -5.7419 2.8704
-3.7657 -5.7538 2.8689
-3.6864 -5.7654 2.8674
-3.6076 -5.7767 2.8659
-3.5293 -5.7877 2.8645
-3.4515 -5.7984 2.8630
-3.3743 -5.8087 2.8616
-3.2975 -5.8188 2.8603
-3.2212 -5.8286 2.8589
-3.1453 -5.8381 2.8576
-3.0699 -5.8474 2.8563
-2.9949 -5.8563 2.8551
-2.9204 -5.8650 2.8539
-2.8462 -5.8735 2.8526
-2.7724 -5.8816 2.8515
-2.6991 -5.8895 2.8503
-2.6261 -5.8972 2.8492
-2.5534 -5.9045 2.8480
-2.4811 -5.9117 2.8470
-2.4092 -5.9186 2.8459
-2.3375 -5.9252 2.8448
-2.2662 -5.9316 2.8438
-2.1952 -5.9378 2.8428
-2.1244 -5.9434 2.8417
-2.0518 -5.9429 2.8378
-1.9797 -5.9421 2.8339
-1.9080 -5.9411 2.8300
-1.8367 -5.9400 2.8262
-1.7658 -5.9387 2.8224
-1.6952 -5.9370 2.8186
-0.9313 -3.4015 1.6133
-0.8914 -3.4007 1.6113
-0.8517 -3.3999 1.6094
-0.8123 -3.3991 1.6076
-0.7730 -3.3983 1.6059
-0.7339 -3.3976 1.6043
-0.6950 -3.3968 1.6027
-0.6563 -3.3960 1.6012
-0.6178 -3.3953 1.5997
-0.5794 -3.3946 1.5984
-0.5411 -3.3938 1.5971
-0.5030 -3.3931 1.5959
-0.4650 -3.3924 1.5947
-0.4272 -3.3917 1.5936
-0.3894 -3.3910 1.5926
-0.3518 -3.3903 1.5917
-0.3142 -3.3897 1.5908
-0.2767 -3.3890 1.5900
-0.2393 -3.3883 1.5893
-0.2020 -3.3877 1.5886
-0.1647 -3.3870 1.5880
-0.1275 -3.3864 1.5874
-0.0903 -3.3858 1.5870
-0.0532 -3.3852 1.5865
-0.0161 -3.3845 1.5862
0.0210 -3.3839 1.5859
-24.5516 6.4719 3.3370
-24.0987 6.1073 3.3370
-23.6606 5.7566 3.3370
-23.2364 5.4192 3.3370
-22.8257 5.0942 3.3370
-22.4276 4.7811 3.3370
-22.0416 4.4793 3.3370
-21.6670 4.1881 3.3370
-21.3032 3.9071 3.3370
-20.9498 3.6357 3.3370
-20.6063 3.3736 3.3370
-20.2721 3.1202 3.3370
-19.9471 2.8751 3.3370
-19.6305 2.6380 3.3370
-19.3222 2.4086 3.3370
-19.0216 2.1864 3.3370
-18.7287 1.9712 3.3370
-18.4429 1.7626 3.3370
-17.3344 1.4891 3.1846
-17.0746 1.3020 3.1846
-16.8208 1.1204 3.1846
-16.5729 0.9442 3.1846
-16.3305 0.7732 3.1846
-16.0934 0.6070 3.1846
-15.8616 0.4456 3.1846
-15.6346 0.2888 3.1846
-14.9019 0.1318 3.0791
-14.3635 -0.0113 3.0103
-13.9863 -0.1458 2.9730
-13.6851 -0.2746 2.9500
-13.4174 -0.3987 2.9330
-13.2194 -0.5206 2.9301
-13.0270 -0.6391 2.9275
-12.8397 -0.7544 2.9253
-12.7056 -0.8700 2.9346
-12.5803 -0.9838 2.9454
-12.4572 -1.0957 2.9563
-12.3361 -1.2057 2.9673
-12.2485 -1.3172 2.9860
-12.1845 -1.4301 3.0104
-12.1211 -1.5422 3.0349
-12.0581 -1.6535 3.0594
-11.9955 -1.7641 3.0841
-11.8734 -1.8645 3.0932
-11.6738 -1.9499 3.0814
-11.4754 -2.0321 3.0690
-11.3011 -2.1152 3.0622
-11.1184 -2.1938 3.0523
-10.9539 -2.2729 3.0465
-10.7948 -2.3504 3.0416
-10.6401 -2.4262 3.0372
-10.4872 -2.4998 3.0326
-10.3371 -2.5716 3.0281
-10.1895 -2.6416 3.0237
-10.0445 -2.7097 3.0194
-9.9031 -2.7765 3.0156
-9.8536 -2.8678 3.0395
-9.8375 -2.9687 3.0739
-9.8212 -3.0701 3.1086
-9.8049 -3.1718 3.1437
-9.6824 -3.2384 3.1447
-9.5477 -3.2990 3.1412
-9.4150 -3.3581 3.1378
-9.2842 -3.4158 3.1345
-9.1554 -3.4722 3.1312
-9.0284 -3.5273 3.1280
-8.8749 -3.5698 3.1150
-8.7492 -3.6211 3.1110
-8.6523 -3.6827 3.1168
-8.5297 -3.7318 3.1129
-8.4089 -3.7797 3.1091
-8.2897 -3.8266 3.1054
-8.1721 -3.8724 3.1018
-8.0562 -3.9171 3.0983
-7.9417 -3.9608 3.0948
-7.8287 -4.0035 3.0914
-7.7146 -4.0439 3.0870
-7.6017 -4.0832 3.0826
-7.4903 -4.1215 3.0783
-7.3803 -4.1590 3.0741
-7.2718 -4.1956 3.0699
-7.1637 -4.2308 3.0654
-7.0546 -4.2637 3.0600
-6.9469 -4.2958 3.0547
-6.8406 -4.3272 3.0495
-6.7334 -4.3562 3.0433
-6.6261 -4.3836 3.0365
-6.5197 -4.4098 3.0297
-6.4110 -4.4328 3.0211
-6.3021 -4.4538 3.0119
-6.1913 -4.4716 3.0011
-6.0773 -4.4852 2.9881
-5.9850 -4.5131 2.9852
-5.8936 -4.5403 2.9824
-5.8032 -4.5670 2.9796
-5.7136 -4.5930 2.9768
-5.6250 -4.6185 2.9741
-5.5371 -4.6434 2.9715
-5.4502 -4.6678 2.9689
-5.3640 -4.6916 2.9663
-5.2787 -4.7149 2.9638
-5.1941 -4.7377 2.9614
-5.1102 -4.7600 2.9590
-5.0271 -4.7818 2.9566
-4.9448 -4.8031 2.9543
-4.8631 -4.8239 2.9521
-4.7821 -4.8442 2.9498
-4.7018 -4.8641 2.9477
-4.6221 -4.8836 2.9455
-4.5430 -4.9026 2.9434
-4.4646 -4.9211 2.9414
-4.3868 -4.9393 2.9393
-4.3095 -4.9570 2.9373
-4.2329 -4.9743 2.9354
-4.1567 -4.9912 2.9335
-4.0812 -5.0077 2.9316
-4.0061 -5.0238 2.9298
-3.9316 -5.0396 2.9280
-3.8576 -5.0550 2.9262
-3.7840 -5.0700 2.9245
-3.7109 -5.0846 2.9227
-3.6384 -5.0989 2.9211
-3.5662 -5.1128 2.9194
-3.4945 -5.1264 2.9178
-3.4233 -5.1396 2.9162
-3.3524 -5.1525 2.9147
-3.2820 -5.1651 2.9132
-3.2119 -5.1773 2.9117
-3.1423 -5.1892 2.9102
-3.0730 -5.2008 2.9088
-3.0041 -5.2121 2.9074
-2.9355 -5.2231 2.9060
-2.8673 -5.2338 2.9047
-2.7995 -5.2441 2.9033
-2.7319 -5.2542 2.9020
-2.6647 -5.2640 2.9008
-2.5978 -5.2735 2.8995
-2.5312 -5.2827 2.8983
-2.4649 -5.2916 2.8971
-2.3988 -5.3003 2.8959
-2.3331 -5.3086 2.8948
-2.2676 -5.3167 2.8937
-2.2023 -5.3245 2.8926
-2.1374 -5.3321 2.8915
-2.0726 -5.3394 2.8905
-2.0081 -5.3464 2.8894
-1.9439 -5.3532 2.8884
-1.8798 -5.3597 2.8874
-1.8160 -5.3660 2.8865
-1.7523 -5.3720 2.8855
-1.6889 -5.3777 2.8846
-1.6243 -5.3789 2.8814
-1.5598 -5.3791 2.8778
-1.4957 -5.3790 2.8743
-0.9107 -3.4213 1.8260
-0.8701 -3.4204 1.8235
-0.8298 -3.4196 1.8211
-0.7896 -3.4187 1.8188
-0.7497 -3.4179 1.8166
-0.7099 -3.4171 1.8145
-0.6703 -3.4162 1.8125
-0.6309 -3.4154 1.8106
-0.5917 -3.4146 1.8088
-0.5526 -3.4139 1.8071
-0.5137 -3.4131 1.8055
-0.4749 -3.4124 1.8040
-0.4362 -3.4116 1.8026
-0.3976 -3.4109 1.8013
-0.3592 -3.4102 1.8000
-0.3208 -3.4094 1.7989
-0.2826 -3.4087 1.7978
-0.2444 -3.4080 1.7969
-0.2062 -3.4074 1.7960
-0.1682 -3.4067 1.7952
-0.1302 -3.4060 1.7946
-0.0922 -3.4054 1.7940
-0.0543 -3.4047 1.7935
-0.0164 -3.4041 1.7931
0.0215 -3.4035 1.7927
-18.1471 5.0405 3.3370
-17.9081 4.7914 3.3370
-17.6739 4.5493 3.3370
-17.4445 4.3139 3.3370
-17.2195 4.0849 3.3370
-16.9989 3.8622 3.3370
-16.7825 3.6455 3.3370
-16.5702 3.4346 3.3370
-16.3618 3.2293 3.3370
-16.1572 3.0293 3.3370
-15.9563 2.8345 3.3370
-15.7590 2.6448 3.3370
-15.5651 2.4599 3.3370
-15.3745 2.2796 3.3370
-15.1873 2.1039 3.3370
-15.0031 1.9326 3.3370
-14.1507 1.6855 3.1859
-13.9764 1.5294 3.1849
-13.8106 1.3777 3.1853
-13.6472 1.2296 3.1856
-13.4862 1.0850 3.1858
-13.3264 0.9438 3.1858
-13.1676 0.8057 3.1854
-13.0084 0.6708 3.1844
-12.8508 0.5390 3.1831
-12.6912 0.4103 3.1808
-12.5352 0.2846 3.1787
-12.3757 0.1619 3.1752
-12.2224 0.0422 3.1727
-12.0711 -0.0746 3.1701
-11.9177 -0.1885 3.1664
-11.7613 -0.2996 3.1613
-11.6105 -0.4079 3.1571
-11.4522 -0.5132 3.1503
-11.2932 -0.6156 3.1426
-11.1411 -0.7155 3.1362
-10.9832 -0.8123 3.1275
-10.8328 -0.9068 3.1204
-10.6806 -0.9986 3.1121
-10.5347 -1.0883 3.1051
-10.3914 -1.1757 3.0982
-10.2510 -1.2609 3.0916
-10.1170 -1.3446 3.0863
-10.0692 -1.4383 3.1072
-10.0339 -1.5333 3.1320
-10.0060 -1.6293 3.1593
-9.9782 -1.7250 3.1869
-9.9476 -1.8202 3.2138
-9.8200 -1.8965 3.2092
-9.6953 -1.9713 3.2051
-9.5722 -2.0444 3.2010
-9.4509 -2.1158 3.1970
-9.3324 -2.1860 3.1936
-9.2154 -2.2546 3.1901
-9.0992 -2.3215 3.1866
-8.9596 -2.3804 3.1742
-8.8706 -2.4509 3.1793
-8.7584 -2.5135 3.1758
-8.6476 -2.5747 3.1724
-8.5383 -2.6347 3.1691
-8.4302 -2.6933 3.1658
-8.3233 -2.7508 3.1625
-8.2178 -2.8070 3.1594
-8.1135 -2.8620 3.1563
-8.0103 -2.9159 3.1532
-7.9084 -2.9686 3.1503
-7.8075 -3.0203 3.1473
-7.7064 -3.0703 3.1439
-7.6057 -3.1191 3.1403
-7.5062 -3.1667 3.1367
-7.4078 -3.2134 3.1332
-7.3105 -3.2591 3.1297
-7.2142 -3.3039 3.1263
-7.1189 -3.3477 3.1230
-7.0234 -3.3900 3.1192
-6.9278 -3.4308 3.1149
-6.8333 -3.4708 3.1108
-6.7398 -3.5099 3.1067
-6.6466 -3.5478 3.1024
-6.5523 -3.5838 3.0971
-6.4592 -3.6189 3.0920
-6.3656 -3.6525 3.0863
-6.2713 -3.6842 3.0797
-6.1763 -3.7140 3.0724
-6.0800 -3.7417 3.0640
-5.9806 -3.7658 3.0534
-5.8828 -3.7893 3.0432
-5.7996 -3.8209 3.0400
-5.7171 -3.8518 3.0369
-5.6354 -3.8820 3.0339
-5.5544 -3.9117 3.0309
-5.4741 -3.9407 3.0280
-5.3945 -3.9691 3.0251
-5.3156 -3.9969 3.0223
-5.2374 -4.0241 3.0196
-5.1597 -4.0508 3.0169
-5.0828 -4.0769 3.0142
-5.0064 -4.1025 3.0116
-4.9307 -4.1275 3.0090
-4.8555 -4.1521 3.0065
-4.7809 -4.1760 3.0040
-4.7069 -4.1996 3.0016
-4.6334 -4.2225 2.9992
-4.5605 -4.2451 2.9968
-4.4881 -4.2671 2.9945
-4.4162 -4.2887 2.9923
-4.3448 -4.3098 2.9901
-4.2739 -4.3304 2.9879
-4.2035 -4.3506 2.9858
-4.1335 -4.3704 2.9837
-4.0640 -4.3897 2.9816
-3.9949 -4.4087 2.9796
-3.9263 -4.4272 2.9776
-3.8581 -4.4453 2.9756
-3.7902 -4.4629 2.9737
-3.7228 -4.4802 2.9718
-3.6558 -4.4971 2.9700
-3.5892 -4.5136 2.9682
-3.5230 -4.5298 2.9664
-3.4571 -4.5455 2.9646
-3.3916 -4.5609 2.9629
-3.3265 -4.5760 2.9613
-3.2616 -4.5906 2.9596
-3.1971 -4.6050 2.9580
-3.1330 -4.6189 2.9564
-3.0691 -4.6326 2.9548
-3.0056 -4.6459 2.9533
-2.9424 -4.6588 2.9518
-2.8794 -4.6715 2.9503
-2.8168 -4.6838 2.9489
-2.7544 -4.6958 2.9475
-2.6923 -4.7074 2.9461
-2.6305 -4.7188 2.9447
-2.5689 -4.7298 2.9434
-2.5076 -4.7406 2.9421
-2.4465 -4.7510 2.9408
-2.3856 -4.7611 2.9396
-2.3250 -4.7710 2.9383
-2.2646 -4.7805 2.9371
-2.2045 -4.7898 2.9360
-2.1445 -4.7987 2.9348
-2.0848 -4.8074 2.9337
-2.0252 -4.8158 2.9326
-1.9658 -4.8239 2.9315
-1.9067 -4.8318 2.9304
-1.8477 -4.8393 2.9294
-1.7889 -4.8466 2.9284
-1.7302 -4.8537 2.9274
-1.6718 -4.8604 2.9264
-1.6134 -4.8669 2.9255
-1.5553 -4.8731 2.9246
-1.4973 -4.8791 2.9237
-1.4394 -4.8848 2.9228
-1.3817 -4.8903 2.9220
-0.9313 -3.4432 2.0546
-0.8897 -3.4423 2.0514
-0.8484 -3.4413 2.0483
-0.8073 -3.4404 2.0453
-0.7664 -3.4395 2.0425
-0.7257 -3.4386 2.0399
-0.6852 -3.4377 2.0373
-0.6449 -3.4369 2.0349
-0.6048 -3.4360 2.0326
-0.5648 -3.4352 2.0305
-0.5250 -3.4343 2.0284
-0.4853 -3.4335 2.0265
-0.4458 -3.4327 2.0247
-0.4064 -3.4320 2.0230
-0.3671 -3.4312 2.0215
-0.3278 -3.4305 2.0201
-0.2887 -3.4297 2.0188
-0.2497 -3.4290 2.0176
-0.2108 -3.4283 2.0165
-0.1719 -3.4276 2.0155
-0.1330 -3.4269 2.0147
-0.0942 -3.4262 2.0140
-0.0555 -3.4255 2.0134
-0.0168 -3.4249 2.0129
0.0220 -3.4242 2.0125
-14.3194 4.1848 3.3361
-14.1756 3.9978 3.3360
-14.0336 3.8148 3.3358
-13.8932 3.6358 3.3357
-13.7543 3.4607 3.3355
-13.6171 3.2893 3.3354
-13.4814 3.1216 3.3352
-13.3472 2.9575 3.3351
-13.2152 2.7971 3.3351
-13.0845 2.6399 3.3351
-12.9551 2.4861 3.3351
-12.8271 2.3354 3.3350
-12.7003 2.1878 3.3350
-12.5749 2.0433 3.3349
-12.4507 1.9017 3.3349
-12.3254 1.7626 3.3342
-12.1999 1.6262 3.3331
-12.0749 1.4925 3.3317
-11.9505 1.3615 3.3302
-11.8269 1.2332 3.3285
-11.7036 1.1074 3.3266
-11.5808 0.9842 3.3244
-11.4592 0.8635 3.3223
-11.3384 0.7453 3.3200
-11.2180 0.6296 3.3174
-11.0987 0.5161 3.3149
-10.9789 0.4050 3.3118
-10.8602 0.2962 3.3087
-10.7401 0.1897 3.3048
-10.6201 0.0854 3.3005
-10.5004 -0.0167 3.2960
-10.3794 -0.1166 3.2907
-10.2617 -0.2143 3.2860
-10.1440 -0.3098 3.2809
-10.0244 -0.4032 3.2748
-9.9111 -0.4947 3.2705
-9.7992 -0.5843 3.2662
-9.6879 -0.6720 3.2617
-9.5779 -0.7578 3.2574
-9.4693 -0.8418 3.2531
-9.3619 -0.9241 3.2489
-9.2560 -1.0047 3.2449
-9.1514 -1.0837 3.2410
-9.0479 -1.1610 3.2372
-8.9456 -1.2368 3.2334
-8.8444 -1.3111 3.2297
-8.7444 -1.3839 3.2262
-8.6456 -1.4552 3.2227
-8.5478 -1.5251 3.2193
-8.4509 -1.5937 3.2160
-8.3551 -1.6608 3.2127
-8.2602 -1.7267 3.2094
-8.1662 -1.7913 3.2063
-8.0732 -1.8546 3.2032
-7.9811 -1.9167 3.2001
-7.8898 -1.9775 3.1971
-7.7994 -2.0372 3.1942
-7.7099 -2.0958 3.1913
-7.6211 -2.1532 3.1884
-7.5325 -2.2093 3.1853
-7.4447 -2.2644 3.1823
-7.3577 -2.3184 3.1793
-7.2715 -2.3713 3.1764
-7.1860 -2.4233 3.1735
-7.1013 -2.4742 3.1707
-7.0174 -2.5242 3.1680
-6.9341 -2.5732 3.1652
-6.8513 -2.6212 3.1624
-6.7679 -2.6678 3.1591
-6.6852 -2.7135 3.1557
-6.6032 -2.7583 3.1525
-6.5220 -2.8022 3.1493
-6.4408 -2.8450 3.1459
-6.3590 -2.8864 3.1418
-6.2779 -2.9269 3.1378
-6.1969 -2.9664 3.1336
-6.1149 -3.0042 3.1285
-6.0328 -3.0407 3.1231
-5.9496 -3.0755 3.1168
-5.8640 -3.1078 3.1088
-5.7740 -3.1365 3.0981
-5.6936 -3.1690 3.0921
-5.6186 -3.2035 3.0888
-5.5442 -3.2373 3.0855
-5.4704 -3.2704 3.0823
-5.3972 -3.3029 3.0792
-5.3245 -3.3348 3.0761
-5.2524 -3.3660 3.0730
-5.1808 -3.3966 3.0700
-5.1098 -3.4267 3.0671
-5.0393 -3.4561 3.0642
-4.9692 -3.4850 3.0614
-4.8997 -3.5133 3.0586
-4.8307 -3.5410 3.0558
-4.7621 -3.5682 3.0532
-4.6940 -3.5949 3.0505
-4.6264 -3.6210 3.0479
-4.5592 -3.6466 3.0454
-4.4924 -3.6717 3.0428
-4.4261 -3.6964 3.0404
-4.3602 -3.7205 3.0380
-4.2947 -3.7441 3.0356
-4.2296 -3.7673 3.0332
-4.1648 -3.7900 3.0309
-4.1005 -3.8122 3.0287
-4.0366 -3.8340 3.0265
-3.9730 -3.8553 3.0243
-3.9097 -3.8762 3.0221
-3.8468 -3.8967 3.0200
-3.7843 -3.9167 3.0180
-3.7221 -3.9363 3.0159
-3.6602 -3.9555 3.0139
-3.5987 -3.9743 3.0120
-3.5375 -3.9927 3.0100
-3.4765 -4.0107 3.0081
-3.4159 -4.0283 3.0063
-3.3556 -4.0456 3.0045
-3.2955 -4.0624 3.0027
-3.2358 -4.0789 3.0009
-3.1763 -4.0950 2.9992
-3.1171 -4.1108 2.9975
-3.0581 -4.1261 2.9958
-2.9994 -4.1412 2.9942
-2.9410 -4.1559 2.9926
-2.8828 -4.1702 2.9910
-2.8248 -4.1842 2.9895
-2.7671 -4.1979 2.9879
-2.7096 -4.2112 2.9865
-2.6524 -4.2242 2.9850
-2.5953 -4.2368 2.9836
-2.5385 -4.2492 2.9822
-2.4818 -4.2612 2.9808
-2.4254 -4.2729 2.9794
-2.3692 -4.2843 2.9781
-2.3131 -4.2954 2.9768
-2.2573 -4.3062 2.9755
-2.2016 -4.3167 2.9743
-2.1461 -4.3269 2.9731
-2.0908 -4.3368 2.9719
-2.0356 -4.3464 2.9707
-1.9807 -4.3557 2.9696
-1.9258 -4.3647 2.9684
-1.8712 -4.3734 2.9673
-1.8166 -4.3818 2.9663
-1.7622 -4.3900 2.9652
-1.7080 -4.3979 2.9642
-1.6539 -4.4055 2.9632
-1.6000 -4.4128 2.9622
-1.5461 -4.4199 2.9613
-1.4924 -4.4267 2.9603
-1.4388 -4.4332 2.9594
-1.3853 -4.4395 2.9585
-1.3319 -4.4454 2.9577
-1.2787 -4.4512 2.9568
-1.0582 -3.8482 2.5525
-0.9107 -3.4657 2.2954
-0.8683 -3.4646 2.2916
-0.8262 -3.4636 2.2879
-0.7843 -3.4626 2.2845
-0.7426 -3.4617 2.2811
-0.7012 -3.4607 2.2780
-0.6599 -3.4598 2.2750
-0.6188 -3.4589 2.2722
-0.5779 -3.4580 2.2695
-0.5371 -3.4571 2.2670
-0.4965 -3.4562 2.2646
-0.4561 -3.4554 2.2624
-0.4157 -3.4545 2.2604
-0.3755 -3.4537 2.2585
-0.3354 -3.4529 2.2567
-0.2954 -3.4521 2.2551
-0.2554 -3.4514 2.2537
-0.2156 -3.4506 2.2524
-0.1758 -3.4499 2.2512
-0.1361 -3.4492 2.2502
-0.0964 -3.4485 2.2493
-0.0567 -3.4478 2.2486
-0.0171 -3.4471 2.2481
0.0225 -3.4464 2.2476
-11.7567 3.6111 3.3326
-11.6605 3.4618 3.3315
-11.5643 3.3152 3.3303
-11.4684 3.1711 3.3290
-11.3722 3.0294 3.3275
-11.2765 2.8904 3.3260
-11.1806 2.7537 3.3243
-11.0850 2.6194 3.3225
-10.9896 2.4875 3.3206
-10.8948 2.3581 3.3187
-10.7985 2.2305 3.3162
-10.7028 2.1054 3.3137
-10.6093 1.9828 3.3118
-10.5217 1.8634 3.3115
-10.4344 1.7461 3.3112
-10.3477 1.6308 3.3109
-10.2614 1.5175 3.3106
-10.1755 1.4061 3.3103
-10.0901 1.2966 3.3101
-10.0051 1.1890 3.3098
-9.9206 1.0833 3.3095
-9.8365 0.9793 3.3093
-9.7528 0.8771 3.3090
-9.6696 0.7766 3.3087
-9.5868 0.6777 3.3085
-9.5044 0.5806 3.3082
-9.4147 0.4847 3.3053
-9.3253 0.3905 3.3022
-9.2366 0.2980 3.2992
-9.1467 0.2072 3.2956
-9.0576 0.1181 3.2920
-8.9691 0.0306 3.2885
-8.8814 -0.0553 3.2851
-8.7935 -0.1395 3.2814
-8.7057 -0.2222 3.2774
-8.6186 -0.3034 3.2736
-8.5322 -0.3830 3.2698
-8.4465 -0.4612 3.2661
-8.3612 -0.5379 3.2624
-8.2764 -0.6132 3.2586
-8.1923 -0.6871 3.2549
-8.1089 -0.7596 3.2513
-8.0264 -0.8309 3.2477
-7.9447 -0.9008 3.2444
-7.8635 -0.9695 3.2410
-7.7829 -1.0370 3.2377
-7.7029 -1.1032 3.2344
-7.6236 -1.1682 3.2313
-7.5450 -1.2321 3.2282
-7.4670 -1.2949 3.2252
-7.3896 -1.3565 3.2222
-7.3127 -1.4171 3.2193
-7.2364 -1.4766 3.2164
-7.1606 -1.5350 3.2136
-7.0853 -1.5924 3.2108
-7.0106 -1.6488 3.2081
-6.9364 -1.7042 3.2054
-6.8627 -1.7586 3.2027
-6.7894 -1.8121 3.2001
-6.7167 -1.8646 3.1976
-6.6444 -1.9162 3.1951
-6.5726 -1.9670 3.1926
-6.5013 -2.0168 3.1901
-6.4302 -2.0657 3.1876
-6.3593 -2.1137 3.1850
-6.2888 -2.1608 3.1824
-6.2188 -2.2071 3.1799
-6.1492 -2.2526 3.1774
-6.0793 -2.2969 3.1745
-6.0093 -2.3403 3.1714
-5.9398 -2.3830 3.1684
-5.8691 -2.4242 3.1645
-5.7981 -2.4642 3.1602
-5.7255 -2.5026 3.1549
-5.6498 -2.5386 3.1475
-5.5736 -2.5732 3.1396
-5.5057 -2.6107 3.1361
-5.4383 -2.6474 3.1326
-5.3713 -2.6835 3.1292
-5.3048 -2.7189 3.1259
-5.2387 -2.7537 3.1226
-5.1731 -2.7878 3.1193
-5.1079 -2.8213 3.1162
-5.0431 -2.8542 3.1130
-4.9787 -2.8865 3.1100
-4.9147 -2.9182 3.1069
-4.8511 -2.9493 3.1040
-4.7879 -2.9799 3.1010
-4.7251 -3.0098 3.0982
-4.6626 -3.0392 3.0953
-4.6005 -3.0681 3.0926
-4.5388 -3.0964 3.0898
-4.4775 -3.1243 3.0871
-4.4164 -3.1515 3.0845
-4.3557 -3.1783 3.0819
-4.2954 -3.2046 3.0793
-4.2353 -3.2304 3.0768
-4.1756 -3.2557 3.0743
-4.1162 -3.2805 3.0719
-4.0571 -3.3048 3.0695
-3.9983 -3.3287 3.0672
-3.9398 -3.3521 3.0648
-3.8816 -3.3751 3.0626
-3.8237 -3.3976 3.0603
-3.7661 -3.4197 3.0581
-3.7087 -3.4413 3.0560
-3.6516 -3.4625 3.0538
-3.5948 -3.4833 3.0517
-3.5382 -3.5037 3.0497
-3.4819 -3.5237 3.0477
-3.4258 -3.5433 3.0457
-3.3699 -3.5625 3.0437
-3.3143 -3.5813 3.0418
-3.2590 -3.5997 3.0399
-3.2038 -3.6177 3.0381
-3.1489 -3.6353 3.0363
-3.0942 -3.6526 3.0345
-3.0398 -3.6695 3.0327
-2.9855 -3.6860 3.0310
-2.9314 -3.7022 3.0293
-2.8776 -3.7180 3.0276
-2.8239 -3.7335 3.0260
-2.7704 -3.7486 3.0244
-2.7171 -3.7634 3.0228
-2.6640 -3.7778 3.0213
-2.6111 -3.7919 3.0197
-2.5584 -3.8057 3.0183
-2.5058 -3.8191 3.0168
-2.4534 -3.8323 3.0154
-2.4012 -3.8451 3.0139
-2.3491 -3.8575 3.0126
-2.2972 -3.8697 3.0112
-2.0910 -3.9153 3.0061
-2.2454 -3.8816 3.0099
-2.0398 -3.9259 3.0048
-2.1938 -3.8931 3.0086
-1.9888 -3.9363 3.0036
-2.1423 -3.9044 3.0073
-1.9378 -3.9463 3.0024
-1.8364 -3.9655 3.0002
-1.8871 -3.9561 3.0013
-1.7859 -3.9747 2.9991
-1.5848 -4.0085 2.9949
-1.7354 -3.9836 2.9980
-1.5348 -4.0163 2.9939
-1.6851 -3.9922 2.9969
-1.4849 -4.0238 2.9929
-1.6349 -4.0005 2.9959
-1.4352 -4.0310 2.9920
-1.3359 -4.0446 2.9902
-1.3855 -4.0379 2.9911
-1.2864 -4.0510 2.9893
-0.9333 -3.4909 2.5587
-1.2370 -4.0572 2.9885
-0.8899 -3.4898 2.5540
-1.1876 -4.0630 2.9877
-0.8466 -3.4887 2.5496
-1.1384 -4.0686 2.9869
-0.8037 -3.4876 2.5453
-0.7184 -3.4855 2.5374
-0.7609 -3.4865 2.5413
-0.6761 -3.4845 2.5338
-0.5086 -3.4807 2.5212
-0.6339 -3.4835 2.5304
-0.4671 -3.4797 2.5185
-0.5920 -3.4825 2.5271
-0.4258 -3.4789 2.5160
-0.5502 -3.4816 2.5241
-0.3846 -3.4780 2.5138
-0.3025 -3.4763 2.5097
-0.3435 -3.4771 2.5116
-0.2616 -3.4755 2.5080
-0.2208 -3.4747 2.5064
-0.1800 -3.4739 2.5050
-0.1393 -3.4732 2.5038
-0.0987 -3.4725 2.5028
-0.0581 -3.4717 2.5020
-0.0175 -3.4710 2.5013
0.0230 -3.4703 2.5008
-9.8755 3.1853 3.3145
-9.8121 3.0638 3.3142
-9.7487 2.9441 3.3139
-9.6852 2.8262 3.3136
-9.6217 2.7101 3.3133
-9.5581 2.5957 3.3130
-9.4945 2.4829 3.3127
-9.4308 2.3719 3.3125
-9.3671 2.2625 3.3122
-9.3034 2.1547 3.3119
-9.2397 2.0485 3.3117
-9.1760 1.9439 3.3114
-9.1123 1.8408 3.3111
-9.0486 1.7392 3.3109
-8.9850 1.6392 3.3106
-8.9214 1.5406 3.3104
-8.8578 1.4434 3.3101
-8.7943 1.3478 3.3099
-8.7308 1.2535 3.3097
-8.6674 1.1606 3.3094
-8.6041 1.0690 3.3092
-8.5408 0.9789 3.3090
-8.4776 0.8900 3.3087
-8.4145 0.8024 3.3085
-8.3514 0.7162 3.3083
-8.2856 0.6310 3.3069
-8.2166 0.5468 3.3042
-8.1478 0.4640 3.3016
-8.0793 0.3826 3.2989
-8.0086 0.3024 3.2953
-7.9394 0.2235 3.2922
-7.8705 0.1459 3.2891
-7.8018 0.0696 3.2861
-7.7331 -0.0054 3.2830
-7.6640 -0.0793 3.2795
-7.5952 -0.1519 3.2761
-7.5267 -0.2233 3.2728
-7.4586 -0.2935 3.2695
-7.3908 -0.3626 3.2662
-7.3232 -0.4305 3.2630
-7.2558 -0.4973 3.2597
-7.1886 -0.5630 3.2564
-7.1219 -0.6276 3.2532
-7.0554 -0.6912 3.2500
-6.9897 -0.7537 3.2471
-6.9243 -0.8152 3.2442
-6.8590 -0.8757 3.2412
-6.7941 -0.9352 3.2383
-6.7295 -0.9938 3.2355
-6.6652 -1.0514 3.2327
-6.6013 -1.1081 3.2299
-6.5378 -1.1639 3.2273
-6.4746 -1.2187 3.2247
-6.4117 -1.2727 3.2221
-6.3491 -1.3258 3.2196
-6.2867 -1.3781 3.2171
-6.2247 -1.4295 3.2146
-6.1628 -1.4801 3.2122
-6.1014 -1.5299 3.2098
-6.0401 -1.5788 3.2074
-5.9792 -1.6270 3.2051
-5.9185 -1.6744 3.2028
-5.8581 -1.7211 3.2005
-5.7980 -1.7670 3.1983
-5.7382 -1.8121 3.1961
-5.6785 -1.8565 3.1940
-5.6192 -1.9003 3.1918
-5.5601 -1.9433 3.1898
-5.5010 -1.9855 3.1875
-5.4382 -2.0256 3.1830
-5.3771 -2.0654 3.1794
-5.3163 -2.1046 3.1758
-5.2559 -2.1430 3.1722
-5.1958 -2.1809 3.1687
-5.1361 -2.2180 3.1653
-5.0767 -2.2546 3.1619
-5.0175 -2.2905 3.1586
-4.9587 -2.3257 3.1553
-4.9003 -2.3604 3.1521
-4.8421 -2.3945 3.1489
-4.7842 -2.4280 3.1458
-4.7266 -2.4609 3.1427
-4.6693 -2.4932 3.1397
-4.6123 -2.5250 3.1367
-4.5556 -2.5562 3.1337
-4.4991 -2.5869 3.1309
-4.4430 -2.6170 3.1280
-4.3871 -2.6466 3.1252
-4.3314 -2.6757 3.1225
-4.2760 -2.7043 3.1198
-4.2209 -2.7323 3.1171
-4.1660 -2.7599 3.1145
-4.1113 -2.7870 3.1119
-4.0569 -2.8136 3.1093
-4.0028 -2.8397 3.1068
-3.9488 -2.8654 3.1044
-3.6826 -2.9868 3.0926
-3.8951 -2.8905 3.1019
-3.6300 -3.0098 3.0904
-3.8417 -2.9153 3.0996
-3.5776 -3.0323 3.0882
-3.7884 -2.9396 3.0972
-3.5254 -3.0544 3.0860
-3.7354 -2.9634 3.0949
-3.4734 -3.0761 3.0839
-3.4216 -3.0974 3.0818
-3.1654 -3.1979 3.0718
-3.3700 -3.1183 3.0797
-3.1147 -3.2169 3.0699
-3.3185 -3.1388 3.0777
-3.0642 -3.2354 3.0681
-3.2673 -3.1589 3.0757
-3.0138 -3.2536 3.0662
-3.2163 -3.1786 3.0738
-2.9637 -3.2715 3.0644
-2.9136 -3.2889 3.0627
-2.6659 -3.3709 3.0543
-2.8638 -3.3060 3.0609
-2.6168 -3.3863 3.0527
-2.8141 -3.3228 3.0592
-2.5679 -3.4013 3.0511
-2.7645 -3.3392 3.0575
-2.7152 -3.3552 3.0559
-2.4218 -3.4445 3.0466
-2.3734 -3.4582 3.0451
-2.3251 -3.4716 3.0437
-2.5190 -3.4160 3.0496
-2.2770 -3.4847 3.0423
-2.4704 -3.4304 3.0481
-2.2289 -3.4974 3.0409
-2.1810 -3.5099 3.0396
-1.9431 -3.5676 3.0332
-2.1332 -3.5220 3.0382
-1.8959 -3.5783 3.0320
-2.0855 -3.5339 3.0369
-1.8487 -3.5886 3.0308
-2.0379 -3.5454 3.0357
-1.8017 -3.5987 3.0297
-1.9905 -3.5567 3.0344
-1.7547 -3.6085 3.0285
-1.7079 -3.6179 3.0274
-1.4749 -3.6612 3.0223
-1.6611 -3.6271 3.0264
-1.4286 -3.6690 3.0213
-1.6144 -3.6361 3.0253
-1.3823 -3.6765 3.0204
-1.5678 -3.6447 3.0243
-1.3361 -3.6838 3.0195
-1.5213 -3.6531 3.0233
-1.2900 -3.6908 3.0186
-1.2440 -3.6975 3.0177
-1.0148 -3.7271 3.0137
-1.1980 -3.7040 3.0168
-0.9691 -3.7323 3.0129
-1.1521 -3.7101 3.0160
-0.9235 -3.7372 3.0122
-1.1063 -3.7161 3.0152
-0.8779 -3.7418 3.0115
-1.0605 -3.7217 3.0144
-0.8324 -3.7462 3.0108
-0.7870 -3.7503 3.0102
-0.5603 -3.7671 3.0072
-0.7416 -3.7542 3.0095
-0.5151 -3.7697 3.0067
-0.6962 -3.7578 3.0089
-0.4367 -3.5053 2.7936
-0.6508 -3.7611 3.0083
-0.3944 -3.5043 2.7908
-0.6056 -3.7642 3.0078
-0.3523 -3.5034 2.7883
-0.3102 -3.5026 2.7860
-0.2683 -3.5017 2.7839
-0.2264 -3.5009 2.7821
-0.1846 -3.5000 2.7804
-0.1429 -3.4993 2.7790
-0.1012 -3.4985 2.7778
-0.0596 -3.4977 2.7768
-0.0180 -3.4970 2.7761
0.0236 -3.4963 2.7755
-8.5007 2.8778 3.3135
-8.4562 2.7753 3.3132
-8.4114 2.6741 3.3130
-8.3662 2.5743 3.3127
-8.3207 2.4756 3.3125
-8.2750 2.3783 3.3122
-8.2290 2.2821 3.3120
-8.1827 2.1872 3.3118
-8.1361 2.0934 3.3115
-8.0894 2.0009 3.3113
-8.0424 1.9095 3.3111
-7.9952 1.8193 3.3108
-7.9477 1.7303 3.3106
-7.9001 1.6424 3.3104
-7.8523 1.5556 3.3102
-7.8043 1.4699 3.3100
-7.7562 1.3853 3.3098
-7.7079 1.3018 3.3095
-7.6594 1.2194 3.3093
-7.6108 1.1381 3.3091
-7.5620 1.0578 3.3089
-7.5132 0.9785 3.3087
-7.4642 0.9003 3.3085
-7.4151 0.8231 3.3083
-7.3659 0.7468 3.3081
-7.3117 0.6712 3.3058
-7.2575 0.5966 3.3034
-7.2034 0.5231 3.3010
-7.1486 0.4505 3.2984
-7.0923 0.3790 3.2951
-7.0373 0.3086 3.2923
-6.9823 0.2392 3.2896
-6.9274 0.1708 3.2869
-6.8726 0.1034 3.2843
-6.8170 0.0370 3.2812
-6.7615 -0.0285 3.2781
-6.7061 -0.0929 3.2752
-6.6508 -0.1564 3.2722
-6.5957 -0.2190 3.2693
-6.5407 -0.2806 3.2664
-6.4858 -0.3413 3.2636
-6.4308 -0.4011 3.2606
-6.3759 -0.4600 3.2577
-6.3212 -0.5180 3.2549
-6.2666 -0.5751 3.2521
-6.2122 -0.6314 3.2493
-6.1583 -0.6869 3.2468
-6.1044 -0.7416 3.2442
-6.0505 -0.7954 3.2416
-5.9968 -0.8484 3.2390
-5.9432 -0.9006 3.2365
-5.8898 -0.9521 3.2340
-5.8365 -1.0028 3.2316
-5.7835 -1.0528 3.2292
-5.7306 -1.1020 3.2269
-5.6779 -1.1505 3.2246
-5.6253 -1.1982 3.2224
-5.5728 -1.2453 3.2201
-5.5204 -1.2916 3.2179
-5.4683 -1.3373 3.2157
-5.4162 -1.3822 3.2136
-5.3642 -1.4265 3.2115
-5.3125 -1.4702 3.2094
-5.2608 -1.5131 3.2073
-5.2093 -1.5555 3.2053
-5.1579 -1.5971 3.2033
-5.1066 -1.6382 3.2013
-5.0555 -1.6787 3.1993
-5.0046 -1.7185 3.1974
-4.9537 -1.7577 3.1955
-4.9030 -1.7964 3.1936
-4.8525 -1.8344 3.1918
-4.8020 -1.8719 3.1900
-4.7509 -1.9084 3.1876
-4.6986 -1.9439 3.1844
-4.6464 -1.9787 3.1812
-4.5945 -2.0130 3.1781
-4.5428 -2.0467 3.1750
-4.4913 -2.0799 3.1719
-4.4399 -2.1125 3.1689
-4.3888 -2.1446 3.1659
-4.3379 -2.1762 3.1630
-4.2871 -2.2072 3.1601
-4.2366 -2.2378 3.1573
-4.1862 -2.2678 3.1545
-4.1360 -2.2973 3.1518
-4.0860 -2.3264 3.1490
-4.0362 -2.3549 3.1464
-3.9865 -2.3830 3.1437
-3.9370 -2.4106 3.1412
-3.8877 -2.4377 3.1386
-3.8386 -2.4644 3.1361
-3.7896 -2.4906 3.1336
-3.7408 -2.5163 3.1312
-3.6921 -2.5417 3.1288
-3.6436 -2.5666 3.1264
-3.5953 -2.5910 3.1241
-3.5471 -2.6150 3.1218
-3.4991 -2.6386 3.1196
-3.4512 -2.6618 3.1173
-3.4035 -2.6846 3.1152
-3.3559 -2.7070 3.1130
-3.3085 -2.7290 3.1109
-3.2612 -2.7505 3.1088
-3.2140 -2.7717 3.1067
-3.1670 -2.7925 3.1047
-3.1201 -2.8129 3.1027
-3.0733 -2.8330 3.1008
-3.0267 -2.8526 3.0989
-2.9802 -2.8719 3.0970
-2.9339 -2.8908 3.0951
-2.8876 -2.9094 3.0933
-2.7039 -2.9801 3.0862
-2.8415 -2.9276 3.0915
-2.6582 -2.9969 3.0845
-2.7955 -2.9455 3.0897
-2.6127 -3.0134 3.0829
-2.7496 -2.9630 3.0879
-2.5672 -3.0295 3.0813
-2.4768 -3.0608 3.0781
-2.5219 -3.0453 3.0796
-2.4316 -3.0759 3.0765
-2.2522 -3.1333 3.0706
-2.2076 -3.1468 3.0692
-2.3866 -3.0907 3.0750
-2.1631 -3.1600 3.0678
-2.3417 -3.1052 3.0735
-2.1187 -3.1730 3.0664
-2.2969 -3.1194 3.0720
-2.0744 -3.1856 3.0651
-2.0301 -3.1979 3.0638
-1.8102 -3.2551 3.0576
-1.9860 -3.2099 3.0625
-1.9419 -3.2217 3.0612
-1.7664 -3.2656 3.0564
-1.8979 -3.2331 3.0600
-1.7227 -3.2759 3.0553
-1.8540 -3.2442 3.0588
-1.6791 -3.2859 3.0542
-1.5922 -3.3050 3.0520
-1.6356 -3.2956 3.0531
-1.5488 -3.3142 3.0509
-1.3758 -3.3480 3.0470
-1.5054 -3.3230 3.0499
-1.3328 -3.3558 3.0460
-1.4622 -3.3316 3.0489
-1.4190 -3.3400 3.0479
-1.2898 -3.3633 3.0451
-1.1610 -3.3842 3.0425
-1.2468 -3.3705 3.0442
-1.1182 -3.3907 3.0417
-1.2039 -3.3775 3.0434
-1.0755 -3.3969 3.0409
-0.9475 -3.4139 3.0386
-1.0328 -3.4028 3.0401
-0.9049 -3.4190 3.0379
-0.9901 -3.4085 3.0393
-0.8624 -3.4239 3.0372
-0.7351 -3.4371 3.0352
-0.8199 -3.4285 3.0365
-0.6927 -3.4409 3.0346
-0.7775 -3.4329 3.0358
-0.6504 -3.4446 3.0340
-0.5235 -3.4540 3.0323
-0.6080 -3.4479 3.0334
-0.4813 -3.4566 3.0318
-0.5658 -3.4511 3.0329
-0.4391 -3.4590 3.0313
-0.3126 -3.4646 3.0300
-0.3969 -3.4611 3.0308
-0.2705 -3.4660 3.0296
-0.2284 -3.4671 3.0292
-0.3548 -3.4630 3.0304
-0.1864 -3.4680 3.0288
-0.1442 -3.4678 3.0276
-0.1022 -3.4661 3.0255
-0.0601 -3.4642 3.0234
-0.0181 -3.4621 3.0213
0.0238 -3.4597 3.0193
-7.4222 2.6365 3.3127
-7.3902 2.5485 3.3124
-7.3577 2.4615 3.3122
-7.3249 2.3754 3.3120
-7.2916 2.2902 3.3118
-7.2580 2.2059 3.3116
-7.2239 2.1226 3.3114
-7.1895 2.0402 3.3112
-7.1548 1.9587 3.3110
-7.1197 1.8780 3.3108
-7.0842 1.7983 3.3106
-7.0485 1.7195 3.3104
-7.0124 1.6415 3.3102
-6.9760 1.5644 3.3100
-6.9393 1.4882 3.3098
-6.9023 1.4128 3.3096
-6.8651 1.3383 3.3094
-6.8275 1.2646 3.3093
-6.7898 1.1918 3.3091
-6.7517 1.1198 3.3089
-6.7135 1.0486 3.3087
-6.6749 0.9782 3.3085
-6.6362 0.9087 3.3084
-6.5972 0.8399 3.3082
-6.5560 0.7717 3.3069
-6.5127 0.7042 3.3048
-6.4694 0.6375 3.3027
-6.4260 0.5716 3.3006
-6.3813 0.5065 3.2979
-6.3358 0.4423 3.2949
-6.2912 0.3789 3.2924
-6.2466 0.3164 3.2900
-6.2020 0.2547 3.2876
-6.1573 0.1938 3.2852
-6.1120 0.1337 3.2826
-6.0665 0.0744 3.2798
-6.0209 0.0159 3.2771
-5.9754 -0.0418 3.2745
-5.9299 -0.0987 3.2719
-5.8843 -0.1548 3.2693
-5.8388 -0.2102 3.2667
-5.7933 -0.2649 3.2642
-5.7476 -0.3187 3.2616
-5.7018 -0.3719 3.2590
-5.6561 -0.4243 3.2564
-5.6104 -0.4760 3.2539
-5.5647 -0.5270 3.2514
-5.5193 -0.5773 3.2490
-5.4739 -0.6269 3.2467
-5.4286 -0.6758 3.2445
-5.3832 -0.7241 3.2421
-5.3377 -0.7717 3.2398
-5.2924 -0.8186 3.2376
-5.2471 -0.8649 3.2354
-5.2017 -0.9105 3.2332
-5.1565 -0.9556 3.2310
-5.1115 -1.0000 3.2289
-5.0664 -1.0438 3.2269
-5.0214 -1.0869 3.2249
-4.9764 -1.1295 3.2229
-4.9314 -1.1715 3.2209
-4.8865 -1.2129 3.2189
-4.8417 -1.2537 3.2170
-4.7969 -1.2939 3.2151
-4.7521 -1.3336 3.2132
-4.7074 -1.3727 3.2113
-4.6627 -1.4113 3.2095
-4.6181 -1.4493 3.2076
-4.5736 -1.4867 3.2058
-4.5291 -1.5236 3.2041
-4.4846 -1.5601 3.2023
-4.4402 -1.5959 3.2006
-4.3959 -1.6313 3.1989
-4.3516 -1.6661 3.1972
-4.3074 -1.7005 3.1955
-4.2632 -1.7343 3.1939
-4.2191 -1.7677 3.1923
-4.1750 -1.8005 3.1907
-4.1311 -1.8329 3.1891
-4.0858 -1.8642 3.1865
-4.0403 -1.8949 3.1837
-3.9950 -1.9251 3.1809
-3.9497 -1.9548 3.1782
-3.9046 -1.9840 3.1755
-3.8596 -2.0128 3.1729
-3.8146 -2.0411 3.1702
-3.7699 -2.0690 3.1677
-3.7252 -2.0964 3.1651
-3.6806 -2.1234 3.1626
-3.6362 -2.1499 3.1602
-3.5918 -2.1760 3.1577
-3.5475 -2.2017 3.1553
-3.5034 -2.2270 3.1530
-3.4594 -2.2518 3.1506
-3.4155 -2.2762 3.1483
-3.3716 -2.3003 3.1461
-3.3279 -2.3239 3.1439
-3.2843 -2.3471 3.1417
-3.2408 -2.3700 3.1395
-3.1973 -2.3924 3.1374
-3.1540 -2.4145 3.1353
-3.1108 -2.4362 3.1332
-3.0676 -2.4575 3.1312
-3.0246 -2.4784 3.1292
-2.9816 -2.4990 3.1272
-2.9388 -2.5192 3.1253
-2.8960 -2.5390 3.1234
-2.8533 -2.5585 3.1215
-2.8107 -2.5776 3.1196
-2.7682 -2.5964 3.1178
-2.7258 -2.6148 3.1160
-2.6834 -2.6329 3.1142
-2.6412 -2.6507 3.1125
-2.5990 -2.6681 3.1108
-2.5569 -2.6851 3.1091
-2.5149 -2.7019 3.1074
-2.4729 -2.7183 3.1058
-2.4311 -2.7344 3.1042
-2.3893 -2.7502 3.1026
-2.3476 -2.7656 3.1011
-2.3060 -2.7807 3.0996
-2.2644 -2.7956 3.0981
-2.2229 -2.8101 3.0966
-2.1815 -2.8243 3.0952
-2.1401 -2.8382 3.0937
-1.8934 -2.9152 3.0857
-2.0989 -2.8518 3.0923
-1.8525 -2.9270 3.0845
-2.0576 -2.8650 3.0910
-1.8117 -2.9386 3.0833
-1.7709 -2.9498 3.0821
-2.0165 -2.8780 3.0896
-1.6895 -2.9715 3.0797
-1.7302 -2.9608 3.0809
-1.9754 -2.8907 3.0883
-1.4870 -3.0207 3.0743
-1.6489 -2.9819 3.0786
-1.4466 -3.0297 3.0733
-1.9344 -2.9031 3.0870
-1.6084 -2.9920 3.0775
-1.4063 -3.0385 3.0723
-1.2857 -3.0631 3.0694
-1.3661 -3.0469 3.0713
-1.5678 -3.0018 3.0764
-1.3259 -3.0552 3.0704
-1.2456 -3.0708 3.0685
-1.5274 -3.0114 3.0753
-1.0855 -3.0989 3.0651
-1.2055 -3.0782 3.0676
-1.0455 -3.1053 3.0643
-0.8862 -3.1283 3.0613
-1.0057 -3.1114 3.0635
-1.1654 -3.0854 3.0668
-0.8465 -3.1334 3.0606
-0.9658 -3.1173 3.0628
-1.1254 -3.0923 3.0659
-0.9260 -3.1229 3.0620
-0.8067 -3.1383 3.0599
-0.4899 -3.1682 3.0553
-0.6877 -3.1514 3.0580
-0.7670 -3.1429 3.0593
-0.4504 -3.1708 3.0548
-0.6481 -3.1552 3.0574
-0.4109 -3.1732 3.0543
-0.7274 -3.1472 3.0586
-0.3715 -3.1754 3.0538
-0.6085 -3.1588 3.0569
-0.3320 -3.1772 3.0534
-0.5690 -3.1622 3.0563
-0.2926 -3.1789 3.0530
-0.2532 -3.1803 3.0526
-0.5294 -3.1653 3.0558
-0.2138 -3.1815 3.0522
-0.1744 -3.1824 3.0519
-0.1351 -3.1831 3.0515
-0.0957 -3.1835 3.0512
-0.0563 -3.1837 3.0509
-0.0170 -3.1837 3.0506
0.0223 -3.1834 3.0504
-6.5501 2.4414 3.3120
-6.5268 2.3648 3.3118
-6.5030 2.2889 3.3116
-6.4787 2.2137 3.3114
-6.4540 2.1392 3.3112
-6.2970 1.7069 3.3102
-6.4289 2.0654 3.3111
-6.2695 1.6373 3.3100
-6.4033 1.9923 3.3109
-6.2416 1.5684 3.3098
-6.1557 1.3656 3.3093
-6.3773 1.9200 3.3107
-6.2133 1.5001 3.3097
-6.1265 1.2993 3.3092
-6.1847 1.4325 3.3095
-6.3510 1.8483 3.3105
-6.0969 1.2337 3.3090
-6.0062 1.0410 3.3085
-6.3242 1.7773 3.3104
-5.8428 0.7318 3.3040
-6.0669 1.1688 3.3088
-5.9754 0.9780 3.3084
-5.6614 0.4383 3.2925
-5.8076 0.6718 3.3021
-6.0367 1.1046 3.3087
-5.9443 0.9157 3.3082
-5.6247 0.3817 3.2903
-5.7722 0.6125 3.3002
-5.4758 0.1618 3.2813
-5.9126 0.8540 3.3079
-5.5879 0.3257 3.2882
-5.7353 0.5537 3.2975
-5.4380 0.1085 3.2788
-5.8778 0.7926 3.3059
-5.5509 0.2704 3.2860
-5.6980 0.4956 3.2948
-5.2855 -0.0981 3.2694
-5.4000 0.0559 3.2764
-5.5137 0.2158 3.2838
-5.0928 -0.3423 3.2578
-4.8986 -0.5714 3.2469
-5.2472 -0.1482 3.2670
-5.3619 0.0039 3.2740
-4.7036 -0.7862 3.2367
-5.0540 -0.3893 3.2555
-4.8598 -0.6155 3.2449
-5.2088 -0.1977 3.2648
