ply
format ascii 1.0
element vertex 2112
property float32 x
property float32 y
property float32 z
end_header
7.1319 -16.3269 1.5804
8.8852 -16.6413 1.4856
7.2941 -16.2601 1.5602
7.9454 -16.3995 1.5294
7.5016 -16.2919 1.5491
8.1735 -16.4565 1.5190
8.8692 -16.2264 1.4311
7.7215 -16.3446 1.5394
8.4060 -16.5157 1.5082
8.8412 -15.8052 1.3766
8.6432 -16.5773 1.4971
8.7886 -15.0134 1.2730
8.8144 -15.4012 1.3239
8.7639 -14.6406 1.2239
8.6112 -12.3797 0.9185
8.6950 -13.6038 1.0854
8.7401 -14.2819 1.1763
8.5925 -12.0995 0.8796
8.6712 -13.2789 1.0417
8.7171 -13.9366 1.1301
8.5743 -11.8281 0.8417
8.6505 -12.9689 0.9995
8.5397 -11.3103 0.7685
8.5568 -11.5652 0.8047
8.6305 -12.6693 0.9584
8.5232 -11.0629 0.7332
8.4765 -10.3627 0.6319
8.4204 -9.5155 0.5062
8.5072 -10.8228 0.6987
8.4628 -10.1434 0.5996
8.4916 -10.5895 0.6650
8.4070 -9.3168 0.4762
8.4483 -9.9285 0.5679
8.3686 -8.7495 0.3892
8.3939 -9.1230 0.4467
8.4342 -9.7193 0.5367
8.3565 -8.5693 0.3612
8.3811 -8.9340 0.4177
8.3216 -8.0527 0.2796
8.3446 -8.3932 0.3336
8.2785 -7.4144 0.1760
8.3105 -7.8881 0.2532
8.3330 -8.2211 0.3064
8.2768 -7.2704 0.1511
8.2996 -7.7269 0.2271
8.2475 -6.8330 0.0776
8.2669 -7.1218 0.1263
8.2889 -7.5690 0.2014
8.2381 -6.6927 0.0536
8.2571 -6.9761 0.1018
8.2109 -6.2864 -0.0169
8.2289 -6.5548 0.0299
8.1768 -5.7763 -0.1078
8.2022 -6.1557 -0.0399
8.2198 -6.4195 0.0064
8.1686 -5.6539 -0.1301
8.1936 -6.0272 -0.0627
8.1448 -5.2978 -0.1959
8.1605 -5.5334 -0.1522
8.1851 -5.9007 -0.0854
8.1370 -5.1826 -0.2175
8.1526 -5.4147 -0.1741
8.1146 -4.8466 -0.2816
8.1295 -5.0690 -0.2390
8.0860 -4.4192 -0.3654
8.1073 -4.7376 -0.3027
8.1220 -4.9570 -0.2603
8.0643 -4.0153 -0.4479
8.1001 -4.6301 -0.3237
8.0851 -4.3189 -0.3863
8.0575 -3.9164 -0.4683
8.0930 -4.5240 -0.3446
8.0781 -4.2165 -0.4070
8.0509 -3.8186 -0.4887
8.0377 -3.6262 -0.5291
8.0711 -4.1153 -0.4275
8.0442 -3.7219 -0.5089
8.0312 -3.5314 -0.5492
8.0122 -3.2529 -0.6094
7.9876 -2.8934 -0.6892
8.0248 -3.4377 -0.5693
8.0060 -3.1618 -0.6294
7.9816 -2.8055 -0.7091
8.0185 -3.3448 -0.5894
7.9998 -3.0716 -0.6494
7.9757 -2.7183 -0.7290
7.9639 -2.5460 -0.7687
7.9937 -2.9821 -0.6693
7.9697 -2.6318 -0.7489
7.9581 -2.4608 -0.7886
7.9409 -2.2088 -0.8482
7.9184 -1.8806 -0.9280
7.9523 -2.3762 -0.8085
7.9352 -2.1260 -0.8682
7.9129 -1.7998 -0.9480
7.9465 -2.2922 -0.8284
7.9074 -1.7194 -0.9681
7.9296 -2.0437 -0.8881
7.8965 -1.5599 -1.0083
7.9020 -1.6394 -0.9882
7.9240 -1.9619 -0.9080
7.8911 -1.4807 -1.0285
7.8857 -1.4020 -1.0487
7.8737 -1.2453 -1.0891
7.8306 -0.9334 -1.1679
7.8629 -1.1667 -1.1088
7.8200 -0.8564 -1.1877
7.8846 -1.3243 -1.0696
7.8521 -1.0886 -1.1284
7.8056 -0.7794 -1.2069
7.7764 -0.6264 -1.2455
7.8413 -1.0108 -1.1481
7.7910 -0.7027 -1.2262
7.7619 -0.5505 -1.2649
7.7189 -0.3249 -1.3232
7.6893 -0.0283 -1.4070
7.7475 -0.4750 -1.2843
7.7063 -0.2503 -1.3431
7.6837 0.0456 -1.4285
7.7332 -0.3998 -1.3037
7.7007 -0.1762 -1.3643
7.6780 0.1194 -1.4501
7.6667 0.2668 -1.4938
7.6950 -0.1022 -1.3856
7.6724 0.1931 -1.4719
7.6611 0.3405 -1.5158
7.6979 0.5656 -1.5939
7.7158 0.6419 -1.6217
7.6625 0.4146 -1.5394
7.7339 0.7187 -1.6498
7.6801 0.4899 -1.5665
7.7520 0.7960 -1.6782
6.1469 -13.8673 2.0557
6.3249 -13.8935 2.0508
6.5053 -13.9209 2.0457
6.6882 -13.9487 2.0404
6.8738 -13.9776 2.0349
6.9492 -13.7833 1.9967
6.9741 -13.4974 1.9453
7.1615 -13.5290 1.9396
7.3527 -13.5630 1.9338
7.5473 -13.5984 1.9279
7.7454 -13.6350 1.9218
7.9472 -13.6729 1.9155
8.1528 -13.7123 1.9089
8.3624 -13.7530 1.9022
8.5761 -13.7953 1.8952
8.7016 -13.6934 1.8681
8.6798 -13.3655 1.8102
8.6565 -13.0457 1.7538
8.6361 -12.7401 1.6994
8.6164 -12.4449 1.6468
8.5973 -12.1594 1.5956
8.5788 -11.8832 1.5460
8.5609 -11.6156 1.4977
8.5436 -11.3563 1.4507
8.5268 -11.1049 1.4049
8.5105 -10.8610 1.3604
8.4946 -10.6241 1.3169
8.4793 -10.3939 1.2745
8.4653 -10.1713 1.2333
8.4506 -9.9534 1.1928
8.4363 -9.7414 1.1533
8.4223 -9.5348 1.1146
8.4087 -9.3336 1.0768
8.3955 -9.1375 1.0397
8.3825 -8.9462 1.0034
8.3699 -8.7595 0.9679
8.3576 -8.5773 0.9330
8.3456 -8.3993 0.8987
8.3338 -8.2253 0.8651
8.3223 -8.0553 0.8321
8.3111 -7.8890 0.7997
8.3001 -7.7262 0.7678
8.2893 -7.5669 0.7365
8.2788 -7.4109 0.7056
8.2756 -7.2644 0.6758
8.2656 -7.1145 0.6459
8.2558 -6.9676 0.6164
8.2461 -6.8234 0.5874
8.2367 -6.6820 0.5587
8.2274 -6.5432 0.5304
8.2183 -6.4068 0.5025
8.2093 -6.2729 0.4750
8.2005 -6.1413 0.4478
8.1918 -6.0119 0.4210
8.1833 -5.8847 0.3944
8.1667 -5.6365 0.3422
8.1750 -5.7596 0.3682
8.1586 -5.5153 0.3165
8.1350 -5.1626 0.2411
8.1274 -5.0484 0.2164
8.1506 -5.3959 0.2911
8.1199 -4.9359 0.1920
8.1125 -4.8250 0.1677
8.1428 -5.2784 0.2660
8.1051 -4.7155 0.1437
8.0827 -4.2950 0.0495
8.0979 -4.6076 0.1199
8.0908 -4.5010 0.0962
8.0756 -4.1922 0.0264
8.0837 -4.3958 0.0728
8.0687 -4.0906 0.0034
8.0551 -3.8910 -0.0421
8.0484 -3.7929 -0.0646
8.0618 -3.9903 -0.0194
8.0417 -3.6959 -0.0871
8.0287 -3.5049 -0.1315
8.0352 -3.5999 -0.1094
8.0034 -3.1343 -0.2192
8.0223 -3.4109 -0.1536
7.9972 -3.0439 -0.2408
8.0159 -3.3178 -0.1755
7.9911 -2.9542 -0.2624
8.0096 -3.2256 -0.1974
7.9850 -2.8653 -0.2840
7.9790 -2.7772 -0.3054
7.9554 -2.4319 -0.3906
7.9496 -2.3472 -0.4117
7.9730 -2.6899 -0.3268
7.9438 -2.2631 -0.4328
7.9671 -2.6032 -0.3481
7.9381 -2.1795 -0.4539
7.9325 -2.0966 -0.4750
7.9612 -2.5172 -0.3693
7.9269 -2.0142 -0.4960
7.9102 -1.7700 -0.5589
7.9213 -1.9323 -0.5170
7.9157 -1.8509 -0.5380
7.9047 -1.6895 -0.5799
7.8884 -1.4507 -0.6427
7.8992 -1.6095 -0.6008
7.8830 -1.3718 -0.6636
7.8938 -1.5299 -0.6217
7.8804 -1.2938 -0.6848
7.8587 -1.1363 -0.7258
7.8695 -1.2148 -0.7053
7.8479 -1.0581 -0.7462
7.8145 -0.8259 -0.8075
7.7998 -0.7489 -0.8276
7.8371 -0.9804 -0.7667
7.7852 -0.6722 -0.8476
7.8264 -0.9030 -0.7872
7.7706 -0.5960 -0.8677
7.7040 -0.2204 -0.9687
7.7561 -0.5202 -0.8877
7.6984 -0.1463 -0.9900
7.7417 -0.4447 -0.9078
7.6927 -0.0723 -1.0113
7.7274 -0.3696 -0.9279
7.6870 0.0016 -1.0327
7.6814 0.0755 -1.0542
7.7131 -0.2947 -0.9480
7.6757 0.1492 -1.0757
7.6588 0.3702 -1.1410
7.6701 0.2229 -1.0974
7.6696 0.4448 -1.1654
7.6644 0.2966 -1.1191
7.7230 0.6725 -1.2434
7.6873 0.5202 -1.1911
7.7411 0.7494 -1.2699
7.7051 0.5961 -1.2171
7.7592 0.8268 -1.2968
7.7776 0.9049 -1.3239
5.2425 -11.6543 2.3377
5.3910 -11.6686 2.3358
5.5413 -11.6834 2.3337
5.6936 -11.6988 2.3316
5.8195 -11.6580 2.3182
6.0041 -11.7311 2.3272
6.1616 -11.7461 2.3245
6.3211 -11.7615 2.3217
6.4824 -11.7764 2.3186
6.6457 -11.7915 2.3154
6.8034 -11.7933 2.3093
6.8022 -11.5228 2.2499
6.8620 -11.3626 2.2121
7.0294 -11.3807 2.2089
7.2001 -11.4004 2.2058
7.3737 -11.4207 2.2026
7.5503 -11.4418 2.1993
7.7301 -11.4636 2.1959
7.9131 -11.4861 2.1924
8.0993 -11.5090 2.1887
8.2885 -11.5320 2.1848
8.4815 -11.5558 2.1807
8.5477 -11.4063 2.1439
8.5306 -11.1506 2.0871
8.5140 -10.9026 2.0319
8.4979 -10.6620 1.9782
8.4823 -10.4283 1.9260
8.4681 -10.2023 1.8753
8.4531 -9.9813 1.8257
8.4386 -9.7663 1.7773
8.4244 -9.5570 1.7301
8.4106 -9.3531 1.6840
8.3972 -9.1545 1.6390
8.3841 -8.9608 1.5951
8.3713 -8.7719 1.5521
8.3589 -8.5876 1.5100
8.3467 -8.4076 1.4688
8.3348 -8.2317 1.4285
8.3232 -8.0599 1.3890
8.3118 -7.8919 1.3503
8.3007 -7.7275 1.3123
8.2898 -7.5667 1.2751
8.2792 -7.4092 1.2385
8.2746 -7.2601 1.2035
8.2645 -7.1090 1.1682
8.2546 -6.9608 1.1335
8.2449 -6.8156 1.0994
8.2353 -6.6730 1.0659
8.2260 -6.5332 1.0329
8.2168 -6.3958 1.0004
8.2078 -6.2610 0.9684
8.1989 -6.1285 0.9369
8.1902 -5.9983 0.9058
8.1817 -5.8702 0.8752
8.1732 -5.7443 0.8450
8.1650 -5.6205 0.8152
8.1568 -5.4986 0.7858
8.1488 -5.3786 0.7568
8.1409 -5.2604 0.7281
8.1331 -5.1440 0.6998
8.1254 -5.0293 0.6718
8.1179 -4.9162 0.6441
8.1104 -4.8047 0.6168
8.1031 -4.6948 0.5897
8.0958 -4.5863 0.5629
8.0887 -4.4793 0.5364
8.0816 -4.3737 0.5102
8.0803 -4.2724 0.4845
8.0733 -4.1692 0.4588
8.0663 -4.0673 0.4333
8.0595 -3.9665 0.4080
8.0459 -3.7686 0.3580
8.0527 -3.8670 0.3829
8.0393 -3.6712 0.3333
8.0198 -3.3854 0.2604
8.0327 -3.5749 0.3088
8.0134 -3.2921 0.2365
8.0262 -3.4797 0.2846
8.0071 -3.1996 0.2127
7.9946 -3.0174 0.1656
8.0008 -3.1081 0.1891
7.9885 -2.9276 0.1423
7.9704 -2.6627 0.0730
7.9824 -2.8385 0.1190
7.9645 -2.5758 0.0502
7.9586 -2.4897 0.0275
7.9764 -2.7502 0.0960
7.9528 -2.4042 0.0048
7.9470 -2.3194 -0.0177
7.9242 -1.9859 -0.1069
7.9412 -2.2351 -0.0401
7.9186 -1.9039 -0.1290
7.9355 -2.1515 -0.0625
7.9131 -1.8224 -0.1510
7.9299 -2.0684 -0.0847
7.9075 -1.7414 -0.1730
7.9021 -1.6609 -0.1949
7.8966 -1.5808 -0.2168
7.8804 -1.3430 -0.2822
7.8911 -1.5011 -0.2386
7.8764 -1.2647 -0.3039
7.8857 -1.4219 -0.2604
7.8655 -1.1857 -0.3254
7.8438 -1.0290 -0.3681
7.8546 -1.1071 -0.3468
7.8331 -0.9512 -0.3894
7.7942 -0.7196 -0.4527
7.8224 -0.8739 -0.4107
7.7796 -0.6431 -0.4736
7.8089 -0.7966 -0.4317
7.7651 -0.5669 -0.4945
7.7362 -0.4157 -0.5361
7.7506 -0.4911 -0.5153
7.7219 -0.3407 -0.5568
7.6962 -0.1176 -0.6203
7.7076 -0.2659 -0.5776
7.6905 -0.0436 -0.6418
7.7018 -0.1917 -0.5989
7.6849 0.0302 -0.6632
7.6735 0.1777 -0.7063
7.6792 0.1040 -0.6848
7.6679 0.2514 -0.7279
7.6764 0.4738 -0.7957
7.6941 0.5493 -0.8201
7.6623 0.3250 -0.7496
7.7119 0.6252 -0.8448
7.6587 0.3987 -0.7715
7.7299 0.7017 -0.8696
7.7479 0.7787 -0.8947
7.7662 0.8563 -0.9201
7.7845 0.9344 -0.9457
7.8030 1.0131 -0.9716
4.5385 -9.9412 2.5260
4.6644 -9.9469 2.5256
4.7915 -9.9529 2.5253
4.9201 -9.9590 2.5249
5.0501 -9.9653 2.5245
5.1816 -9.9717 2.5241
5.3146 -9.9784 2.5236
5.4493 -9.9853 2.5232
5.5856 -9.9923 2.5227
5.6970 -9.9531 2.5105
5.8634 -10.0071 2.5217
6.0052 -10.0148 2.5212
6.1488 -10.0227 2.5206
6.2936 -10.0295 2.5197
6.4389 -10.0342 2.5182
6.5862 -10.0390 2.5166
6.6839 -9.9669 2.4957
6.6841 -9.7528 2.4393
6.7442 -9.6307 2.4058
6.8940 -9.6365 2.4043
7.0467 -9.6432 2.4029
7.2019 -9.6502 2.4015
7.3597 -9.6574 2.4000
7.5201 -9.6649 2.3985
7.6833 -9.6726 2.3970
7.8494 -9.6806 2.3954
8.0184 -9.6888 2.3938
8.1906 -9.6974 2.3922
8.3660 -9.7062 2.3905
8.4267 -9.5810 2.3557
8.4127 -9.3745 2.3010
8.3991 -9.1733 2.2476
8.3858 -8.9772 2.1955
8.3729 -8.7860 2.1447
8.3603 -8.5994 2.0951
8.3479 -8.4174 2.0466
8.3359 -8.2396 1.9993
8.3242 -8.0659 1.9529
8.3127 -7.8961 1.9076
8.3014 -7.7301 1.8633
8.2905 -7.5677 1.8198
8.2797 -7.4087 1.7773
8.2736 -7.2570 1.7365
8.2634 -7.1046 1.6956
8.2534 -6.9552 1.6555
8.2436 -6.8087 1.6161
8.2341 -6.6651 1.5775
8.2246 -6.5242 1.5395
8.2154 -6.3858 1.5022
8.2063 -6.2500 1.4656
8.1974 -6.1166 1.4295
8.1887 -5.9855 1.3941
8.1800 -5.8567 1.3592
8.1716 -5.7300 1.3249
8.1633 -5.6054 1.2910
8.1551 -5.4827 1.2577
8.1470 -5.3621 1.2249
8.1391 -5.2432 1.1926
8.1312 -5.1262 1.1607
8.1235 -5.0109 1.1292
8.1160 -4.8973 1.0982
8.1085 -4.7853 1.0676
8.1011 -4.6749 1.0374
8.0938 -4.5659 1.0075
8.0866 -4.4584 0.9780
8.0796 -4.3523 0.9489
8.0781 -4.2505 0.9207
8.0710 -4.1470 0.8922
8.0640 -4.0447 0.8640
8.0571 -3.9436 0.8361
8.0503 -3.8437 0.8085
8.0436 -3.7449 0.7812
8.0369 -3.6473 0.7542
8.0303 -3.5507 0.7274
8.0238 -3.4552 0.7009
8.0173 -3.3606 0.6746
8.0110 -3.2670 0.6486
8.0046 -3.1744 0.6228
7.9984 -3.0826 0.5972
7.9922 -2.9917 0.5718
7.9860 -2.9017 0.5466
7.9799 -2.8124 0.5216
7.9739 -2.7239 0.4968
7.9679 -2.6362 0.4722
7.9620 -2.5492 0.4478
7.9561 -2.4629 0.4235
7.9503 -2.3773 0.3994
7.9444 -2.2923 0.3754
7.9387 -2.2080 0.3516
7.9330 -2.1242 0.3279
7.9273 -2.0410 0.3043
7.9217 -1.9584 0.2809
7.9161 -1.8763 0.2576
7.9105 -1.7947 0.2344
7.9050 -1.7137 0.2114
7.8995 -1.6330 0.1884
7.8940 -1.5529 0.1655
7.8886 -1.4731 0.1427
7.8831 -1.3938 0.1201
7.8835 -1.3158 0.0975
7.8725 -1.2363 0.0749
7.8616 -1.1573 0.0524
7.8507 -1.0787 0.0300
7.8399 -1.0006 0.0077
7.8292 -0.9229 -0.0145
7.8182 -0.8455 -0.0366
7.8034 -0.7681 -0.0586
7.7888 -0.6912 -0.0805
7.7742 -0.6147 -0.1024
7.7597 -0.5386 -0.1241
7.7452 -0.4629 -0.1458
7.7308 -0.3876 -0.1673
7.7165 -0.3126 -0.1888
7.7054 -0.2380 -0.2104
7.6997 -0.1638 -0.2320
7.6940 -0.0898 -0.2536
7.6884 -0.0158 -0.2753
7.6827 0.0580 -0.2969
7.6771 0.1317 -0.3185
7.6714 0.2054 -0.3401
7.6658 0.2790 -0.3618
7.6602 0.3526 -0.3834
7.6653 0.4267 -0.4057
7.6830 0.5019 -0.4287
7.7007 0.5775 -0.4519
7.7186 0.6536 -0.4753
7.7365 0.7301 -0.4988
7.7546 0.8072 -0.5226
7.7729 0.8849 -0.5465
7.7912 0.9631 -0.5707
7.8097 1.0418 -0.5950
7.8365 1.1224 -0.6202
3.9796 -8.5874 2.6538
4.0895 -8.5909 2.6554
4.1991 -8.5915 2.6562
4.3097 -8.5920 2.6569
4.4213 -8.5925 2.6577
4.5341 -8.5930 2.6584
4.6480 -8.5935 2.6592
4.7632 -8.5939 2.6600
4.8795 -8.5943 2.6608
4.9971 -8.5947 2.6616
5.1160 -8.5950 2.6624
5.2363 -8.5954 2.6632
5.3580 -8.5957 2.6641
5.4812 -8.5959 2.6649
5.6058 -8.5962 2.6658
5.7065 -8.5582 2.6548
5.8599 -8.5966 2.6676
5.9894 -8.5967 2.6685
6.1206 -8.5968 2.6694
6.2509 -8.5933 2.6692
6.3824 -8.5888 2.6688
6.5157 -8.5843 2.6684
6.5855 -8.4956 2.6418
6.5866 -8.3212 2.5885
6.6272 -8.2001 2.5518
6.7619 -8.1954 2.5514
6.8993 -8.1915 2.5513
7.0389 -8.1875 2.5511
7.1805 -8.1835 2.5510
7.3244 -8.1793 2.5509
7.4706 -8.1750 2.5507
7.6193 -8.1706 2.5506
7.7704 -8.1661 2.5504
7.9241 -8.1614 2.5503
8.0805 -8.1567 2.5501
8.2397 -8.1518 2.5500
8.3252 -8.0726 2.5266
8.3136 -7.9010 2.4743
8.3022 -7.7333 2.4232
8.2911 -7.5693 2.3733
8.2803 -7.4088 2.3244
8.2726 -7.2544 2.2774
8.2624 -7.1006 2.2307
8.2523 -6.9500 2.1848
8.2425 -6.8023 2.1399
8.2328 -6.6575 2.0959
8.2233 -6.5155 2.0528
8.2140 -6.3762 2.0104
8.2049 -6.2394 1.9689
8.1959 -6.1050 1.9281
8.1871 -5.9731 1.8880
8.1784 -5.8434 1.8487
8.1699 -5.7159 1.8100
8.1616 -5.5905 1.7720
8.1533 -5.4672 1.7346
8.1452 -5.3458 1.6978
8.1372 -5.2263 1.6616
8.1294 -5.1087 1.6260
8.1217 -4.9928 1.5909
8.1140 -4.8786 1.5563
8.1065 -4.7661 1.5223
8.0991 -4.6551 1.4887
8.0918 -4.5457 1.4556
8.0846 -4.4377 1.4230
8.0775 -4.3312 1.3908
8.0758 -4.2289 1.3600
8.0687 -4.1249 1.3286
8.0617 -4.0222 1.2976
8.0548 -3.9208 1.2670
8.0480 -3.8206 1.2368
8.0412 -3.7215 1.2069
8.0345 -3.6235 1.1774
8.0279 -3.5267 1.1482
8.0214 -3.4309 1.1193
8.0149 -3.3360 1.0908
8.0085 -3.2422 1.0625
8.0022 -3.1493 1.0346
7.9959 -3.0573 1.0069
7.9897 -2.9662 0.9796
7.9835 -2.8760 0.9524
7.9775 -2.7865 0.9256
7.9714 -2.6979 0.8990
7.9654 -2.6100 0.8726
7.9595 -2.5228 0.8464
7.9536 -2.4364 0.8205
7.9477 -2.3506 0.7948
7.9419 -2.2655 0.7693
7.9362 -2.1810 0.7440
7.9304 -2.0972 0.7189
7.9248 -2.0139 0.6939
7.9191 -1.9311 0.6692
7.9135 -1.8490 0.6446
7.9079 -1.7673 0.6202
7.9024 -1.6861 0.5960
7.8969 -1.6054 0.5719
7.8914 -1.5252 0.5479
7.8860 -1.4454 0.5241
7.8806 -1.3660 0.5004
7.8796 -1.2878 0.4771
7.8686 -1.2083 0.4534
7.8577 -1.1292 0.4297
7.8468 -1.0507 0.4063
7.8360 -0.9725 0.3829
7.8253 -0.8948 0.3598
7.8128 -0.8173 0.3366
7.7981 -0.7400 0.3135
7.7834 -0.6631 0.2906
7.7688 -0.5867 0.2677
7.7543 -0.5107 0.2451
7.7399 -0.4351 0.2225
7.7255 -0.3598 0.2000
7.7112 -0.2849 0.1777
7.7033 -0.2105 0.1556
7.6976 -0.1363 0.1336
7.6919 -0.0623 0.1117
7.6863 0.0116 0.0898
7.6806 0.0854 0.0680
7.6750 0.1591 0.0462
7.6693 0.2327 0.0244
7.6637 0.3063 0.0026
7.6581 0.3798 -0.0191
7.6718 0.4544 -0.0409
7.6895 0.5296 -0.0628
7.7072 0.6053 -0.0849
7.7251 0.6815 -0.1071
7.7431 0.7582 -0.1294
7.7612 0.8354 -0.1518
7.7795 0.9131 -0.1744
7.7979 0.9913 -0.1972
7.8164 1.0702 -0.2201
7.8572 1.1529 -0.2439
7.9159 1.2394 -0.2686
3.5197 -7.4803 2.7357
3.6149 -7.4786 2.7375
3.7108 -7.4767 2.7393
3.8076 -7.4747 2.7412
3.9051 -7.4725 2.7430
4.0036 -7.4702 2.7449
4.1029 -7.4678 2.7468
4.2032 -7.4651 2.7488
4.3044 -7.4624 2.7508
4.4067 -7.4595 2.7528
4.5099 -7.4564 2.7548
4.6142 -7.4531 2.7569
4.7195 -7.4497 2.7590
4.8260 -7.4461 2.7611
4.9337 -7.4424 2.7633
5.0425 -7.4385 2.7655
5.1526 -7.4343 2.7677
5.2639 -7.4301 2.7700
5.3765 -7.4256 2.7723
5.4905 -7.4209 2.7746
5.5831 -7.3859 2.7658
5.7227 -7.4110 2.7795
5.8410 -7.4057 2.7819
5.9590 -7.3979 2.7836
6.0779 -7.3892 2.7850
6.1959 -7.3774 2.7854
6.3154 -7.3652 2.7858
6.4363 -7.3528 2.7862
6.5021 -7.2767 2.7626
6.5039 -7.1309 2.7125
6.5155 -6.9990 2.6676
6.6316 -6.9799 2.6658
6.7554 -6.9668 2.6664
6.8812 -6.9537 2.6671
7.0087 -6.9402 2.6679
7.1381 -6.9264 2.6686
7.2695 -6.9123 2.6695
7.4029 -6.8977 2.6703
7.5383 -6.8828 2.6711
7.6759 -6.8675 2.6720
7.8157 -6.8518 2.6729
7.9577 -6.8357 2.6739
8.1022 -6.8191 2.6748
8.2412 -6.7956 2.6733
8.2315 -6.6497 2.6236
8.2219 -6.5066 2.5750
8.2126 -6.3662 2.5273
8.2034 -6.2284 2.4806
8.1944 -6.0931 2.4348
8.1855 -5.9602 2.3899
8.1768 -5.8297 2.3458
8.1682 -5.7014 2.3026
8.1598 -5.5753 2.2601
8.1515 -5.4512 2.2185
8.1434 -5.3292 2.1775
8.1354 -5.2090 2.1373
8.1275 -5.0908 2.0977
8.1197 -4.9743 2.0588
8.1121 -4.8595 2.0205
8.1045 -4.7465 1.9829
8.0971 -4.6350 1.9458
8.0898 -4.5251 1.9093
8.0825 -4.4167 1.8734
8.0807 -4.3126 1.8392
8.0735 -4.2069 1.8043
8.0664 -4.1025 1.7699
8.0594 -3.9995 1.7360
8.0525 -3.8977 1.7025
8.0456 -3.7971 1.6695
8.0388 -3.6977 1.6369
8.0321 -3.5994 1.6048
8.0255 -3.5023 1.5731
8.0190 -3.4062 1.5417
8.0125 -3.3111 1.5108
8.0061 -3.2170 1.4802
7.9997 -3.1239 1.4500
7.9934 -3.0317 1.4202
7.9872 -2.9404 1.3907
7.9810 -2.8500 1.3615
7.9749 -2.7603 1.3327
7.9689 -2.6715 1.3041
7.9629 -2.5835 1.2759
7.9569 -2.4961 1.2479
7.9510 -2.4096 1.2203
7.9452 -2.3237 1.1929
7.9394 -2.2384 1.1657
7.9336 -2.1538 1.1388
7.9279 -2.0698 1.1122
7.9222 -1.9865 1.0858
7.9165 -1.9036 1.0596
7.9109 -1.8214 1.0337
7.9054 -1.7396 1.0080
7.8998 -1.6584 0.9824
7.8943 -1.5776 0.9571
7.8888 -1.4973 0.9320
7.8834 -1.4175 0.9071
7.8780 -1.3381 0.8823
7.8757 -1.2595 0.8581
7.8647 -1.1800 0.8331
7.8538 -1.1010 0.8082
7.8429 -1.0224 0.7836
7.8321 -0.9443 0.7592
7.8214 -0.8666 0.7349
7.8074 -0.7890 0.7106
7.7927 -0.7118 0.6863
7.7780 -0.6350 0.6622
7.7635 -0.5586 0.6383
7.7490 -0.4826 0.6146
7.7346 -0.4071 0.5911
7.7202 -0.3319 0.5677
7.7069 -0.2571 0.5445
7.7012 -0.1828 0.5220
7.6955 -0.1087 0.4996
7.6898 -0.0347 0.4773
7.6842 0.0392 0.4551
7.6785 0.1129 0.4330
7.6729 0.1866 0.4109
7.6672 0.2601 0.3889
7.6616 0.3336 0.3670
7.6608 0.4073 0.3453
7.6783 0.4822 0.3245
7.6960 0.5575 0.3036
7.7138 0.6333 0.2826
7.7317 0.7096 0.2615
7.7497 0.7863 0.2404
7.7679 0.8636 0.2191
7.7861 0.9414 0.1978
7.8045 1.0197 0.1763
7.8230 1.0986 0.1548
7.8780 1.1836 0.1337
7.9370 1.2705 0.1124
7.9970 1.3590 0.0907
3.1533 -6.5984 2.8010
3.2371 -6.5934 2.8029
3.3215 -6.5881 2.8047
3.4064 -6.5827 2.8066
3.4920 -6.5770 2.8086
3.5783 -6.5711 2.8106
3.6651 -6.5650 2.8126
3.7527 -6.5586 2.8146
3.8410 -6.5520 2.8167
3.9300 -6.5452 2.8187
4.0197 -6.5381 2.8209
4.1102 -6.5307 2.8230
4.2015 -6.5231 2.8252
4.2937 -6.5152 2.8275
4.3866 -6.5071 2.8297
4.4804 -6.4986 2.8320
4.5751 -6.4899 2.8344
4.6707 -6.4810 2.8368
4.7673 -6.4717 2.8392
4.8648 -6.4621 2.8417
4.9633 -6.4522 2.8442
5.0629 -6.4421 2.8467
5.1635 -6.4316 2.8493
5.2652 -6.4207 2.8519
5.3680 -6.4096 2.8546
5.4498 -6.3721 2.8457
5.5545 -6.3603 2.8485
5.6875 -6.3784 2.8649
5.7974 -6.3683 2.8689
5.9089 -6.3579 2.8730
6.0199 -6.3452 2.8762
6.1273 -6.3268 2.8772
6.2359 -6.3081 2.8782
6.3458 -6.2889 2.8792
6.4291 -6.2421 2.8678
6.4314 -6.1177 2.8207
6.4336 -5.9958 2.7747
6.4988 -5.9337 2.7564
6.6105 -5.9131 2.7575
6.7241 -5.8926 2.7589
6.8393 -5.8715 2.7604
6.9560 -5.8499 2.7619
7.0744 -5.8278 2.7634
7.1944 -5.8051 2.7650
7.3161 -5.7819 2.7666
7.4396 -5.7581 2.7683
7.5649 -5.7337 2.7700
7.6921 -5.7087 2.7717
7.8211 -5.6829 2.7735
7.9519 -5.6563 2.7752
8.0847 -5.6290 2.7769
8.1580 -5.5590 2.7579
8.1497 -5.4343 2.7116
8.1415 -5.3115 2.6663
8.1335 -5.1907 2.6218
8.1255 -5.0719 2.5780
8.1177 -4.9548 2.5351
8.1100 -4.8395 2.4929
8.1025 -4.7259 2.4515
8.0950 -4.6139 2.4107
8.0876 -4.5035 2.3707
8.0804 -4.3947 2.3313
8.0784 -4.2900 2.2940
8.0712 -4.1839 2.2557
8.0640 -4.0792 2.2181
8.0570 -3.9757 2.1811
8.0500 -3.8736 2.1446
8.0432 -3.7727 2.1087
8.0364 -3.6730 2.0732
8.0297 -3.5744 2.0383
8.0230 -3.4770 2.0039
8.0165 -3.3807 1.9700
8.0100 -3.2853 1.9365
8.0035 -3.1910 1.9035
7.9972 -3.0977 1.8709
7.9909 -3.0053 1.8388
7.9847 -2.9137 1.8071
7.9785 -2.8231 1.7757
7.9724 -2.7333 1.7447
7.9663 -2.6443 1.7142
7.9603 -2.5561 1.6839
7.9543 -2.4687 1.6541
7.9484 -2.3819 1.6245
7.9426 -2.2959 1.5953
7.9367 -2.2105 1.5665
7.9310 -2.1258 1.5379
7.9252 -2.0418 1.5096
7.9196 -1.9583 1.4817
7.9139 -1.8754 1.4540
7.9083 -1.7930 1.4266
7.9027 -1.7112 1.3994
7.8972 -1.6299 1.3725
7.8917 -1.5491 1.3459
7.8862 -1.4688 1.3195
7.8807 -1.3889 1.2934
7.8827 -1.3106 1.2686
7.8717 -1.2306 1.2420
7.8607 -1.1511 1.2157
7.8498 -1.0721 1.1896
7.8389 -0.9936 1.1637
7.8281 -0.9155 1.1381
7.8167 -0.8377 1.1126
7.8019 -0.7601 1.0868
7.7872 -0.6829 1.0613
7.7725 -0.6062 1.0361
7.7580 -0.5299 1.0110
7.7435 -0.4540 0.9862
7.7291 -0.3785 0.9616
7.7148 -0.3034 0.9372
7.7047 -0.2288 0.9135
7.6990 -0.1546 0.8905
7.6933 -0.0805 0.8676
7.6877 -0.0065 0.8448
7.6820 0.0673 0.8222
7.6764 0.1410 0.7997
7.6707 0.2146 0.7773
7.6651 0.2881 0.7550
7.6595 0.3615 0.7328
7.6674 0.4356 0.7120
7.6850 0.5106 0.6921
7.7027 0.5860 0.6721
7.7205 0.6619 0.6521
7.7384 0.7382 0.6321
7.7565 0.8151 0.6121
7.7746 0.8924 0.5919
7.7929 0.9702 0.5718
7.8113 1.0486 0.5516
7.8411 1.1292 0.5320
7.8993 1.2150 0.5142
7.9585 1.3022 0.4962
8.0189 1.3911 0.4779
8.0803 1.4817 0.4594
2.8534 -5.8763 2.8544
2.9281 -5.8692 2.8563
3.0033 -5.8619 2.8582
3.0789 -5.8543 2.8601
3.1550 -5.8464 2.8621
3.2315 -5.8383 2.8641
3.3086 -5.8298 2.8661
3.3862 -5.8211 2.8681
3.4643 -5.8121 2.8702
3.5430 -5.8028 2.8723
3.6222 -5.7933 2.8745
3.7019 -5.7834 2.8766
3.7823 -5.7732 2.8789
3.8633 -5.7627 2.8811
3.9449 -5.7518 2.8834
4.0271 -5.7407 2.8857
4.1100 -5.7292 2.8881
4.1935 -5.7174 2.8905
4.2778 -5.7053 2.8929
4.3627 -5.6928 2.8954
4.4484 -5.6799 2.8980
4.5349 -5.6667 2.9005
4.6221 -5.6532 2.9031
4.7101 -5.6392 2.9058
4.7989 -5.6249 2.9085
4.8886 -5.6101 2.9112
4.9791 -5.5950 2.9140
5.0723 -5.5814 2.9179
5.1664 -5.5674 2.9218
5.2615 -5.5529 2.9257
5.3577 -5.5380 2.9297
5.4311 -5.4986 2.9210
5.5534 -5.5070 2.9380
5.6529 -5.4908 2.9422
5.7520 -5.4726 2.9457
5.8512 -5.4530 2.9488
5.9507 -5.4321 2.9514
6.0485 -5.4082 2.9528
6.1472 -5.3837 2.9541
6.2470 -5.3586 2.9555
6.3478 -5.3330 2.9570
6.3664 -5.2382 2.9202
6.3688 -5.1317 2.8768
6.3760 -5.0308 2.8365
6.4593 -4.9903 2.8302
6.5613 -4.9631 2.8318
6.6650 -4.9355 2.8337
6.7700 -4.9074 2.8356
6.8763 -4.8785 2.8375
6.9839 -4.8490 2.8395
7.0929 -4.8188 2.8416
7.2033 -4.7880 2.8436
7.3153 -4.7563 2.8458
7.4287 -4.7240 2.8480
7.5437 -4.6908 2.8502
7.6603 -4.6569 2.8525
7.7786 -4.6222 2.8549
7.8986 -4.5866 2.8573
8.0204 -4.5502 2.8598
8.0854 -4.4804 2.8418
8.0781 -4.3711 2.7987
8.0759 -4.2659 2.7580
8.0687 -4.1594 2.7163
8.0615 -4.0543 2.6753
8.0545 -3.9505 2.6350
8.0475 -3.8480 2.5953
8.0406 -3.7468 2.5563
8.0338 -3.6468 2.5179
8.0271 -3.5480 2.4800
8.0204 -3.4503 2.4428
8.0138 -3.3537 2.4061
8.0073 -3.2581 2.3700
8.0009 -3.1636 2.3343
7.9945 -3.0700 2.2992
7.9882 -2.9774 2.2646
7.9820 -2.8857 2.2305
7.9758 -2.7949 2.1968
7.9697 -2.7049 2.1636
7.9636 -2.6158 2.1309
7.9576 -2.5274 2.0986
7.9516 -2.4398 2.0666
7.9457 -2.3530 2.0351
7.9399 -2.2668 2.0040
7.9340 -2.1814 1.9733
7.9283 -2.0966 1.9429
7.9225 -2.0124 1.9129
7.9168 -1.9288 1.8833
7.9112 -1.8459 1.8540
7.9056 -1.7634 1.8250
7.9000 -1.6816 1.7963
7.8944 -1.6002 1.7680
7.8889 -1.5194 1.7399
7.8835 -1.4390 1.7122
7.8780 -1.3590 1.6847
7.8786 -1.2805 1.6588
7.8675 -1.2005 1.6307
7.8565 -1.1210 1.6029
7.8456 -1.0420 1.5754
7.8348 -0.9635 1.5482
7.8240 -0.8855 1.5213
7.8110 -0.8076 1.4942
7.7962 -0.7300 1.4671
7.7815 -0.6529 1.4403
7.7668 -0.5763 1.4137
7.7523 -0.5001 1.3874
7.7378 -0.4243 1.3614
7.7235 -0.3489 1.3357
7.7092 -0.2739 1.3102
7.7024 -0.1995 1.2862
7.6968 -0.1253 1.2626
7.6911 -0.0512 1.2391
7.6854 0.0226 1.2158
7.6798 0.0964 1.1927
7.6741 0.1700 1.1697
7.6685 0.2436 1.1469
7.6629 0.3170 1.1243
7.6573 0.3903 1.1018
7.6743 0.4650 1.0826
7.6919 0.5401 1.0635
7.7097 0.6156 1.0445
7.7275 0.6916 1.0254
7.7454 0.7680 1.0064
7.7635 0.8449 0.9873
7.7816 0.9223 0.9683
7.7999 1.0002 0.9493
7.8184 1.0787 0.9302
7.8631 1.1615 0.9142
7.9215 1.2477 0.8996
7.9810 1.3353 0.8848
8.0416 1.4246 0.8699
8.1033 1.5155 0.8548
8.1662 1.6082 0.8396
2.6023 -5.2719 2.8991
2.6696 -5.2635 2.9010
2.7373 -5.2548 2.9029
2.8053 -5.2459 2.9048
2.8736 -5.2366 2.9067
2.9424 -5.2270 2.9087
3.0115 -5.2172 2.9107
3.0810 -5.2070 2.9127
3.1509 -5.1965 2.9148
3.2212 -5.1857 2.9168
3.2919 -5.1746 2.9190
3.3631 -5.1631 2.9211
3.4347 -5.1514 2.9233
3.5067 -5.1393 2.9256
3.5793 -5.1268 2.9278
3.6523 -5.1140 2.9301
3.7258 -5.1009 2.9325
3.7998 -5.0874 2.9348
3.8743 -5.0735 2.9372
3.9493 -5.0593 2.9397
4.0249 -5.0447 2.9422
4.1011 -5.0297 2.9447
4.1778 -5.0143 2.9473
4.2551 -4.9986 2.9499
4.3330 -4.9824 2.9526
4.4115 -4.9658 2.9553
4.4907 -4.9488 2.9580
4.5708 -4.9317 2.9610
4.6527 -4.9154 2.9648
4.7353 -4.8986 2.9686
4.8188 -4.8814 2.9724
4.9030 -4.8637 2.9764
4.9880 -4.8455 2.9804
5.0739 -4.8269 2.9844
5.1604 -4.8077 2.9885
5.2458 -4.7862 2.9915
5.3321 -4.7641 2.9945
5.3978 -4.7229 2.9858
5.5070 -4.7184 3.0007
5.5958 -4.6948 3.0039
5.6854 -4.6706 3.0072
5.7760 -4.6458 3.0105
5.8674 -4.6204 3.0139
5.9567 -4.5920 3.0157
6.0466 -4.5629 3.0175
6.1374 -4.5331 3.0193
6.2291 -4.5027 3.0211
6.3071 -4.4613 3.0160
6.3096 -4.3669 2.9752
6.3119 -4.2737 2.9350
6.3203 -4.1859 2.8984
6.3975 -4.1437 2.8935
6.4902 -4.1105 2.8954
6.5843 -4.0768 2.8975
6.6794 -4.0425 2.8996
6.7756 -4.0073 2.9018
6.8729 -3.9714 2.9040
6.9714 -3.9347 2.9063
7.0710 -3.8972 2.9087
7.1718 -3.8589 2.9110
7.2738 -3.8197 2.9135
7.3771 -3.7797 2.9160
7.4816 -3.7387 2.9185
7.5875 -3.6969 2.9212
7.6948 -3.6541 2.9238
7.8034 -3.6103 2.9266
7.9136 -3.5656 2.9294
8.0243 -3.5194 2.9320
8.0177 -3.4215 2.8917
8.0111 -3.3246 2.8521
8.0046 -3.2288 2.8131
7.9981 -3.1341 2.7747
7.9917 -3.0403 2.7369
7.9854 -2.9475 2.6997
7.9792 -2.8557 2.6630
7.9730 -2.7647 2.6269
7.9668 -2.6746 2.5913
7.9608 -2.5853 2.5563
7.9547 -2.4968 2.5217
7.9488 -2.4091 2.4876
7.9429 -2.3222 2.4540
7.9370 -2.2359 2.4208
7.9312 -2.1504 2.3881
7.9254 -2.0655 2.3558
7.9197 -1.9812 2.3239
7.9140 -1.8976 2.2925
7.9083 -1.8146 2.2614
7.9027 -1.7321 2.2308
7.8971 -1.6502 2.2005
7.8916 -1.5688 2.1706
7.8861 -1.4879 2.1410
7.8806 -1.4075 2.1118
7.8853 -1.3292 2.0856
7.8742 -1.2487 2.0555
7.8631 -1.1687 2.0258
7.8522 -1.0893 1.9965
7.8412 -1.0103 1.9675
7.8304 -0.9318 1.9389
7.8196 -0.8538 1.9106
7.8049 -0.7758 1.8817
7.7901 -0.6984 1.8531
7.7754 -0.6213 1.8248
7.7608 -0.5448 1.7969
7.7463 -0.4687 1.7692
7.7319 -0.3930 1.7420
7.7175 -0.3178 1.7150
7.7058 -0.2430 1.6889
7.7001 -0.1686 1.6643
7.6944 -0.0945 1.6400
7.6887 -0.0205 1.6159
7.6831 0.0533 1.5920
7.6774 0.1270 1.5683
7.6718 0.2006 1.5448
7.6662 0.2740 1.5215
7.6606 0.3474 1.4984
7.6640 0.4212 1.4773
7.6816 0.4959 1.4589
7.6992 0.5711 1.4406
7.7170 0.6467 1.4224
7.7348 0.7228 1.4042
7.7528 0.7993 1.3861
7.7708 0.8763 1.3680
7.7890 0.9537 1.3500
7.8073 1.0317 1.3320
7.8285 1.1106 1.3145
7.8862 1.1957 1.3031
7.9450 1.2822 1.2916
8.0047 1.3703 1.2801
8.0656 1.4600 1.2686
8.1276 1.5513 1.2570
8.1908 1.6444 1.2453
8.2654 1.7414 1.2352
2.3882 -4.7565 2.9373
2.4494 -4.7473 2.9391
2.5107 -4.7378 2.9409
2.5724 -4.7280 2.9428
2.6343 -4.7178 2.9447
2.6965 -4.7074 2.9466
2.7590 -4.6966 2.9486
2.8219 -4.6856 2.9505
2.8850 -4.6742 2.9526
2.9484 -4.6625 2.9546
3.0121 -4.6504 2.9567
3.0762 -4.6380 2.9588
3.1406 -4.6253 2.9609
3.2054 -4.6123 2.9631
3.2705 -4.5989 2.9653
3.3359 -4.5851 2.9676
3.4018 -4.5710 2.9699
3.4680 -4.5565 2.9722
3.5346 -4.5417 2.9745
3.6016 -4.5265 2.9769
3.6690 -4.5109 2.9794
3.7369 -4.4949 2.9818
3.8051 -4.4785 2.9844
3.8738 -4.4617 2.9869
3.9430 -4.4446 2.9895
4.0126 -4.4270 2.9921
4.0826 -4.4090 2.9948
4.1532 -4.3905 2.9975
4.2247 -4.3721 3.0006
4.2975 -4.3541 3.0042
4.3708 -4.3355 3.0079
4.4447 -4.3166 3.0117
4.5192 -4.2971 3.0155
4.5944 -4.2772 3.0194
4.6701 -4.2568 3.0233
4.7456 -4.2351 3.0268
4.8208 -4.2122 3.0297
4.8966 -4.1887 3.0327
4.9731 -4.1648 3.0357
5.0501 -4.1403 3.0388
5.1278 -4.1152 3.0419
5.2061 -4.0896 3.0451
5.2852 -4.0634 3.0484
5.3438 -4.0208 3.0397
5.4452 -4.0094 3.0550
5.5251 -3.9806 3.0578
5.6051 -3.9508 3.0602
5.6857 -3.9204 3.0627
5.7671 -3.8893 3.0653
5.8487 -3.8573 3.0677
5.9299 -3.8239 3.0695
6.0119 -3.7899 3.0715
6.0945 -3.7552 3.0734
6.1778 -3.7199 3.0754
6.2534 -3.6788 3.0733
6.2558 -3.5947 3.0354
6.2581 -3.5117 2.9982
6.2604 -3.4296 2.9616
6.3057 -3.3716 2.9458
6.3897 -3.3335 2.9480
6.4749 -3.2949 2.9503
6.5610 -3.2555 2.9528
6.6480 -3.2153 2.9554
6.7359 -3.1743 2.9579
6.8247 -3.1325 2.9606
6.9145 -3.0898 2.9633
7.0052 -3.0462 2.9661
7.0969 -3.0017 2.9689
7.1896 -2.9563 2.9718
7.2833 -2.9099 2.9747
7.3781 -2.8626 2.9777
7.4740 -2.8142 2.9808
7.5703 -2.7646 2.9837
7.6674 -2.7138 2.9865
7.7657 -2.6619 2.9894
7.8651 -2.6089 2.9923
7.9577 -2.5523 2.9923
7.9517 -2.4637 2.9554
7.9457 -2.3759 2.9190
7.9398 -2.2888 2.8831
7.9340 -2.2025 2.8477
7.9281 -2.1169 2.8129
7.9223 -2.0319 2.7785
7.9166 -1.9476 2.7447
7.9109 -1.8640 2.7113
7.9053 -1.7809 2.6784
7.8997 -1.6984 2.6459
7.8941 -1.6164 2.6139
7.8885 -1.5350 2.5822
7.8830 -1.4541 2.5510
7.8776 -1.3736 2.5203
7.8806 -1.2951 2.4925
7.8695 -1.2146 2.4607
7.8584 -1.1347 2.4293
7.8475 -1.0553 2.3983
7.8366 -0.9764 2.3678
7.8257 -0.8979 2.3376
7.8133 -0.8198 2.3073
7.7984 -0.7419 2.2767
7.7837 -0.6645 2.2465
7.7690 -0.5877 2.2167
7.7544 -0.5112 2.1873
7.7399 -0.4352 2.1582
7.7255 -0.3597 2.1296
7.7112 -0.2846 2.1012
7.7032 -0.2100 2.0750
7.6976 -0.1357 2.0496
7.6919 -0.0616 2.0245
7.6862 0.0123 1.9997
7.6806 0.0861 1.9751
7.6749 0.1597 1.9508
7.6693 0.2332 1.9267
7.6637 0.3065 1.9028
7.6581 0.3798 1.8792
7.6717 0.4541 1.8605
7.6893 0.5290 1.8428
7.7070 0.6043 1.8252
7.7248 0.6800 1.8078
7.7426 0.7561 1.7904
7.7606 0.8327 1.7732
7.7787 0.9098 1.7560
7.7969 0.9873 1.7389
7.8152 1.0654 1.7220
7.8531 1.1468 1.7093
7.9111 1.2323 1.7009
7.9701 1.3193 1.6926
8.0302 1.4078 1.6843
8.0913 1.4979 1.6761
8.1536 1.5897 1.6680
8.2171 1.6833 1.6599
8.3100 1.7847 1.6575
8.4211 1.8923 1.6584
2.2027 -4.3100 2.9703
2.2586 -4.3003 2.9721
2.3147 -4.2903 2.9739
2.3709 -4.2799 2.9757
2.4274 -4.2693 2.9775
2.4841 -4.2584 2.9794
2.5410 -4.2471 2.9813
2.5982 -4.2355 2.9832
2.6556 -4.2236 2.9852
2.7132 -4.2114 2.9872
2.7711 -4.1988 2.9892
2.8292 -4.1859 2.9912
2.8876 -4.1727 2.9933
2.9462 -4.1591 2.9954
3.0051 -4.1452 2.9976
3.0643 -4.1309 2.9998
3.1238 -4.1163 3.0020
3.1835 -4.1013 3.0042
3.2436 -4.0860 3.0065
3.3039 -4.0702 3.0088
3.3645 -4.0541 3.0112
3.4255 -4.0377 3.0136
3.4868 -4.0208 3.0160
3.5484 -4.0035 3.0185
3.6104 -3.9859 3.0210
3.6726 -3.9678 3.0235
3.7353 -3.9494 3.0261
3.7983 -3.9305 3.0287
3.8616 -3.9112 3.0314
3.9259 -3.8920 3.0345
3.9911 -3.8728 3.0380
4.0566 -3.8532 3.0416
4.1227 -3.8332 3.0453
4.1891 -3.8127 3.0489
4.2561 -3.7917 3.0527
4.3235 -3.7702 3.0565
4.3900 -3.7471 3.0594
4.4569 -3.7234 3.0622
4.5241 -3.6992 3.0652
4.5919 -3.6745 3.0681
4.6600 -3.6493 3.0711
4.7287 -3.6236 3.0742
4.7978 -3.5973 3.0773
4.8675 -3.5705 3.0804
4.9376 -3.5431 3.0836
5.0075 -3.5147 3.0864
5.0772 -3.4851 3.0888
5.1473 -3.4550 3.0913
5.2179 -3.4244 3.0937
5.2705 -3.3812 3.0854
5.3418 -3.3494 3.0880
5.4327 -3.3287 3.1014
5.5054 -3.2955 3.1041
5.5786 -3.2617 3.1068
5.6523 -3.2273 3.1096
5.7266 -3.1921 3.1124
5.8010 -3.1561 3.1150
5.8750 -3.1188 3.1171
5.9496 -3.0809 3.1193
6.0248 -3.0422 3.1216
6.1006 -3.0028 3.1239
6.1769 -2.9627 3.1262
6.2046 -2.8988 3.1040
6.2067 -2.8235 3.0695
6.2088 -2.7488 3.0354
6.2131 -2.6759 3.0031
6.2645 -2.6234 2.9938
6.3402 -2.5803 2.9960
6.4168 -2.5364 2.9983
6.4942 -2.4918 3.0008
6.5723 -2.4464 3.0033
6.6510 -2.4001 3.0059
6.7305 -2.3528 3.0086
6.8106 -2.3047 3.0113
6.8915 -2.2557 3.0140
6.9731 -2.2057 3.0168
7.0555 -2.1547 3.0196
7.1386 -2.1028 3.0225
7.2225 -2.0498 3.0255
7.3072 -1.9958 3.0285
7.3928 -1.9407 3.0316
7.4792 -1.8845 3.0348
7.5664 -1.8272 3.0380
7.6545 -1.7688 3.0412
7.7436 -1.7092 3.0446
7.8336 -1.6485 3.0480
7.8908 -1.5797 3.0385
7.8853 -1.4983 3.0051
7.8798 -1.4174 2.9721
7.8743 -1.3369 2.9396
7.8755 -1.2581 2.9100
7.8644 -1.1776 2.8763
7.8533 -1.0978 2.8431
7.8424 -1.0184 2.8103
7.8315 -0.9396 2.7780
7.8207 -0.8613 2.7462
7.8063 -0.7830 2.7135
7.7914 -0.7053 2.6812
7.7767 -0.6280 2.6493
7.7621 -0.5513 2.6178
7.7475 -0.4750 2.5868
7.7330 -0.3991 2.5562
7.7187 -0.3237 2.5261
7.7062 -0.2488 2.4970
7.7005 -0.1744 2.4703
7.6948 -0.1002 2.4441
7.6892 -0.0261 2.4181
7.6835 0.0477 2.3924
7.6779 0.1214 2.3670
7.6722 0.1949 2.3420
7.6666 0.2683 2.3172
7.6610 0.3415 2.2927
7.6626 0.4151 2.2706
7.6801 0.4897 2.2534
7.6977 0.5647 2.2363
7.7154 0.6401 2.2194
7.7332 0.7159 2.2027
7.7511 0.7921 2.1861
7.7691 0.8688 2.1696
7.7872 0.9460 2.1533
7.8054 1.0236 2.1372
7.8238 1.1018 2.1211
7.8797 1.1861 2.1153
7.9380 1.2720 2.1100
7.9974 1.3595 2.1049
8.0578 1.4485 2.0999
8.1193 1.5391 2.0951
8.1820 1.6315 2.0905
8.2498 1.7263 2.0870
8.3587 1.8318 2.0937
8.4709 1.9406 2.1008
8.5866 2.0527 2.1084
2.0398 -3.9179 2.9993
2.0912 -3.9079 3.0010
2.1426 -3.8976 3.0028
2.1942 -3.8870 3.0045
2.2460 -3.8761 3.0063
2.2980 -3.8649 3.0081
2.3501 -3.8534 3.0099
2.4024 -3.8415 3.0118
2.4549 -3.8294 3.0137
2.5075 -3.8169 3.0156
2.5604 -3.8041 3.0176
2.6134 -3.7910 3.0196
2.6666 -3.7775 3.0216
2.7201 -3.7637 3.0236
2.7737 -3.7495 3.0257
2.8275 -3.7351 3.0278
2.8816 -3.7202 3.0299
2.9359 -3.7050 3.0321
2.9904 -3.6895 3.0343
3.0450 -3.6736 3.0366
3.1000 -3.6573 3.0388
3.1552 -3.6407 3.0411
3.2106 -3.6237 3.0435
3.2663 -3.6063 3.0458
3.3222 -3.5885 3.0483
3.3783 -3.5704 3.0507
3.4348 -3.5518 3.0532
3.4915 -3.5328 3.0557
3.5484 -3.5135 3.0583
3.6057 -3.4937 3.0609
3.6638 -3.4740 3.0640
3.7224 -3.4542 3.0674
3.7815 -3.4340 3.0708
3.8408 -3.4133 3.0743
3.9005 -3.3922 3.0779
3.9606 -3.3706 3.0815
4.0206 -3.3482 3.0848
4.0800 -3.3247 3.0876
4.1399 -3.3007 3.0903
4.2000 -3.2762 3.0932
4.2604 -3.2512 3.0960
4.3212 -3.2258 3.0989
4.3823 -3.1998 3.1019
4.4438 -3.1733 3.1049
4.5056 -3.1464 3.1079
4.5675 -3.1186 3.1108
4.6288 -3.0897 3.1131
4.6905 -3.0603 3.1154
4.7525 -3.0304 3.1178
4.8148 -2.9999 3.1203
4.8775 -2.9688 3.1227
4.9406 -2.9372 3.1252
5.0040 -2.9049 3.1278
5.0677 -2.8721 3.1303
5.1319 -2.8387 3.1330
5.1964 -2.8047 3.1357
5.2429 -2.7603 3.1274
5.3080 -2.7252 3.1301
5.3924 -2.6988 3.1439
5.4574 -2.6617 3.1461
5.5227 -2.6238 3.1483
5.5883 -2.5853 3.1505
5.6543 -2.5461 3.1528
5.7207 -2.5062 3.1550
5.7872 -2.4654 3.1572
5.8540 -2.4239 3.1593
5.9212 -2.3817 3.1615
5.9888 -2.3387 3.1637
6.0569 -2.2950 3.1659
6.1253 -2.2506 3.1682
6.1556 -2.1915 3.1508
6.1575 -2.1227 3.1193
6.1594 -2.0544 3.0882
6.1612 -1.9865 3.0576
6.1774 -1.9237 3.0345
6.2453 -1.8766 3.0370
6.3184 -1.8300 3.0417
6.3829 -1.7799 3.0422
6.4526 -1.7304 3.0450
6.5229 -1.6799 3.0478
6.5936 -1.6285 3.0507
6.6649 -1.5763 3.0536
6.7367 -1.5230 3.0566
6.8819 -1.4137 3.0628
6.8090 -1.4688 3.0597
6.9548 -1.3574 3.0657
7.0277 -1.3000 3.0685
7.1752 -1.1821 3.0741
7.1012 -1.2416 3.0713
7.2497 -1.1215 3.0770
7.4768 -0.9332 3.0860
7.3248 -1.0599 3.0799
7.5537 -0.8681 3.0891
7.6311 -0.8018 3.0923
7.4005 -0.9971 3.0829
7.7092 -0.7343 3.0955
7.7838 -0.6653 3.0972
7.7255 -0.3598 2.9653
7.7691 -0.5882 3.0634
7.7112 -0.2845 2.9335
7.7032 -0.2099 2.9046
7.7545 -0.5116 3.0302
7.6975 -0.1355 2.8770
7.7400 -0.4354 2.9975
7.6919 -0.0614 2.8497
7.6862 0.0125 2.8227
7.6693 0.2333 2.7440
7.6806 0.0863 2.7961
7.6637 0.3065 2.7184
7.6749 0.1598 2.7699
7.6892 0.5286 2.6582
7.6581 0.3797 2.6931
7.7069 0.6037 2.6417
7.7246 0.6792 2.6255
7.6717 0.4539 2.6749
7.7424 0.7552 2.6094
7.7603 0.8315 2.5935
7.8513 1.1441 2.5377
7.9090 1.2292 2.5353
7.7784 0.9083 2.5778
7.9677 1.3157 2.5331
7.7965 0.9855 2.5623
8.0274 1.4037 2.5312
8.0882 1.4932 2.5296
7.8147 1.0633 2.5470
8.1500 1.5844 2.5282
8.4125 1.8840 2.5469
8.2131 1.6773 2.5271
8.3024 1.7773 2.5339
8.5259 1.9939 2.5605
8.6429 2.1073 2.5749
8.7637 2.2243 2.5900
1.8950 -3.5693 3.0251
1.9424 -3.5592 3.0268
1.9898 -3.5488 3.0284
2.0373 -3.5381 3.0301
2.0850 -3.5271 3.0318
2.1328 -3.5158 3.0336
2.1808 -3.5042 3.0354
2.2288 -3.4923 3.0372
2.2770 -3.4801 3.0390
2.3254 -3.4676 3.0408
2.3739 -3.4547 3.0427
2.4225 -3.4415 3.0446
2.4713 -3.4280 3.0466
2.5202 -3.4142 3.0485
2.5693 -3.4001 3.0505
2.6185 -3.3856 3.0526
2.6679 -3.3707 3.0546
2.7174 -3.3556 3.0567
2.7672 -3.3400 3.0588
2.8170 -3.3242 3.0610
2.8671 -3.3080 3.0632
2.9173 -3.2914 3.0654
2.9677 -3.2745 3.0676
3.0183 -3.2572 3.0699
3.0691 -3.2395 3.0722
3.1200 -3.2215 3.0746
3.1712 -3.2030 3.0769
3.2225 -3.1842 3.0793
3.2740 -3.1650 3.0818
3.3258 -3.1454 3.0843
3.3777 -3.1255 3.0868
3.4304 -3.1056 3.0899
3.4836 -3.0855 3.0932
3.5370 -3.0650 3.0965
3.5906 -3.0440 3.0998
3.6445 -3.0226 3.1033
3.6986 -3.0008 3.1067
3.7523 -2.9779 3.1096
3.8058 -2.9543 3.1122
3.8596 -2.9303 3.1149
3.9136 -2.9059 3.1176
3.9679 -2.8809 3.1204
4.0224 -2.8555 3.1232
4.0772 -2.8297 3.1261
4.1322 -2.8033 3.1290
4.1874 -2.7764 3.1319
4.2418 -2.7484 3.1341
4.2965 -2.7199 3.1363
4.3515 -2.6909 3.1386
4.4066 -2.6614 3.1409
4.4620 -2.6313 3.1433
4.5177 -2.6008 3.1456
4.5736 -2.5697 3.1481
4.6297 -2.5381 3.1505
4.6861 -2.5059 3.1530
4.7427 -2.4731 3.1556
4.7997 -2.4398 3.1582
4.8568 -2.4060 3.1608
4.9140 -2.3714 3.1633
4.9706 -2.3358 3.1653
5.0276 -2.2997 3.1674
5.0847 -2.2629 3.1695
5.1421 -2.2256 3.1716
5.1836 -2.1808 3.1640
5.2413 -2.1423 3.1662
5.3158 -2.1097 3.1782
5.3742 -2.0699 3.1805
5.4329 -2.0293 3.1828
5.4918 -1.9881 3.1852
5.5511 -1.9462 3.1876
5.6106 -1.9036 3.1900
5.6704 -1.8603 3.1925
5.7302 -1.8162 3.1949
5.7901 -1.7713 3.1972
5.8504 -1.7257 3.1996
5.9110 -1.6794 3.2021
5.9718 -1.6323 3.2046
6.0330 -1.5844 3.2071
6.0944 -1.5358 3.2097
6.1080 -1.4747 3.1871
6.1096 -1.4110 3.1588
6.1111 -1.3476 3.1308
6.1125 -1.2846 3.1032
6.1206 -1.2232 3.0794
6.1680 -1.1694 3.0756
6.2278 -1.1173 3.0779
6.2880 -1.0643 3.0804
6.3487 -1.0105 3.0829
6.4097 -0.9558 3.0856
6.4710 -0.9002 3.0882
6.5327 -0.8437 3.0909
6.5946 -0.7863 3.0937
6.6569 -0.7279 3.0965
6.7195 -0.6685 3.0993
6.7824 -0.6082 3.1022
6.8456 -0.5469 3.1051
6.9092 -0.4845 3.1081
7.1668 -0.2246 3.1206
6.9731 -0.4212 3.1112
7.2320 -0.1569 3.1239
7.2976 -0.0880 3.1272
7.0373 -0.3567 3.1143
7.3636 -0.0180 3.1305
7.1018 -0.2912 3.1174
7.4299 0.0532 3.1339
7.4884 0.1255 3.1340
7.6605 0.3486 3.1325
7.5597 0.1992 3.1393
7.6642 0.4222 3.1102
7.6288 0.2741 3.1436
7.7170 0.6468 3.0616
7.6817 0.4967 3.0938
7.7347 0.7224 3.0459
7.6993 0.5715 3.0776
7.7526 0.7984 3.0304
7.7705 0.8749 3.0152
7.7886 0.9518 3.0002
7.9414 1.2770 2.9724
7.8067 1.0291 2.9854
8.0005 1.3641 2.9734
8.0606 1.4526 2.9748
7.8261 1.1071 2.9714
8.1218 1.5428 2.9765
7.8833 1.1913 2.9717
8.1841 1.6346 2.9786
8.2528 1.7292 2.9830
8.5874 2.0535 3.0414
8.3610 1.8341 3.0016
8.7059 2.1683 3.0628
8.4725 1.9421 3.0210
8.8442 2.2910 3.0909
9.0366 2.4314 3.1374
1.7577 -3.2429 3.0359
1.8013 -3.2328 3.0375
1.8526 -3.2356 3.0515
1.8965 -3.2250 3.0531
1.9406 -3.2140 3.0548
1.9847 -3.2028 3.0564
2.0290 -3.1912 3.0581
2.0733 -3.1794 3.0599
2.1178 -3.1672 3.0616
2.1623 -3.1548 3.0634
2.2069 -3.1420 3.0652
2.2517 -3.1289 3.0670
2.2966 -3.1155 3.0689
2.3415 -3.1018 3.0708
2.3866 -3.0878 3.0727
2.4318 -3.0734 3.0747
2.4771 -3.0588 3.0766
2.5226 -3.0438 3.0786
2.5681 -3.0284 3.0807
2.6138 -3.0128 3.0827
2.6596 -2.9967 3.0848
2.7055 -2.9804 3.0870
2.7516 -2.9637 3.0891
2.7977 -2.9466 3.0913
2.8441 -2.9292 3.0935
2.8905 -2.9115 3.0957
2.9371 -2.8934 3.0980
2.9838 -2.8749 3.1003
3.0307 -2.8560 3.1027
3.0777 -2.8368 3.1050
3.1249 -2.8172 3.1075
3.1722 -2.7972 3.1099
3.2202 -2.7773 3.1129
3.2685 -2.7571 3.1161
3.3169 -2.7365 3.1192
3.3656 -2.7155 3.1225
3.4144 -2.6941 3.1257
3.4633 -2.6722 3.1290
3.5116 -2.6493 3.1315
3.5601 -2.6259 3.1341
3.6086 -2.6021 3.1367
3.6574 -2.5778 3.1393
3.7063 -2.5532 3.1420
3.7554 -2.5281 3.1447
3.8047 -2.5025 3.1474
3.8541 -2.4765 3.1502
3.9030 -2.4496 3.1524
3.9519 -2.4221 3.1546
4.0009 -2.3941 3.1567
4.0501 -2.3657 3.1589
4.0995 -2.3368 3.1612
4.1489 -2.3075 3.1634
4.1986 -2.2776 3.1658
4.2484 -2.2473 3.1681
4.2984 -2.2164 3.1705
4.3485 -2.1851 3.1729
4.3989 -2.1532 3.1753
4.4493 -2.1208 3.1778
4.4994 -2.0876 3.1799
4.5493 -2.0537 3.1819
4.5994 -2.0193 3.1838
4.6496 -1.9844 3.1858
4.7000 -1.9489 3.1879
4.7505 -1.9129 3.1899
4.8011 -1.8763 3.1920
4.8520 -1.8391 3.1942
4.9029 -1.8014 3.1963
4.9540 -1.7630 3.1985
5.0053 -1.7241 3.2008
5.0568 -1.6845 3.2030
5.1083 -1.6444 3.2053
5.1441 -1.5987 3.1977
5.1959 -1.5574 3.2001
5.2641 -1.5202 3.2124
5.3163 -1.4775 3.2149
5.3687 -1.4341 3.2174
5.4211 -1.3901 3.2198
5.4729 -1.3451 3.2218
5.5249 -1.2995 3.2238
5.5769 -1.2533 3.2259
5.6291 -1.2063 3.2280
5.6815 -1.1586 3.2301
5.7340 -1.1102 3.2323
5.7866 -1.0611 3.2345
5.8394 -1.0112 3.2368
5.8923 -0.9606 3.2390
5.9454 -0.9093 3.2413
5.9985 -0.8571 3.2437
6.0519 -0.8042 3.2461
6.0584 -0.7448 3.2235
6.0596 -0.6848 3.1985
6.0606 -0.6250 3.1738
6.0616 -0.5654 3.1495
6.0626 -0.5060 3.1255
6.0809 -0.4481 3.1108
6.1328 -0.3921 3.1133
6.1847 -0.3352 3.1159
6.2369 -0.2776 3.1186
6.2895 -0.2190 3.1214
6.3421 -0.1596 3.1243
6.3950 -0.0993 3.1272
6.4479 -0.0380 3.1301
6.5010 0.0241 3.1331
6.5524 0.0872 3.1352
6.6057 0.1512 3.1383
6.8296 0.4178 3.1554
6.6609 0.2163 3.1422
6.8842 0.4870 3.1590
6.9390 0.5573 3.1626
6.7146 0.2823 3.1455
6.9939 0.6286 3.1663
6.7696 0.3494 3.1493
7.0535 0.7015 3.1721
7.1140 0.7756 3.1783
7.2879 1.0045 3.1933
7.1696 0.8505 3.1823
7.3491 1.0837 3.1997
7.2253 0.9264 3.1863
7.4054 1.1634 3.2040
7.5314 1.3289 3.2182
7.5882 1.4126 3.2227
7.4656 1.2450 3.2099
7.6485 1.4982 3.2287
7.7744 1.6748 3.2429
7.7172 1.5870 3.2382
8.0106 2.0418 3.2649
7.8339 1.7645 3.2485
8.0701 2.1373 3.2707
7.9004 1.8573 3.2571
8.1210 2.2320 3.2730
7.9551 1.9488 3.2608
8.1702 2.3276 3.2748
1.6469 -2.9720 3.0693
1.6875 -2.9621 3.0708
1.7212 -2.9398 3.0599
1.7617 -2.9293 3.0614
1.8024 -2.9185 3.0630
1.8506 -2.9193 3.0771
1.8916 -2.9079 3.0788
1.9326 -2.8962 3.0804
1.9737 -2.8842 3.0821
2.0148 -2.8719 3.0838
2.0561 -2.8593 3.0856
2.0974 -2.8464 3.0873
2.1387 -2.8332 3.0891
2.1802 -2.8198 3.0909
2.2218 -2.8060 3.0927
2.2634 -2.7919 3.0946
2.3051 -2.7774 3.0965
2.3469 -2.7627 3.0984
2.3888 -2.7476 3.1004
2.4307 -2.7323 3.1023
2.4728 -2.7166 3.1043
2.5149 -2.7006 3.1064
2.5572 -2.6842 3.1084
2.5995 -2.6675 3.1105
2.6419 -2.6505 3.1126
2.6844 -2.6331 3.1148
2.7270 -2.6154 3.1170
2.7697 -2.5974 3.1192
2.8125 -2.5790 3.1214
2.8554 -2.5602 3.1237
2.8984 -2.5411 3.1259
2.9415 -2.5216 3.1283
2.9847 -2.5018 3.1306
3.0285 -2.4820 3.1335
3.0725 -2.4619 3.1366
3.1166 -2.4414 3.1396
3.1609 -2.4205 3.1427
3.2053 -2.3993 3.1458
3.2494 -2.3774 3.1487
3.2933 -2.3547 3.1511
3.3372 -2.3317 3.1536
3.3813 -2.3083 3.1561
3.4254 -2.2844 3.1586
3.4697 -2.2602 3.1612
3.5140 -2.2355 3.1638
3.5585 -2.2104 3.1664
3.6027 -2.1847 3.1687
3.6466 -2.1583 3.1707
3.6906 -2.1315 3.1728
3.7347 -2.1042 3.1749
3.7790 -2.0765 3.1770
3.8233 -2.0484 3.1792
3.8677 -2.0198 3.1814
3.9121 -1.9908 3.1836
3.9567 -1.9613 3.1858
4.0462 -1.9010 3.1904
4.0014 -1.9314 3.1881
4.0910 -1.8700 3.1928
4.2239 -1.7735 3.1983
4.4022 -1.6380 3.2061
4.1352 -1.8384 3.1946
4.5817 -1.4942 3.2143
4.4470 -1.6028 3.2081
4.2684 -1.7404 3.2002
4.1796 -1.8062 3.1964
4.4918 -1.5671 3.2101
4.6268 -1.4569 3.2164
4.3129 -1.7067 3.2021
4.9430 -1.1802 3.2315
4.7624 -1.3419 3.2230
4.5367 -1.5309 3.2122
4.6719 -1.4191 3.2186
4.9878 -1.1382 3.2334
4.3575 -1.6726 3.2041
4.8077 -1.3024 3.2253
5.1087 -1.0060 3.2305
5.0327 -1.0956 3.2353
4.7171 -1.3808 3.2208
5.3029 -0.8274 3.2474
4.8531 -1.2623 3.2276
5.1536 -0.9617 3.2325
5.0776 -1.0525 3.2373
5.3481 -0.7805 3.2495
5.2127 -0.9193 3.2433
5.6652 -0.4335 3.2653
4.8982 -1.2216 3.2297
5.4838 -0.6358 3.2561
5.7106 -0.3811 3.2677
5.2578 -0.8737 3.2453
5.3933 -0.7329 3.2517
5.8470 -0.2198 3.2750
5.5291 -0.5863 3.2583
5.7561 -0.3281 3.2701
6.0052 0.0059 3.2724
5.4385 -0.6847 3.2539
5.8925 -0.1645 3.2775
5.8015 -0.2743 3.2725
5.5745 -0.5360 3.2606
6.0068 0.0636 3.2514
5.9380 -0.1085 3.2801
6.0985 0.4728 3.1556
6.0140 0.2364 3.1917
6.0083 0.1212 3.2306
6.1424 0.5349 3.1587
5.9835 -0.0517 3.2827
5.6198 -0.4851 3.2629
6.0176 0.2941 3.1731
6.0103 0.1788 3.2106
6.1933 0.5985 3.1655
6.6284 1.2778 3.1992
6.2740 0.7264 3.1685
6.0265 0.3521 3.1577
6.4507 0.9944 3.1830
6.2302 0.6617 3.1652
6.6720 1.3510 3.2030
6.0549 0.4116 3.1526
6.3182 0.7920 3.1721
6.8057 1.5776 3.2165
6.7153 1.4252 3.2068
6.4945 1.0636 3.1866
6.8488 1.6549 3.2204
6.3629 0.8586 3.1759
6.9819 1.8945 3.2348
6.8917 1.7332 3.2244
6.5381 1.1339 3.1903
7.0244 1.9761 3.2389
6.9344 1.8126 3.2284
6.5847 1.2056 3.1954
7.0666 2.0588 3.2430
6.4068 0.9260 3.1795
6.7595 1.5006 3.2111
7.1080 2.1424 3.2469
1.5390 -2.7121 3.0886
1.5767 -2.7023 3.0900
1.6145 -2.6922 3.0915
1.6833 -2.6603 3.0819
1.6523 -2.6818 3.0930
1.7210 -2.6494 3.0835
1.8422 -2.6258 3.1008
1.7589 -2.6383 3.0850
1.8802 -2.6138 3.1024
1.7967 -2.6269 3.0866
1.9949 -2.5759 3.1075
1.9184 -2.6015 3.1041
2.1485 -2.5214 3.1146
2.3031 -2.4620 3.1221
2.0332 -2.5627 3.1092
1.9566 -2.5888 3.1058
2.3419 -2.4464 3.1240
2.1871 -2.5070 3.1164
2.0716 -2.5493 3.1110
2.3807 -2.4305 3.1260
2.4586 -2.3976 3.1300
2.6150 -2.3281 3.1383
2.2257 -2.4923 3.1183
2.4196 -2.4142 3.1280
2.1101 -2.5355 3.1128
2.4976 -2.3808 3.1320
2.6543 -2.3099 3.1405
2.2644 -2.4773 3.1202
2.7724 -2.2533 3.1471
2.5366 -2.3635 3.1341
2.6936 -2.2914 3.1427
2.9324 -2.1740 3.1580
2.8120 -2.2337 3.1494
2.5758 -2.3460 3.1362
3.0931 -2.0886 3.1688
2.7330 -2.2725 3.1449
2.8520 -2.2142 3.1522
2.9727 -2.1534 3.1610
3.2532 -1.9960 3.1785
2.8921 -2.1943 3.1551
3.1330 -2.0660 3.1712
3.2934 -1.9719 3.1810
3.4129 -1.8963 3.1872
3.0131 -2.1324 3.1639
3.5722 -1.7897 3.1953
3.3335 -1.9472 3.1833
3.4526 -1.8703 3.1892
3.1730 -2.0430 3.1736
3.6121 -1.7620 3.1974
3.0532 -2.1108 3.1665
3.3732 -1.9220 3.1852
3.6521 -1.7339 3.1995
3.4924 -1.8438 3.1912
3.2131 -2.0197 3.1760
3.8907 -1.5553 3.2111
3.7322 -1.6764 3.2039
3.6921 -1.7054 3.2017
3.9303 -1.5239 3.2129
3.5323 -1.8169 3.1932
4.0492 -1.4271 3.2185
4.2080 -1.2914 3.2263
3.9699 -1.4921 3.2147
3.7720 -1.6469 3.2059
4.3670 -1.1481 3.2345
4.0889 -1.3939 3.2204
4.2477 -1.2563 3.2283
4.0095 -1.4598 3.2166
3.8116 -1.6168 3.2076
4.2875 -1.2208 3.2303
4.5243 -0.9964 3.2418
4.4068 -1.1111 3.2366
4.1285 -1.3602 3.2223
3.8511 -1.5863 3.2093
4.3273 -1.1847 3.2324
4.5634 -0.9571 3.2436
4.4460 -1.0733 3.2383
4.1683 -1.3260 3.2243
4.8366 -0.6676 3.2567
4.6025 -0.9174 3.2454
4.6806 -0.8363 3.2490
4.8755 -0.6241 3.2586
4.6416 -0.8771 3.2472
4.4851 -1.0351 3.2400
4.9921 -0.4901 3.2647
4.7197 -0.7949 3.2509
4.9144 -0.5800 3.2607
5.1329 -0.3025 3.2644
5.3008 -0.1068 3.2823
4.9533 -0.5353 3.2627
4.7587 -0.7531 3.2528
5.0309 -0.4443 3.2668
5.1854 -0.2551 3.2755
5.3391 -0.0561 3.2846
5.4525 0.0998 3.2912
4.7977 -0.7106 3.2547
5.2239 -0.2063 3.2777
5.0559 -0.3968 3.2601
5.4901 0.1530 3.2934
5.3771 -0.0048 3.2868
5.2624 -0.1568 3.2800
5.5276 0.2069 3.2956
5.6024 0.3168 3.3003
5.0944 -0.3499 3.2623
5.7513 0.5446 3.3104
5.4149 0.0472 3.2890
5.5650 0.2615 3.2979
5.7888 0.6034 3.3133
5.6398 0.3727 3.3027
6.0461 1.0355 3.3341
5.9000 0.7841 3.3220
6.1147 1.2836 3.3063
5.8260 0.6629 3.3162
5.6772 0.4293 3.3053
6.1328 1.3470 3.3004
6.0698 1.0980 3.3304
5.8631 0.7231 3.3191
5.9364 0.8458 3.3248
5.7143 0.4866 3.3078
6.1509 1.4110 3.2949
6.1908 1.5414 3.2863
6.0844 1.1594 3.3219
5.9729 0.9082 3.3277
6.1691 1.4755 3.2895
6.2129 1.6081 3.2835
6.0991 1.2212 3.3137
6.0096 0.9715 3.3309
6.2351 1.6755 3.2810
6.2606 1.7444 3.2804
6.2873 1.8145 3.2806
6.3141 1.8854 3.2812
6.3452 1.9584 3.2840
6.3774 2.0327 3.2877
