ply
format ascii 1.0
element vertex 2085
property float32 x
property float32 y
property float32 z
end_header
-2.7592 -11.2549 2.3194
-2.5168 -11.2536 2.3236
-2.6377 -11.2541 2.3215
-2.3965 -11.2535 2.3257
-1.8026 -11.2578 2.3355
-2.2767 -11.2537 2.3277
-0.8572 -5.7277 1.1890
-0.7975 -5.7278 1.1897
-2.1575 -11.2542 2.3297
-0.7379 -5.7280 1.1904
-2.0388 -11.2551 2.3317
-0.6785 -5.7284 1.1911
-1.9205 -11.2563 2.3336
-0.6193 -5.7290 1.1917
-0.5601 -5.7297 1.1924
-0.2071 -5.7375 1.1960
-0.5011 -5.7306 1.1930
-0.1483 -5.7394 1.1965
-0.4422 -5.7317 1.1936
-0.0896 -5.7415 1.1970
-0.3833 -5.7329 1.1942
-0.0309 -5.7437 1.1975
-0.3245 -5.7343 1.1948
0.0279 -5.7461 1.1980
-0.2658 -5.7358 1.1954
0.0867 -5.7486 1.1985
0.1457 -5.7514 1.1990
0.5017 -5.7713 1.2015
0.2047 -5.7543 1.1994
0.5616 -5.7753 1.2019
0.2638 -5.7573 1.1999
0.6217 -5.7794 1.2023
0.3230 -5.7606 1.2003
0.6820 -5.7837 1.2026
0.3824 -5.7640 1.2007
0.7426 -5.7882 1.2030
0.4419 -5.7676 1.2011
0.8035 -5.7929 1.2033
0.8646 -5.7978 1.2036
2.4307 -11.4430 2.3650
2.5546 -11.4505 2.3644
0.9261 -5.8029 1.2039
2.6793 -11.4584 2.3638
1.9418 -11.4164 2.3669
2.8048 -11.4666 2.3631
2.0631 -11.4225 2.3665
2.9312 -11.4753 2.3624
3.0585 -11.4843 2.3617
2.1849 -11.4290 2.3660
3.1867 -11.4937 2.3610
2.2967 -11.3826 2.3545
3.3159 -11.5035 2.3601
3.9764 -11.5531 2.3544
3.4461 -11.5137 2.3593
4.1117 -11.5632 2.3529
3.5774 -11.5243 2.3584
4.2483 -11.5738 2.3513
3.7094 -11.5340 2.3572
4.3862 -11.5848 2.3497
3.8423 -11.5434 2.3558
4.5255 -11.5962 2.3480
4.6663 -11.6081 2.3463
4.8085 -11.6204 2.3446
4.9524 -11.6332 2.3427
5.0979 -11.6464 2.3409
-11.8085 -1.1171 -0.1019
-11.7849 -1.2296 -0.0683
-11.7614 -1.3418 -0.0347
-11.7457 -1.4549 -0.0013
-11.7346 -1.5685 0.0321
-11.7235 -1.6822 0.0655
-11.7125 -1.7960 0.0989
-11.7014 -1.9100 0.1323
-11.6878 -2.0237 0.1656
-11.6710 -2.1370 0.1989
-11.6541 -2.2503 0.2322
-11.6373 -2.3638 0.2655
-11.6238 -2.4781 0.2988
-11.6052 -2.5915 0.3320
-11.5973 -2.7076 0.3656
-11.5894 -2.8241 0.3992
-11.5815 -2.9410 0.4330
-11.5735 -3.0584 0.4668
-11.5655 -3.1762 0.5007
-11.5575 -3.2946 0.5347
-11.5494 -3.4135 0.5688
-11.5413 -3.5329 0.6030
-11.5332 -3.6529 0.6373
-11.5250 -3.7735 0.6718
-11.5168 -3.8948 0.7064
-11.5085 -4.0167 0.7412
-11.5002 -4.1394 0.7761
-11.4919 -4.2628 0.8112
-11.4834 -4.3869 0.8464
-11.4750 -4.5119 0.8819
-11.4664 -4.6377 0.9175
-11.4578 -4.7643 0.9533
-11.4492 -4.8918 0.9894
-11.4405 -5.0203 1.0256
-11.4317 -5.1498 1.0621
-11.4228 -5.2802 1.0988
-11.4139 -5.4118 1.1358
-11.4010 -5.5425 1.1726
-11.3918 -5.6761 1.2101
-11.3826 -5.8109 1.2478
-11.3732 -5.9469 1.2859
-11.3638 -6.0841 1.3242
-11.3543 -6.2227 1.3629
-11.3447 -6.3626 1.4019
-11.3350 -6.5039 1.4412
-11.3252 -6.6466 1.4809
-11.3153 -6.7908 1.5209
-11.3053 -6.9366 1.5614
-11.2952 -7.0840 1.6022
-11.2850 -7.2330 1.6434
-11.2746 -7.3838 1.6851
-11.2642 -7.5363 1.7272
-11.2536 -7.6906 1.7697
-11.2429 -7.8469 1.8128
-11.2320 -8.0052 1.8563
-11.2210 -8.1654 1.9003
-11.2099 -8.3278 1.9449
-11.1970 -8.4912 1.9897
-11.1852 -8.6578 2.0353
-11.1733 -8.8267 2.0816
-11.1612 -8.9980 2.1284
-11.1489 -9.1718 2.1758
-11.1364 -9.3482 2.2239
-11.1237 -9.5273 2.2727
-11.1108 -9.7092 2.3222
-11.0978 -9.8940 2.3724
-11.0845 -10.0818 2.4233
-11.0666 -10.2687 2.4741
-10.8230 -10.2452 2.4741
-10.5856 -10.2224 2.4741
-10.3540 -10.2004 2.4741
-10.1281 -10.1790 2.4741
-9.9075 -10.1583 2.4741
-9.6920 -10.1382 2.4740
-9.4814 -10.1187 2.4740
-9.2765 -10.1009 2.4742
-9.2343 -10.2594 2.5175
-9.2091 -10.4401 2.5663
-9.0711 -10.4942 2.5839
-8.8750 -10.4781 2.5842
-8.6663 -10.4428 2.5795
-8.4391 -10.3798 2.5679
-8.2068 -10.3043 2.5530
-7.9787 -10.2276 2.5377
-7.7884 -10.1940 2.5329
-7.6167 -10.1805 2.5330
-7.4480 -10.1675 2.5331
-7.2822 -10.1548 2.5332
-7.1191 -10.1424 2.5333
-6.9587 -10.1304 2.5334
-6.8009 -10.1187 2.5334
-6.6456 -10.1073 2.5335
-6.4926 -10.0963 2.5335
-6.3387 -10.0804 2.5322
-6.1783 -10.0503 2.5273
-6.0208 -10.0209 2.5225
-5.8660 -9.9921 2.5177
-5.7140 -9.9640 2.5130
-5.5645 -9.9364 2.5084
-5.4174 -9.9093 2.5038
-5.2718 -9.8811 2.4988
-5.1273 -9.8509 2.4933
-4.9852 -9.8214 2.4879
-4.8453 -9.7925 2.4825
-4.7077 -9.7641 2.4773
-4.5721 -9.7362 2.4720
-4.4376 -9.7068 2.4664
-4.3042 -9.6758 2.4602
-4.1728 -9.6454 2.4541
-4.0434 -9.6156 2.4481
-3.9158 -9.5862 2.4422
-3.7937 -9.5667 2.4388
-3.6811 -9.5682 2.4406
-3.5692 -9.5697 2.4424
-3.4582 -9.5713 2.4441
-3.3479 -9.5731 2.4459
-3.2384 -9.5749 2.4476
-3.1295 -9.5769 2.4493
-3.0214 -9.5789 2.4510
-2.9139 -9.5810 2.4527
-2.8069 -9.5833 2.4543
-2.7006 -9.5856 2.4559
-2.5948 -9.5880 2.4576
-2.4896 -9.5905 2.4592
-2.3848 -9.5932 2.4607
-2.2805 -9.5959 2.4623
-2.1766 -9.5987 2.4638
-2.0732 -9.6016 2.4654
-1.9701 -9.6046 2.4669
-1.8674 -9.6077 2.4684
-0.9006 -4.9038 1.2602
-0.8484 -4.9046 1.2608
-0.7964 -4.9056 1.2613
-0.7445 -4.9066 1.2618
-0.6927 -4.9076 1.2624
-0.6411 -4.9087 1.2629
-0.5896 -4.9099 1.2634
-0.5381 -4.9111 1.2639
-0.4868 -4.9123 1.2644
-0.4356 -4.9136 1.2649
-0.3844 -4.9150 1.2654
-0.3332 -4.9164 1.2659
-0.2821 -4.9178 1.2664
-0.2311 -4.9193 1.2669
-0.1800 -4.9209 1.2674
-0.1290 -4.9225 1.2679
-0.0779 -4.9242 1.2683
-0.0268 -4.9259 1.2688
0.0243 -4.9277 1.2692
0.0754 -4.9295 1.2697
0.1266 -4.9314 1.2701
0.1779 -4.9334 1.2706
0.2292 -4.9354 1.2710
0.2807 -4.9374 1.2715
0.3322 -4.9396 1.2719
0.3838 -4.9417 1.2723
0.4356 -4.9440 1.2728
0.4875 -4.9463 1.2732
0.5396 -4.9486 1.2736
0.5919 -4.9511 1.2740
0.6443 -4.9535 1.2744
0.6969 -4.9561 1.2749
0.7497 -4.9587 1.2753
0.8027 -4.9614 1.2757
0.8560 -4.9641 1.2761
0.9095 -4.9669 1.2765
1.8992 -9.7983 2.5174
2.0061 -9.8059 2.5186
2.1136 -9.8136 2.5199
2.2127 -9.7815 2.5108
2.3306 -9.8295 2.5223
2.4401 -9.8376 2.5235
2.5496 -9.8429 2.5239
2.6596 -9.8478 2.5242
2.7704 -9.8529 2.5245
2.8819 -9.8581 2.5248
2.9942 -9.8635 2.5250
3.1072 -9.8690 2.5253
3.2212 -9.8746 2.5255
3.3360 -9.8805 2.5258
3.4517 -9.8864 2.5260
3.5684 -9.8926 2.5262
3.6861 -9.8989 2.5264
3.8049 -9.9053 2.5266
3.9247 -9.9119 2.5268
4.0457 -9.9187 2.5270
4.1678 -9.9257 2.5272
4.2909 -9.9324 2.5272
4.4146 -9.9378 2.5269
-11.8407 -0.9635 0.4286
-11.8170 -1.0764 0.4618
-11.7934 -1.1892 0.4949
-11.7698 -1.3016 0.5280
-11.7496 -1.4144 0.5612
-11.7385 -1.5282 0.5948
-11.7274 -1.6421 0.6285
-11.7163 -1.7561 0.6623
-11.7052 -1.8703 0.6961
-11.6937 -1.9845 0.7299
-11.6768 -2.0980 0.7635
-11.6599 -2.2117 0.7971
-11.6430 -2.3254 0.8307
-11.6260 -2.4393 0.8644
-11.6075 -2.5529 0.8981
-11.5996 -2.6692 0.9327
-11.5917 -2.7860 0.9674
-11.5837 -2.9032 1.0023
-11.5758 -3.0208 1.0373
-11.5677 -3.1389 1.0724
-11.5597 -3.2575 1.1078
-11.5516 -3.3767 1.1433
-11.5435 -3.4965 1.1790
-11.5353 -3.6168 1.2149
-11.5271 -3.7378 1.2510
-11.5189 -3.8594 1.2873
-11.5106 -3.9817 1.3238
-11.5022 -4.1047 1.3606
-11.4939 -4.2285 1.3976
-11.4854 -4.3530 1.4348
-11.4769 -4.4784 1.4723
-11.4683 -4.6046 1.5101
-11.4597 -4.7317 1.5481
-11.4510 -4.8597 1.5865
-11.4423 -4.9887 1.6251
-11.4335 -5.1186 1.6641
-11.4246 -5.2496 1.7034
-11.4156 -5.3817 1.7430
-11.4025 -5.5129 1.7823
-11.3932 -5.6471 1.8226
-11.3840 -5.7825 1.8632
-11.3746 -5.9191 1.9043
-11.3651 -6.0570 1.9457
-11.3556 -6.1962 1.9876
-11.3459 -6.3368 2.0299
-11.3362 -6.4788 2.0726
-11.3263 -6.6223 2.1158
-11.3164 -6.7673 2.1595
-11.3063 -6.9139 2.2036
-11.2961 -7.0621 2.2483
-11.2859 -7.2120 2.2935
-11.2755 -7.3637 2.3392
-11.2649 -7.5172 2.3855
-11.2543 -7.6725 2.4324
-11.2435 -7.8298 2.4799
-11.2325 -7.9891 2.5280
-11.2215 -8.1505 2.5767
-11.2102 -8.3141 2.6262
-11.0975 -8.4031 2.6521
-10.8712 -8.4036 2.6501
-10.6503 -8.4040 2.6481
-10.4348 -8.4044 2.6462
-10.2243 -8.4047 2.6444
-10.0185 -8.4050 2.6426
-9.8175 -8.4052 2.6408
-9.6208 -8.4054 2.6391
-9.4292 -8.4063 2.6377
-9.3596 -8.5144 2.6699
-9.3376 -8.6674 2.7162
-9.2812 -8.7904 2.7531
-9.0969 -8.7913 2.7518
-8.9163 -8.7921 2.7505
-8.7189 -8.7727 2.7429
-8.5206 -8.7479 2.7338
-8.3249 -8.7216 2.7241
-8.1254 -8.6867 2.7119
-7.9310 -8.6527 2.7000
-7.7345 -8.6118 2.6859
-7.5383 -8.5664 2.6705
-7.3708 -8.5494 2.6641
-7.2215 -8.5502 2.6632
-7.0745 -8.5509 2.6623
-6.9298 -8.5516 2.6614
-6.7873 -8.5523 2.6605
-6.6468 -8.5529 2.6597
-6.5085 -8.5534 2.6588
-6.3721 -8.5539 2.6580
-6.2376 -8.5544 2.6572
-6.1050 -8.5548 2.6564
-5.9741 -8.5552 2.6557
-5.8450 -8.5555 2.6549
-5.7175 -8.5558 2.6542
-5.5916 -8.5561 2.6534
-5.4673 -8.5563 2.6527
-5.3445 -8.5565 2.6520
-5.2231 -8.5566 2.6513
-5.1019 -8.5547 2.6499
-4.9751 -8.5407 2.6449
-4.8500 -8.5268 2.6399
-4.7268 -8.5131 2.6350
-4.6052 -8.4995 2.6302
-4.4852 -8.4861 2.6254
-4.3668 -8.4729 2.6207
-4.2494 -8.4587 2.6157
-4.1325 -8.4426 2.6102
-4.0171 -8.4267 2.6047
-3.9032 -8.4111 2.5993
-3.7908 -8.3956 2.5940
-3.6797 -8.3802 2.5888
-3.5693 -8.3635 2.5832
-3.4595 -8.3453 2.5771
-3.3511 -8.3274 2.5711
-3.2439 -8.3096 2.5652
-3.1380 -8.2920 2.5593
-3.0363 -8.2826 2.5560
-2.9406 -8.2878 2.5572
-2.8455 -8.2929 2.5584
-2.7509 -8.2980 2.5597
-2.6567 -8.3030 2.5609
-2.5630 -8.3080 2.5621
-2.4698 -8.3129 2.5633
-2.3769 -8.3178 2.5644
-2.2845 -8.3226 2.5656
-2.1924 -8.3274 2.5668
-2.1007 -8.3321 2.5680
-2.0093 -8.3368 2.5692
-1.9182 -8.3414 2.5704
-1.8275 -8.3460 2.5716
-0.8882 -4.2700 1.3155
-0.8419 -4.2716 1.3160
-0.7958 -4.2733 1.3164
-0.7498 -4.2749 1.3168
-0.7039 -4.2766 1.3172
-0.6582 -4.2782 1.3176
-0.6125 -4.2798 1.3180
-0.5669 -4.2813 1.3184
-0.5214 -4.2829 1.3188
-0.4760 -4.2844 1.3192
-0.4306 -4.2860 1.3196
-0.3853 -4.2875 1.3201
-0.3400 -4.2889 1.3205
-0.2948 -4.2904 1.3209
-0.2496 -4.2919 1.3213
-0.2044 -4.2933 1.3217
-0.1593 -4.2948 1.3221
-0.1141 -4.2962 1.3226
-0.0689 -4.2976 1.3230
-0.0238 -4.2990 1.3234
0.0215 -4.3003 1.3238
0.0667 -4.3017 1.3243
0.1120 -4.3031 1.3247
0.1573 -4.3044 1.3251
0.2027 -4.3057 1.3255
0.2482 -4.3070 1.3260
0.2937 -4.3083 1.3264
0.3394 -4.3096 1.3268
0.3851 -4.3109 1.3273
0.4309 -4.3122 1.3277
0.4769 -4.3134 1.3282
0.5229 -4.3147 1.3286
0.5691 -4.3159 1.3291
0.6155 -4.3171 1.3295
0.6620 -4.3183 1.3300
0.7086 -4.3196 1.3304
0.7555 -4.3207 1.3309
0.8025 -4.3219 1.3313
0.8497 -4.3231 1.3318
0.8971 -4.3243 1.3323
1.8583 -8.5081 2.6215
1.9527 -8.5117 2.6228
2.0475 -8.5152 2.6242
2.1342 -8.4841 2.6148
2.2389 -8.5222 2.6269
2.3354 -8.5257 2.6282
2.4325 -8.5292 2.6296
2.5302 -8.5327 2.6310
2.6285 -8.5362 2.6324
2.7275 -8.5397 2.6338
2.8271 -8.5431 2.6353
2.9275 -8.5466 2.6367
3.0286 -8.5501 2.6381
3.1305 -8.5535 2.6396
3.2332 -8.5570 2.6411
3.3367 -8.5604 2.6426
3.4410 -8.5638 2.6441
3.5463 -8.5673 2.6456
3.6524 -8.5707 2.6471
3.7595 -8.5742 2.6487
3.8676 -8.5776 2.6503
-11.8732 -0.8089 0.9626
-11.8494 -0.9223 0.9953
-11.8256 -1.0355 1.0280
-11.8020 -1.1484 1.0607
-11.7783 -1.2611 1.0934
-11.7547 -1.3737 1.1262
-11.7425 -1.4875 1.1601
-11.7314 -1.6016 1.1942
-11.7203 -1.7158 1.2284
-11.7091 -1.8302 1.2627
-11.6980 -1.9447 1.2972
-11.6826 -2.0587 1.3313
-11.6657 -2.1726 1.3654
-11.6487 -2.2866 1.3995
-11.6318 -2.4007 1.4338
-11.6098 -2.5140 1.4676
-11.6019 -2.6305 1.5034
-11.5940 -2.7475 1.5393
-11.5860 -2.8649 1.5754
-11.5780 -2.9828 1.6118
-11.5700 -3.1012 1.6483
-11.5619 -3.2201 1.6852
-11.5538 -3.3396 1.7222
-11.5457 -3.4596 1.7596
-11.5375 -3.5802 1.7971
-11.5293 -3.7015 1.8350
-11.5210 -3.8235 1.8731
-11.5127 -3.9462 1.9116
-11.5043 -4.0696 1.9503
-11.4959 -4.1937 1.9894
-11.4874 -4.3187 2.0288
-11.4789 -4.4444 2.0685
-11.4703 -4.5711 2.1086
-11.4616 -4.6986 2.1490
-11.4529 -4.8271 2.1898
-11.4441 -4.9565 2.2310
-11.4353 -5.0870 2.2726
-11.4264 -5.2185 2.3146
-11.4174 -5.3511 2.3570
-11.4040 -5.4828 2.3990
-11.3947 -5.6175 2.4423
-11.3854 -5.7535 2.4861
-11.3760 -5.8908 2.5303
-11.3665 -6.0293 2.5750
-11.3569 -6.1692 2.6203
-11.3472 -6.3105 2.6661
-11.3374 -6.4533 2.7125
-11.3275 -6.5975 2.7594
-11.2667 -6.7131 2.7943
-11.0533 -6.7359 2.7908
-10.8448 -6.7580 2.7875
-10.6412 -6.7793 2.7842
-10.4422 -6.8000 2.7811
-10.2476 -6.8201 2.7780
-10.0573 -6.8395 2.7750
-9.8710 -6.8583 2.7720
-9.6886 -6.8765 2.7692
-9.5111 -6.8950 2.7667
-9.4647 -7.0073 2.8021
-9.4451 -7.1408 2.8459
-9.4165 -7.2692 2.8876
-9.2443 -7.2860 2.8852
-9.0754 -7.3023 2.8827
-8.9028 -7.3125 2.8782
-8.7247 -7.3150 2.8708
-8.5131 -7.2853 2.8512
-8.3795 -7.3191 2.8566
-8.2043 -7.3138 2.8470
-8.0329 -7.3085 2.8376
-7.8652 -7.3031 2.8284
-7.6942 -7.2913 2.8169
-7.5250 -7.2775 2.8050
-7.3560 -7.2603 2.7919
-7.1844 -7.2370 2.7767
-7.0353 -7.2328 2.7691
-6.9037 -7.2438 2.7674
-6.7738 -7.2545 2.7658
-6.6458 -7.2649 2.7642
-6.5196 -7.2751 2.7627
-6.3951 -7.2849 2.7612
-6.2722 -7.2945 2.7597
-6.1510 -7.3038 2.7583
-6.0313 -7.3128 2.7569
-5.9131 -7.3216 2.7555
-5.7964 -7.3302 2.7541
-5.6810 -7.3385 2.7528
-5.5671 -7.3465 2.7515
-5.4544 -7.3543 2.7502
-5.3431 -7.3619 2.7490
-5.2329 -7.3693 2.7477
-5.1240 -7.3765 2.7465
-5.0162 -7.3834 2.7454
-4.9096 -7.3901 2.7442
-4.8041 -7.3967 2.7431
-4.6996 -7.4030 2.7420
-4.5962 -7.4092 2.7409
-4.4937 -7.4151 2.7398
-4.3922 -7.4209 2.7388
-4.2916 -7.4265 2.7378
-4.1918 -7.4315 2.7366
-4.0871 -7.4260 2.7317
-3.9837 -7.4206 2.7269
-3.8814 -7.4150 2.7221
-3.7802 -7.4094 2.7174
-3.6801 -7.4038 2.7127
-3.5811 -7.3981 2.7082
-3.4828 -7.3916 2.7034
-3.3847 -7.3834 2.6981
-3.2876 -7.3752 2.6928
-3.1916 -7.3670 2.6876
-3.0965 -7.3587 2.6825
-3.0024 -7.3505 2.6775
-2.9087 -7.3411 2.6721
-2.8154 -7.3303 2.6663
-2.7231 -7.3196 2.6606
-2.6316 -7.3089 2.6549
-2.5411 -7.2981 2.6493
-2.4537 -7.2943 2.6463
-2.3703 -7.3010 2.6471
-2.2873 -7.3076 2.6480
-2.2046 -7.3141 2.6489
-2.1223 -7.3204 2.6498
-2.0402 -7.3266 2.6507
-1.9584 -7.3327 2.6516
-1.8769 -7.3386 2.6525
-0.9199 -3.7625 1.3593
-0.8782 -3.7649 1.3596
-0.8367 -3.7672 1.3599
-0.7953 -3.7695 1.3602
-0.7540 -3.7717 1.3605
-0.7128 -3.7738 1.3608
-0.6717 -3.7759 1.3612
-0.6307 -3.7779 1.3615
-0.5897 -3.7799 1.3618
-0.5489 -3.7817 1.3621
-0.5081 -3.7836 1.3625
-0.4673 -3.7854 1.3628
-0.4267 -3.7871 1.3631
-0.3860 -3.7887 1.3635
-0.3454 -3.7903 1.3638
-0.3049 -3.7919 1.3642
-0.2643 -3.7934 1.3645
-0.2238 -3.7948 1.3649
-0.1833 -3.7962 1.3653
-0.1428 -3.7975 1.3656
-0.1023 -3.7988 1.3660
-0.0618 -3.8000 1.3664
-0.0213 -3.8011 1.3668
0.0192 -3.8022 1.3672
0.0598 -3.8032 1.3676
0.1004 -3.8042 1.3680
0.1410 -3.8051 1.3684
0.1817 -3.8060 1.3688
0.2224 -3.8068 1.3692
0.2632 -3.8076 1.3696
0.3041 -3.8083 1.3701
0.3450 -3.8089 1.3705
0.3861 -3.8095 1.3709
0.4272 -3.8101 1.3714
0.4684 -3.8105 1.3718
0.5097 -3.8110 1.3723
0.5511 -3.8113 1.3728
0.5926 -3.8117 1.3732
0.6342 -3.8119 1.3737
0.6760 -3.8121 1.3742
0.7179 -3.8123 1.3747
0.7600 -3.8123 1.3752
0.8022 -3.8124 1.3757
0.8446 -3.8123 1.3762
0.8871 -3.8123 1.3767
1.8256 -7.4846 2.7041
1.9101 -7.4852 2.7055
1.9950 -7.4857 2.7069
2.0718 -7.4556 2.6973
2.1660 -7.4862 2.7098
2.2522 -7.4864 2.7112
2.3389 -7.4864 2.7127
2.4260 -7.4862 2.7142
2.5137 -7.4860 2.7157
2.6019 -7.4856 2.7173
2.6906 -7.4852 2.7188
2.7799 -7.4845 2.7204
2.8698 -7.4838 2.7220
2.9603 -7.4830 2.7236
3.0514 -7.4820 2.7253
3.1432 -7.4809 2.7269
3.2357 -7.4796 2.7286
3.3288 -7.4782 2.7303
3.4227 -7.4767 2.7321
-11.9336 -0.6541 1.5059
-11.8821 -0.7665 1.5346
-11.8582 -0.8801 1.5669
-11.8344 -0.9935 1.5992
-11.8107 -1.1066 1.6316
-11.7870 -1.2196 1.6641
-11.7634 -1.3324 1.6967
-11.7465 -1.4459 1.7303
-11.7354 -1.5601 1.7650
-11.7243 -1.6745 1.7998
-11.7131 -1.7891 1.8348
-11.7020 -1.9038 1.8700
-11.6886 -2.0184 1.9050
-11.6717 -2.1325 1.9397
-11.6547 -2.2467 1.9745
-11.6377 -2.3611 2.0095
-11.6141 -2.4743 2.0435
-11.6043 -2.5907 2.0802
-11.5964 -2.7079 2.1174
-11.5884 -2.8256 2.1550
-11.5804 -2.9437 2.1928
-11.5723 -3.0623 2.2310
-11.5642 -3.1815 2.2694
-11.5561 -3.3013 2.3082
-11.5479 -3.4216 2.3472
-11.5397 -3.5426 2.3867
-11.5315 -3.6642 2.4264
-11.5232 -3.7865 2.4666
-11.5148 -3.9095 2.5071
-11.5064 -4.0332 2.5480
-11.4980 -4.1578 2.5893
-11.4895 -4.2831 2.6310
-11.4809 -4.4093 2.6731
-11.4723 -4.5363 2.7156
-11.4636 -4.6643 2.7586
-11.4549 -4.7932 2.8021
-11.4461 -4.9232 2.8460
-11.4372 -5.0541 2.8904
-11.3278 -5.1406 2.9096
-11.1294 -5.1843 2.9052
-10.9355 -5.2267 2.9009
-10.7458 -5.2679 2.8968
-10.5602 -5.3078 2.8927
-10.3785 -5.3466 2.8888
-10.2006 -5.3843 2.8850
-10.0263 -5.4208 2.8812
-9.8555 -5.4564 2.8776
-9.6885 -5.4912 2.8742
-9.5718 -5.5523 2.8851
-9.5542 -5.6708 2.9259
-9.5365 -5.7904 2.9672
-9.4777 -5.8857 2.9961
-9.3182 -5.9172 2.9929
-9.1614 -5.9478 2.9897
-9.0036 -5.9751 2.9853
-8.8439 -5.9983 2.9795
-8.6872 -6.0209 2.9737
-8.4997 -6.0189 2.9564
-8.3795 -6.0620 2.9617
-8.2251 -6.0781 2.9541
-8.0737 -6.0936 2.9468
-7.9251 -6.1086 2.9396
-7.7769 -6.1213 2.9317
-7.6270 -6.1299 2.9222
-7.4800 -6.1381 2.9130
-7.3331 -6.1436 2.9028
-7.1842 -6.1446 2.8910
-7.0367 -6.1441 2.8788
-6.8853 -6.1370 2.8639
-6.7526 -6.1438 2.8559
-6.6354 -6.1626 2.8537
-6.5197 -6.1809 2.8515
-6.4055 -6.1987 2.8494
-6.2927 -6.2161 2.8474
-6.1813 -6.2330 2.8454
-6.0713 -6.2495 2.8434
-5.9626 -6.2656 2.8415
-5.8551 -6.2813 2.8396
-5.7489 -6.2965 2.8378
-5.6439 -6.3114 2.8360
-5.5401 -6.3259 2.8342
-5.4373 -6.3401 2.8325
-5.3357 -6.3538 2.8308
-5.2352 -6.3673 2.8291
-5.1357 -6.3803 2.8275
-5.0371 -6.3931 2.8259
-4.9396 -6.4055 2.8243
-4.8430 -6.4175 2.8228
-4.7473 -6.4293 2.8213
-4.6525 -6.4408 2.8198
-4.5586 -6.4519 2.8184
-4.4656 -6.4627 2.8170
-4.3733 -6.4733 2.8156
-4.2818 -6.4836 2.8143
-4.1911 -6.4935 2.8129
-4.1012 -6.5032 2.8116
-4.0120 -6.5127 2.8104
-3.9234 -6.5219 2.8091
-3.8356 -6.5308 2.8079
-3.7484 -6.5394 2.8067
-3.6619 -6.5478 2.8055
-3.5760 -6.5560 2.8044
-3.4907 -6.5639 2.8032
-3.4021 -6.5640 2.7990
-3.3139 -6.5632 2.7944
-3.2265 -6.5622 2.7898
-3.1398 -6.5611 2.7854
-3.0540 -6.5598 2.7810
-2.9688 -6.5583 2.7766
-2.8843 -6.5563 2.7721
-2.7997 -6.5527 2.7671
-2.7159 -6.5489 2.7622
-2.6329 -6.5450 2.7573
-2.5505 -6.5410 2.7524
-2.4687 -6.5369 2.7476
-2.3874 -6.5318 2.7426
-2.3062 -6.5255 2.7371
-2.2258 -6.5191 2.7317
-2.1459 -6.5125 2.7264
-2.0667 -6.5059 2.7211
-1.9899 -6.5049 2.7183
-1.9159 -6.5121 2.7190
-1.8421 -6.5191 2.7197
-0.9202 -3.3952 1.4153
-0.8809 -3.3944 1.4140
-0.8419 -3.3937 1.4126
-0.8030 -3.3929 1.4114
-0.7644 -3.3922 1.4101
-0.7259 -3.3914 1.4090
-0.6877 -3.3907 1.4079
-0.6496 -3.3900 1.4068
-0.6116 -3.3893 1.4058
-0.5738 -3.3886 1.4048
-0.5362 -3.3879 1.4039
-0.4987 -3.3872 1.4030
-0.4613 -3.3865 1.4021
-0.4240 -3.3858 1.4013
-0.3868 -3.3851 1.4006
-0.3498 -3.3845 1.3999
-0.3129 -3.3845 1.3995
-0.2761 -3.3861 1.3999
-0.2394 -3.3875 1.4002
-0.2027 -3.3889 1.4005
-0.1660 -3.3902 1.4008
-0.1294 -3.3914 1.4012
-0.0927 -3.3926 1.4015
-0.0560 -3.3936 1.4018
-0.0193 -3.3946 1.4022
0.0174 -3.3955 1.4026
0.0542 -3.3963 1.4029
0.0909 -3.3970 1.4033
0.1277 -3.3976 1.4037
0.1646 -3.3982 1.4041
0.2014 -3.3986 1.4045
0.2384 -3.3990 1.4049
0.2753 -3.3993 1.4053
0.3124 -3.3996 1.4058
0.3495 -3.3997 1.4062
0.3866 -3.3997 1.4066
0.4239 -3.3997 1.4071
0.4612 -3.3996 1.4075
0.4986 -3.3994 1.4080
0.5361 -3.3991 1.4085
0.5737 -3.3987 1.4090
0.6113 -3.3983 1.4095
0.6491 -3.3977 1.4100
0.6870 -3.3971 1.4105
0.7251 -3.3964 1.4110
0.7632 -3.3956 1.4115
0.8015 -3.3947 1.4121
0.8399 -3.3937 1.4126
0.8785 -3.3926 1.4132
1.7980 -6.6487 2.7715
1.8744 -6.6470 2.7729
1.9511 -6.6451 2.7744
2.0199 -6.6160 2.7646
2.1056 -6.6408 2.7774
2.1834 -6.6383 2.7789
2.2616 -6.6357 2.7805
2.3402 -6.6329 2.7821
2.4192 -6.6299 2.7837
2.4986 -6.6267 2.7853
2.5785 -6.6233 2.7869
2.6588 -6.6197 2.7886
2.7396 -6.6160 2.7903
2.8209 -6.6120 2.7920
2.9027 -6.6078 2.7937
2.9850 -6.6034 2.7955
3.0678 -6.5988 2.7973
-12.0188 -0.4971 2.0643
-11.9573 -0.6104 2.0897
-11.8963 -0.7226 2.1150
-11.8674 -0.8362 2.1461
-11.8436 -0.9498 2.1782
-11.8198 -1.0631 2.2104
-11.7961 -1.1763 2.2427
-11.7724 -1.2894 2.2752
-11.7508 -1.4025 2.3083
-11.7396 -1.5169 2.3436
-11.7285 -1.6315 2.3791
-11.7173 -1.7462 2.4149
-11.7061 -1.8611 2.4510
-11.6949 -1.9762 2.4873
-11.6779 -2.0906 2.5226
-11.6609 -2.2051 2.5582
-11.6438 -2.3198 2.5940
-11.6267 -2.4346 2.6301
-11.6068 -2.5491 2.6658
-11.5988 -2.6665 2.7045
-11.5909 -2.7844 2.7436
-11.5828 -2.9027 2.7831
-11.5748 -3.0217 2.8229
-11.5666 -3.1411 2.8632
-11.5585 -3.2611 2.9038
-11.5503 -3.3817 2.9448
-11.5421 -3.5030 2.9862
-11.4556 -3.6004 3.0075
-11.2711 -3.6649 3.0026
-11.0904 -3.7275 2.9978
-10.9135 -3.7884 2.9931
-10.7401 -3.8476 2.9885
-10.5702 -3.9052 2.9841
-10.4036 -3.9612 2.9797
-10.2402 -4.0157 2.9755
-10.0799 -4.0687 2.9714
-9.9226 -4.1203 2.9673
-9.7676 -4.1704 2.9632
-9.6634 -4.2401 2.9740
-9.6475 -4.3483 3.0120
-9.6313 -4.4572 3.0504
-9.6123 -4.5655 3.0884
-9.4637 -4.6115 3.0846
-9.3177 -4.6563 3.0809
-9.1740 -4.6999 3.0773
-9.0290 -4.7406 3.0726
-8.8862 -4.7801 3.0678
-8.7457 -4.8185 3.0632
-8.6075 -4.8560 3.0586
-8.4682 -4.8905 3.0530
-8.3298 -4.9234 3.0469
-8.1937 -4.9553 3.0410
-8.0599 -4.9863 3.0352
-7.9281 -5.0165 3.0296
-7.7965 -5.0446 3.0233
-7.6638 -5.0699 3.0158
-7.5334 -5.0944 3.0086
-7.4051 -5.1182 3.0014
-7.2748 -5.1384 2.9928
-7.1451 -5.1568 2.9836
-7.0173 -5.1743 2.9745
-6.8854 -5.1865 2.9629
-6.7554 -5.1978 2.9513
-6.6208 -5.2031 2.9368
-6.5039 -5.2201 2.9295
-6.3990 -5.2448 2.9269
-6.2953 -5.2690 2.9243
-6.1928 -5.2926 2.9218
-6.0914 -5.3156 2.9194
-5.9913 -5.3381 2.9170
-5.8922 -5.3600 2.9146
-5.7942 -5.3815 2.9123
-5.6972 -5.4024 2.9101
-5.6012 -5.4229 2.9079
-5.5063 -5.4428 2.9057
-5.4123 -5.4623 2.9036
-5.3192 -5.4814 2.9015
-5.2271 -5.4999 2.8995
-5.1358 -5.5181 2.8975
-5.0454 -5.5358 2.8955
-4.9558 -5.5531 2.8936
-4.8671 -5.5700 2.8918
-4.7791 -5.5864 2.8899
-4.6920 -5.6025 2.8881
-4.6055 -5.6182 2.8864
-4.5198 -5.6335 2.8846
-4.4348 -5.6484 2.8829
-4.3505 -5.6630 2.8813
-4.2669 -5.6772 2.8796
-4.1840 -5.6910 2.8780
-4.1016 -5.7045 2.8765
-4.0199 -5.7177 2.8750
-3.9388 -5.7305 2.8735
-3.8583 -5.7430 2.8720
-3.7783 -5.7552 2.8705
-3.6989 -5.7670 2.8691
-3.6201 -5.7785 2.8677
-3.5417 -5.7898 2.8664
-3.4639 -5.8007 2.8651
-3.3866 -5.8113 2.8638
-3.3097 -5.8217 2.8625
-3.2334 -5.8317 2.8612
-3.1574 -5.8415 2.8600
-3.0819 -5.8509 2.8588
-3.0069 -5.8601 2.8576
-2.9323 -5.8691 2.8565
-2.8557 -5.8729 2.8530
-2.7788 -5.8747 2.8487
-2.7024 -5.8762 2.8445
-2.6267 -5.8776 2.8403
-2.5514 -5.8787 2.8361
-2.4767 -5.8796 2.8321
-2.4025 -5.8802 2.8280
-2.3282 -5.8792 2.8233
-2.2544 -5.8781 2.8186
-2.1812 -5.8767 2.8140
-2.1084 -5.8752 2.8095
-2.0362 -5.8734 2.8050
-1.9642 -5.8710 2.8003
-1.8923 -5.8673 2.7952
-1.8210 -5.8636 2.7902
-1.7501 -5.8596 2.7852
-1.6797 -5.8555 2.7803
-0.9390 -3.4132 1.6190
-0.8989 -3.4124 1.6170
-0.8590 -3.4115 1.6151
-0.8193 -3.4107 1.6133
-0.7799 -3.4099 1.6115
-0.7406 -3.4091 1.6099
-0.7015 -3.4084 1.6083
-0.6627 -3.4076 1.6067
-0.6239 -3.4068 1.6053
-0.5854 -3.4061 1.6039
-0.5469 -3.4053 1.6026
-0.5086 -3.4046 1.6014
-0.4705 -3.4039 1.6002
-0.4325 -3.4031 1.5991
-0.3945 -3.4024 1.5981
-0.3567 -3.4017 1.5971
-0.3190 -3.4010 1.5962
-0.2814 -3.4003 1.5954
-0.2438 -3.3996 1.5946
-0.2063 -3.3990 1.5939
-0.1689 -3.3983 1.5933
-0.1315 -3.3976 1.5927
-0.0942 -3.3970 1.5922
-0.0569 -3.3963 1.5918
-0.0196 -3.3957 1.5914
0.0177 -3.3950 1.5911
0.0549 -3.3944 1.5909
0.0922 -3.3938 1.5907
0.1294 -3.3931 1.5906
0.1667 -3.3925 1.5906
0.2040 -3.3919 1.5906
0.2413 -3.3913 1.5907
0.2787 -3.3907 1.5908
0.3161 -3.3901 1.5910
0.3535 -3.3895 1.5913
0.3911 -3.3889 1.5917
0.4287 -3.3883 1.5921
0.4664 -3.3878 1.5926
0.5041 -3.3872 1.5931
0.5420 -3.3866 1.5937
0.5800 -3.3861 1.5944
0.6181 -3.3855 1.5952
0.6563 -3.3849 1.5960
0.6947 -3.3844 1.5969
0.7332 -3.3838 1.5978
0.7718 -3.3833 1.5989
0.8106 -3.3827 1.6000
0.8496 -3.3822 1.6011
0.8888 -3.3817 1.6024
1.6350 -5.9560 2.8250
1.7041 -5.9529 2.8264
1.7734 -5.9496 2.8278
1.8431 -5.9461 2.8293
1.9052 -5.9182 2.8193
1.9751 -5.9143 2.8208
2.0536 -5.9342 2.8339
2.1244 -5.9298 2.8355
2.1955 -5.9252 2.8371
2.2669 -5.9203 2.8387
2.3387 -5.9152 2.8403
2.4108 -5.9098 2.8420
2.4833 -5.9042 2.8437
2.5562 -5.8984 2.8454
2.6294 -5.8923 2.8472
2.7030 -5.8860 2.8489
2.7771 -5.8794 2.8507
-12.1065 -0.3356 2.6388
-12.0442 -0.4504 2.6620
-11.9824 -0.5641 2.6852
-11.9212 -0.6768 2.7085
-11.8772 -0.7897 2.7356
-11.8533 -0.9035 2.7676
-11.8295 -1.0171 2.7997
-11.8057 -1.1306 2.8320
-11.7819 -1.2438 2.8646
-11.7582 -1.3570 2.8973
-11.7441 -1.4712 2.9327
-11.7329 -1.5859 2.9691
-11.7217 -1.7008 3.0058
-11.7105 -1.8159 3.0429
-11.6993 -1.9312 3.0802
-11.5893 -2.0295 3.0916
-11.4195 -2.1150 3.0865
-11.2530 -2.1982 3.0814
-11.0895 -2.2792 3.0765
-10.9292 -2.3581 3.0718
-10.7718 -2.4350 3.0671
-10.6172 -2.5098 3.0626
-10.4654 -2.5828 3.0581
-10.3162 -2.6539 3.0538
-10.1690 -2.7231 3.0494
-10.0226 -2.7901 3.0446
-9.8791 -2.8555 3.0400
-9.7628 -2.9267 3.0432
-9.7426 -3.0259 3.0764
-9.7279 -3.1273 3.1116
-9.7131 -3.2290 3.1472
-9.6428 -3.3123 3.1650
-9.5071 -3.3716 3.1611
-9.3734 -3.4295 3.1572
-9.2418 -3.4860 3.1534
-9.1109 -3.5408 3.1493
-8.9820 -3.5942 3.1452
-8.8550 -3.6464 3.1413
-8.6992 -3.6844 3.1264
-8.6026 -3.7456 3.1323
-8.4774 -3.7926 3.1273
-8.3541 -3.8385 3.1224
-8.2326 -3.8834 3.1176
-8.1128 -3.9271 3.1129
-7.9946 -3.9698 3.1083
-7.8779 -4.0114 3.1037
-7.7591 -4.0501 3.0978
-7.6420 -4.0879 3.0919
-7.5266 -4.1247 3.0862
-7.4128 -4.1605 3.0806
-7.2988 -4.1945 3.0743
-7.1838 -4.2262 3.0671
-7.0705 -4.2569 3.0600
-6.9580 -4.2864 3.0526
-6.8430 -4.3125 3.0436
-6.7297 -4.3378 3.0347
-6.6135 -4.3594 3.0239
-6.4976 -4.3791 3.0125
-6.3776 -4.3940 2.9986
-6.2770 -4.4205 2.9931
-6.1828 -4.4499 2.9902
-6.0895 -4.4787 2.9873
-5.9972 -4.5069 2.9845
-5.9058 -4.5344 2.9817
-5.8154 -4.5613 2.9790
-5.7259 -4.5877 2.9764
-5.6373 -4.6134 2.9738
-5.5495 -4.6386 2.9712
-5.4626 -4.6633 2.9688
-5.3764 -4.6873 2.9663
-5.2911 -4.7109 2.9639
-5.2065 -4.7340 2.9616
-5.1227 -4.7565 2.9593
-5.0396 -4.7785 2.9570
-4.9572 -4.8001 2.9548
-4.8755 -4.8212 2.9526
-4.7945 -4.8418 2.9505
-4.7142 -4.8619 2.9484
-4.6345 -4.8816 2.9463
-4.5555 -4.9008 2.9443
-4.4770 -4.9196 2.9423
-4.3991 -4.9380 2.9404
-4.3219 -4.9560 2.9385
-4.2452 -4.9735 2.9367
-4.1690 -4.9907 2.9348
-4.0934 -5.0074 2.9330
-4.0183 -5.0238 2.9313
-3.9438 -5.0397 2.9296
-3.8697 -5.0553 2.9279
-3.7961 -5.0706 2.9262
-3.7230 -5.0854 2.9246
-3.6504 -5.0999 2.9230
-3.5782 -5.1141 2.9215
-3.5064 -5.1279 2.9199
-3.4351 -5.1413 2.9184
-3.3642 -5.1544 2.9170
-3.2937 -5.1672 2.9155
-3.2236 -5.1797 2.9141
-3.1539 -5.1918 2.9127
-3.0846 -5.2036 2.9114
-3.0156 -5.2151 2.9101
-2.9470 -5.2263 2.9088
-2.8787 -5.2372 2.9075
-2.8107 -5.2478 2.9062
-2.7431 -5.2581 2.9050
-2.6758 -5.2680 2.9038
-2.6088 -5.2777 2.9027
-2.5421 -5.2871 2.9015
-2.4757 -5.2963 2.9004
-2.4084 -5.3024 2.8978
-2.3402 -5.3056 2.8938
-2.2724 -5.3085 2.8899
-2.2050 -5.3112 2.8860
-2.1381 -5.3137 2.8821
-2.0715 -5.3159 2.8783
-2.0052 -5.3178 2.8745
-1.9390 -5.3185 2.8702
-1.8731 -5.3188 2.8659
-1.8076 -5.3189 2.8616
-1.7424 -5.3188 2.8574
-1.6776 -5.3184 2.8533
-1.6131 -5.3176 2.8490
-1.5486 -5.3155 2.8442
-1.4845 -5.3133 2.8395
-0.9179 -3.4313 1.8316
-0.8771 -3.4304 1.8291
-0.8366 -3.4295 1.8266
-0.7963 -3.4287 1.8243
-0.7561 -3.4278 1.8221
-0.7162 -3.4270 1.8200
-0.6765 -3.4262 1.8179
-0.6369 -3.4253 1.8160
-0.5975 -3.4245 1.8142
-0.5583 -3.4237 1.8125
-0.5192 -3.4230 1.8108
-0.4802 -3.4222 1.8093
-0.4414 -3.4214 1.8079
-0.4027 -3.4207 1.8065
-0.3641 -3.4199 1.8053
-0.3256 -3.4192 1.8041
-0.2871 -3.4185 1.8030
-0.2488 -3.4177 1.8020
-0.2105 -3.4170 1.8012
-0.1723 -3.4163 1.8004
-0.1342 -3.4156 1.7997
-0.0961 -3.4150 1.7990
-0.0580 -3.4143 1.7985
-0.0200 -3.4136 1.7981
0.0180 -3.4130 1.7977
0.0560 -3.4123 1.7975
0.0941 -3.4117 1.7973
0.1321 -3.4110 1.7972
0.1701 -3.4104 1.7972
0.2081 -3.4098 1.7973
0.2462 -3.4092 1.7975
0.2844 -3.4086 1.7978
0.3225 -3.4080 1.7982
0.3608 -3.4074 1.7986
0.3991 -3.4068 1.7992
0.4375 -3.4062 1.7998
0.4759 -3.4057 1.8005
0.5145 -3.4051 1.8013
0.5532 -3.4046 1.8022
0.5919 -3.4040 1.8032
0.6308 -3.4035 1.8043
0.6699 -3.4029 1.8055
0.7091 -3.4024 1.8068
0.7484 -3.4019 1.8082
0.7879 -3.4013 1.8097
0.8276 -3.4008 1.8112
0.8674 -3.4003 1.8129
1.4345 -5.3746 2.8687
1.4973 -5.3709 2.8701
1.5603 -5.3669 2.8715
1.6235 -5.3627 2.8729
1.6869 -5.3582 2.8744
1.7505 -5.3535 2.8759
1.8143 -5.3485 2.8774
1.8707 -5.3216 2.8672
1.9348 -5.3161 2.8687
2.0073 -5.3321 2.8820
2.0721 -5.3261 2.8836
2.1371 -5.3199 2.8852
2.2025 -5.3134 2.8869
2.2681 -5.3066 2.8885
2.3340 -5.2995 2.8902
2.4002 -5.2922 2.8920
2.4667 -5.2846 2.8937
2.5335 -5.2768 2.8955
-12.1784 -0.1684 3.2279
-11.9869 -0.2815 3.2143
-11.7994 -0.3912 3.2009
-11.6085 -0.4972 3.1857
-11.4292 -0.6004 3.1730
-11.2681 -0.7014 3.1646
-11.0978 -0.7989 3.1528
-10.9489 -0.8950 3.1465
-10.7918 -0.9878 3.1373
-10.6493 -1.0792 3.1316
-10.5099 -1.1685 3.1263
-10.3739 -1.2557 3.1215
-10.2395 -1.3408 3.1166
-10.1070 -1.4239 3.1118
-9.9770 -1.5051 3.1072
-9.8608 -1.5863 3.1065
-9.8384 -1.6816 3.1352
-9.8249 -1.7785 3.1671
-9.8112 -1.8756 3.1992
-9.7975 -1.9729 3.2317
-9.6871 -2.0499 3.2323
-9.5645 -2.1224 3.2284
-9.4436 -2.1934 3.2245
-9.3243 -2.2628 3.2208
-9.2065 -2.3307 3.2171
-9.0902 -2.3971 3.2135
-8.9755 -2.4620 3.2100
-8.8328 -2.5172 3.1959
-8.7456 -2.5864 3.2014
-8.6324 -2.6464 3.1971
-8.5208 -2.7052 3.1929
-8.4105 -2.7626 3.1888
-8.3016 -2.8188 3.1848
-8.1940 -2.8738 3.1808
-8.0877 -2.9276 3.1769
-7.9827 -2.9802 3.1731
-7.8779 -3.0313 3.1689
-7.7724 -3.0806 3.1641
-7.6683 -3.1287 3.1593
-7.5653 -3.1759 3.1547
-7.4637 -3.2220 3.1501
-7.3632 -3.2671 3.1456
-7.2623 -3.3105 3.1405
-7.1609 -3.3521 3.1348
-7.0608 -3.3928 3.1291
-6.9618 -3.4326 3.1236
-6.8621 -3.4705 3.1173
-6.7619 -3.5065 3.1103
-6.6629 -3.5417 3.1034
-6.5619 -3.5744 3.0951
-6.4612 -3.6055 3.0864
-6.3582 -3.6338 3.0761
-6.2539 -3.6596 3.0646
-6.1489 -3.6834 3.0522
-6.0633 -3.7172 3.0490
-5.9785 -3.7504 3.0458
-5.8945 -3.7829 3.0427
-5.8113 -3.8147 3.0396
-5.7289 -3.8458 3.0366
-5.6472 -3.8763 3.0337
-5.5662 -3.9062 3.0308
-5.4860 -3.9354 3.0280
-5.4064 -3.9641 3.0252
-5.3275 -3.9921 3.0225
-5.2493 -4.0196 3.0198
-5.1717 -4.0465 3.0172
-5.0947 -4.0729 3.0146
-5.0184 -4.0987 3.0121
-4.9426 -4.1240 3.0096
-4.8675 -4.1487 3.0072
-4.7929 -4.1730 3.0048
-4.7189 -4.1967 3.0024
-4.6454 -4.2199 3.0001
-4.5724 -4.2426 2.9979
-4.5000 -4.2649 2.9956
-4.4281 -4.2867 2.9935
-4.3567 -4.3080 2.9913
-4.2857 -4.3289 2.9892
-4.2153 -4.3493 2.9872
-4.1453 -4.3693 2.9851
-4.0758 -4.3888 2.9832
-4.0066 -4.4080 2.9812
-3.9380 -4.4267 2.9793
-3.8697 -4.4450 2.9774
-3.8019 -4.4629 2.9756
-3.7345 -4.4804 2.9738
-3.6674 -4.4975 2.9720
-3.6008 -4.5142 2.9703
-3.5345 -4.5305 2.9686
-3.4686 -4.5465 2.9669
-3.4030 -4.5621 2.9653
-3.3378 -4.5773 2.9637
-3.2729 -4.5922 2.9621
-3.2084 -4.6067 2.9605
-3.1442 -4.6209 2.9590
-3.0803 -4.6347 2.9575
-3.0166 -4.6482 2.9561
-2.9534 -4.6613 2.9547
-2.8903 -4.6742 2.9533
-2.8276 -4.6867 2.9519
-2.7652 -4.6988 2.9506
-2.7030 -4.7107 2.9492
-2.6411 -4.7222 2.9479
-2.5794 -4.7334 2.9467
-2.5180 -4.7444 2.9455
-2.4569 -4.7550 2.9442
-2.3959 -4.7653 2.9431
-2.3352 -4.7753 2.9419
-2.2748 -4.7850 2.9408
-2.2145 -4.7944 2.9397
-2.1545 -4.8036 2.9386
-2.0946 -4.8124 2.9375
-2.0346 -4.8201 2.9360
-1.9733 -4.8240 2.9322
-1.9124 -4.8276 2.9286
-1.8517 -4.8309 2.9249
-1.7914 -4.8340 2.9214
-1.7313 -4.8368 2.9178
-1.6715 -4.8394 2.9143
-1.6118 -4.8410 2.9105
-1.5522 -4.8421 2.9065
-1.4929 -4.8430 2.9025
-1.4339 -4.8436 2.8986
-1.3751 -4.8440 2.8947
-0.9381 -3.4515 2.0598
-0.8964 -3.4505 2.0566
-0.8549 -3.4496 2.0534
-0.8137 -3.4486 2.0505
-0.7726 -3.4477 2.0476
-0.7318 -3.4468 2.0449
-0.6911 -3.4459 2.0424
-0.6507 -3.4450 2.0399
-0.6104 -3.4442 2.0376
-0.5703 -3.4433 2.0354
-0.5303 -3.4425 2.0334
-0.4905 -3.4416 2.0314
-0.4508 -3.4408 2.0296
-0.4113 -3.4400 2.0279
-0.3718 -3.4392 2.0263
-0.3325 -3.4385 2.0249
-0.2933 -3.4377 2.0235
-0.2541 -3.4370 2.0223
-0.2150 -3.4362 2.0212
-0.1760 -3.4355 2.0203
-0.1370 -3.4348 2.0194
-0.0981 -3.4341 2.0186
-0.0592 -3.4334 2.0180
-0.0204 -3.4327 2.0175
0.0184 -3.4320 2.0171
0.0572 -3.4314 2.0168
0.0961 -3.4307 2.0167
0.1349 -3.4301 2.0166
0.1737 -3.4294 2.0167
0.2126 -3.4288 2.0168
0.2515 -3.4282 2.0171
0.2904 -3.4276 2.0175
0.3294 -3.4270 2.0181
0.3685 -3.4264 2.0187
0.4076 -3.4258 2.0195
0.4468 -3.4253 2.0204
0.4861 -3.4247 2.0213
0.5255 -3.4241 2.0225
0.5650 -3.4236 2.0237
0.6047 -3.4231 2.0250
0.6444 -3.4225 2.0265
0.6843 -3.4220 2.0281
0.7244 -3.4215 2.0298
0.7646 -3.4210 2.0317
0.8050 -3.4205 2.0337
0.8455 -3.4200 2.0357
0.8863 -3.4195 2.0380
1.3214 -4.8724 2.9076
1.3790 -4.8681 2.9089
1.4368 -4.8635 2.9103
1.4947 -4.8586 2.9117
1.5528 -4.8535 2.9131
1.6111 -4.8481 2.9145
1.6695 -4.8425 2.9160
1.7282 -4.8366 2.9175
1.7870 -4.8305 2.9190
1.8385 -4.8044 2.9086
1.8974 -4.7977 2.9102
1.9646 -4.8103 2.9236
2.0242 -4.8031 2.9253
2.0841 -4.7956 2.9269
2.1441 -4.7877 2.9286
2.2045 -4.7796 2.9302
2.2650 -4.7713 2.9320
2.3257 -4.7626 2.9337
-10.1559 0.0041 3.1813
-10.0958 -0.0933 3.1942
-10.0613 -0.1901 3.2152
-10.0269 -0.2864 3.2364
-9.9926 -0.3822 3.2578
-9.9656 -0.4778 3.2818
-9.9327 -0.5727 3.3040
-9.8169 -0.6616 3.2985
-9.7051 -0.7488 3.2939
-9.5946 -0.8342 3.2895
-9.4854 -0.9177 3.2852
-9.3781 -0.9996 3.2811
-9.2725 -1.0799 3.2773
-9.1680 -1.1586 3.2736
-9.0638 -1.2355 3.2696
-8.9363 -1.3073 3.2568
-8.8344 -1.3809 3.2529
-8.7573 -1.4569 3.2579
-8.6573 -1.5278 3.2541
-8.5584 -1.5972 3.2504
-8.4606 -1.6653 3.2468
-8.3637 -1.7320 3.2432
-8.2678 -1.7973 3.2397
-8.1729 -1.8614 3.2363
-8.0790 -1.9243 3.2329
-7.9859 -1.9859 3.2297
-7.8931 -2.0461 3.2262
-7.7997 -2.1048 3.2221
-7.7072 -2.1622 3.2181
-7.6157 -2.2186 3.2142
-7.5251 -2.2738 3.2103
-7.4353 -2.3279 3.2065
-7.3465 -2.3810 3.2028
-7.2584 -2.4330 3.1992
-7.1693 -2.4834 3.1947
-7.0806 -2.5325 3.1902
-6.9927 -2.5807 3.1857
-6.9057 -2.6279 3.1812
-6.8196 -2.6741 3.1769
-6.7315 -2.7183 3.1713
-6.6443 -2.7616 3.1658
-6.5580 -2.8039 3.1604
-6.4701 -2.8443 3.1539
-6.3824 -2.8835 3.1471
-6.2938 -2.9209 3.1395
-6.2043 -2.9566 3.1311
-6.1122 -2.9896 3.1209
-6.0174 -3.0198 3.1089
-5.9335 -3.0541 3.1021
-5.8567 -3.0910 3.0986
-5.7805 -3.1270 3.0953
-5.7049 -3.1624 3.0920
-5.6299 -3.1971 3.0887
-5.5556 -3.2312 3.0856
-5.4818 -3.2645 3.0824
-5.4086 -3.2973 3.0794
-5.3359 -3.3293 3.0763
-5.2639 -3.3608 3.0734
-5.1923 -3.3917 3.0705
-5.1213 -3.4219 3.0676
-5.0507 -3.4516 3.0648
-4.9807 -3.4806 3.0620
-4.9112 -3.5092 3.0593
-4.8422 -3.5371 3.0567
-4.7736 -3.5645 3.0540
-4.7055 -3.5914 3.0515
-4.6379 -3.6177 3.0490
-4.5707 -3.6436 3.0465
-4.5039 -3.6689 3.0440
-4.4376 -3.6937 3.0417
-4.3716 -3.7180 3.0393
-4.3061 -3.7419 3.0370
-4.2410 -3.7652 3.0347
-4.1762 -3.7881 3.0325
-4.1119 -3.8105 3.0303
-4.0479 -3.8325 3.0282
-3.9843 -3.8540 3.0261
-3.9210 -3.8751 3.0240
-3.8581 -3.8958 3.0220
-3.7955 -3.9160 3.0200
-3.7333 -3.9358 3.0180
-3.6714 -3.9552 3.0161
-3.6098 -3.9742 3.0142
-3.5485 -3.9928 3.0123
-3.4876 -4.0110 3.0105
-3.4269 -4.0288 3.0087
-3.3665 -4.0462 3.0070
-3.3064 -4.0632 3.0052
-3.2466 -4.0799 3.0035
-3.1871 -4.0962 3.0019
-3.1278 -4.1121 3.0002
-3.0688 -4.1277 2.9986
-3.0101 -4.1429 2.9971
-2.9516 -4.1577 2.9955
-2.8933 -4.1722 2.9940
-2.8353 -4.1864 2.9926
-2.7775 -4.2002 2.9911
-2.7200 -4.2137 2.9897
-2.6626 -4.2269 2.9883
-2.6055 -4.2397 2.9869
-2.5486 -4.2522 2.9856
-2.4919 -4.2644 2.9843
-2.4354 -4.2763 2.9830
-2.3791 -4.2879 2.9817
-2.3230 -4.2991 2.9805
-2.2670 -4.3101 2.9793
-2.2113 -4.3207 2.9781
-2.1557 -4.3311 2.9770
-2.1003 -4.3411 2.9758
-2.0451 -4.3509 2.9747
-1.9900 -4.3603 2.9736
-1.9351 -4.3695 2.9726
-1.8803 -4.3784 2.9715
-1.8257 -4.3870 2.9705
-1.7712 -4.3953 2.9696
-1.7169 -4.4033 2.9686
-1.6616 -4.4081 2.9657
-1.6062 -4.4119 2.9623
-1.5510 -4.4154 2.9589
-1.4961 -4.4187 2.9556
-1.4414 -4.4217 2.9523
-1.3869 -4.4244 2.9491
-1.3325 -4.4267 2.9457
-1.2781 -4.4281 2.9420
-1.0498 -3.7987 2.5201
-0.9170 -3.4720 2.3000
-0.8745 -3.4710 2.2961
-0.8323 -3.4699 2.2924
-0.7902 -3.4689 2.2889
-0.7484 -3.4680 2.2856
-0.7068 -3.4670 2.2824
-0.6654 -3.4661 2.2794
-0.6242 -3.4651 2.2765
-0.5832 -3.4642 2.2738
-0.5423 -3.4633 2.2713
-0.5016 -3.4625 2.2689
-0.4610 -3.4616 2.2666
-0.4205 -3.4607 2.2646
-0.3802 -3.4599 2.2626
-0.3399 -3.4591 2.2609
-0.2998 -3.4583 2.2592
-0.2598 -3.4575 2.2577
-0.2198 -3.4567 2.2564
-0.1799 -3.4560 2.2552
-0.1401 -3.4552 2.2542
-0.1003 -3.4545 2.2533
-0.0606 -3.4538 2.2526
-0.0209 -3.4531 2.2520
0.0188 -3.4524 2.2515
0.0585 -3.4517 2.2512
0.0982 -3.4510 2.2510
0.1379 -3.4504 2.2510
0.1776 -3.4497 2.2511
0.2173 -3.4491 2.2514
0.2571 -3.4485 2.2518
0.2969 -3.4479 2.2524
0.3368 -3.4473 2.2531
0.3767 -3.4467 2.2539
0.4167 -3.4461 2.2549
0.4568 -3.4456 2.2561
0.4970 -3.4450 2.2574
0.5373 -3.4445 2.2588
0.5777 -3.4439 2.2604
0.6182 -3.4434 2.2621
0.6589 -3.4429 2.2640
0.6997 -3.4424 2.2661
0.7407 -3.4420 2.2683
0.7819 -3.4415 2.2707
0.8232 -3.4410 2.2732
0.8647 -3.4406 2.2759
0.9939 -3.7720 2.4985
1.2227 -4.4343 2.9415
1.2758 -4.4296 2.9428
1.3291 -4.4246 2.9441
1.3825 -4.4193 2.9454
1.4360 -4.4138 2.9468
1.4897 -4.4080 2.9482
1.5435 -4.4019 2.9496
1.5974 -4.3956 2.9510
1.6515 -4.3890 2.9525
1.7057 -4.3821 2.9540
1.7601 -4.3750 2.9555
1.8073 -4.3498 2.9450
1.8618 -4.3421 2.9466
1.9243 -4.3518 2.9602
1.9793 -4.3435 2.9618
2.0346 -4.3349 2.9635
2.0900 -4.3261 2.9651
2.1456 -4.3169 2.9668
-9.1797 0.1379 3.3304
-9.0882 0.0490 3.3261
-8.9975 -0.0382 3.3220
-8.9075 -0.1238 3.3179
-8.8184 -0.2077 3.3139
-8.7302 -0.2901 3.3100
-8.6428 -0.3710 3.3063
-8.5561 -0.4504 3.3025
-8.4701 -0.5284 3.2989
-8.3848 -0.6049 3.2953
-8.3001 -0.6800 3.2918
-8.2162 -0.7537 3.2883
-8.1329 -0.8261 3.2849
-8.0503 -0.8972 3.2816
-7.9683 -0.9670 3.2783
-7.8869 -1.0355 3.2750
-7.8060 -1.1028 3.2718
-7.7250 -1.1687 3.2683
-7.6447 -1.2335 3.2649
-7.5650 -1.2972 3.2615
-7.4859 -1.3596 3.2583
-7.4074 -1.4210 3.2550
-7.3294 -1.4812 3.2518
-7.2521 -1.5404 3.2487
-7.1753 -1.5986 3.2456
-7.0991 -1.6557 3.2426
-7.0218 -1.7114 3.2389
-6.9449 -1.7660 3.2352
-6.8687 -1.8197 3.2316
-6.7930 -1.8724 3.2280
-6.7179 -1.9241 3.2244
-6.6427 -1.9747 3.2207
-6.5667 -2.0240 3.2163
-6.4913 -2.0723 3.2119
-6.4164 -2.1197 3.2077
-6.3407 -2.1658 3.2027
-6.2646 -2.2106 3.1974
-6.1888 -2.2544 3.1919
-6.1112 -2.2965 3.1852
-6.0330 -2.3371 3.1780
-5.9530 -2.3759 3.1695
-5.8696 -2.4121 3.1588
-5.7910 -2.4491 3.1504
-5.7216 -2.4889 3.1468
-5.6528 -2.5279 3.1432
-5.5845 -2.5663 3.1397
-5.5166 -2.6040 3.1363
-5.4492 -2.6409 3.1329
-5.3822 -2.6772 3.1295
-5.3157 -2.7129 3.1263
-5.2497 -2.7478 3.1231
-5.1841 -2.7822 3.1199
-5.1189 -2.8159 3.1168
-5.0541 -2.8490 3.1137
-4.9897 -2.8815 3.1107
-4.9257 -2.9134 3.1078
-4.8621 -2.9447 3.1049
-4.7989 -2.9754 3.1020
-4.7361 -3.0056 3.0992
-4.6737 -3.0352 3.0965
-4.6116 -3.0643 3.0937
-4.5499 -3.0928 3.0911
-4.4885 -3.1208 3.0885
-4.4275 -3.1483 3.0859
-4.3667 -3.1752 3.0833
-4.3064 -3.2017 3.0809
-4.2463 -3.2277 3.0784
-4.1866 -3.2531 3.0760
-4.1272 -3.2781 3.0736
-4.0681 -3.3027 3.0713
-4.0093 -3.3267 3.0690
-3.9507 -3.3503 3.0668
-3.8925 -3.3734 3.0646
-3.8346 -3.3961 3.0624
-3.7769 -3.4184 3.0603
-3.7195 -3.4402 3.0582
-3.6624 -3.4616 3.0561
-3.6055 -3.4826 3.0541
-3.5489 -3.5032 3.0521
-3.4925 -3.5233 3.0501
-3.4364 -3.5431 3.0482
-3.3805 -3.5624 3.0463
-3.3249 -3.5814 3.0445
-3.2695 -3.5999 3.0426
-3.2143 -3.6181 3.0408
-3.1593 -3.6359 3.0391
-3.1046 -3.6534 3.0374
-3.0501 -3.6704 3.0357
-2.9958 -3.6871 3.0340
-2.9416 -3.7035 3.0324
-2.8877 -3.7194 3.0308
-2.8340 -3.7351 3.0292
-2.7805 -3.7503 3.0276
-2.7271 -3.7653 3.0261
-2.6739 -3.7799 3.0246
-2.6210 -3.7941 3.0232
-2.5682 -3.8081 3.0218
-2.5155 -3.8217 3.0204
-2.4631 -3.8349 3.0190
-2.4107 -3.8479 3.0176
-2.3586 -3.8605 3.0163
-2.3066 -3.8728 3.0150
-2.2548 -3.8848 3.0137
-2.2031 -3.8965 3.0125
-2.1516 -3.9079 3.0113
-2.1002 -3.9190 3.0101
-2.0489 -3.9298 3.0089
-1.9978 -3.9403 3.0078
-1.9468 -3.9504 3.0067
-1.8959 -3.9603 3.0056
-1.8451 -3.9699 3.0045
-1.7945 -3.9792 3.0035
-1.7440 -3.9883 3.0024
-1.6936 -3.9970 3.0015
-1.6433 -4.0055 3.0005
-1.5931 -4.0136 2.9995
-1.5430 -4.0215 2.9986
-1.4931 -4.0292 2.9977
-1.4432 -4.0365 2.9968
-1.3931 -4.0427 2.9953
-1.3424 -4.0464 2.9922
-1.2918 -4.0499 2.9891
-1.2415 -4.0530 2.9860
-1.1913 -4.0559 2.9830
-1.1412 -4.0586 2.9800
-0.9392 -3.4951 2.5622
-0.8956 -3.4940 2.5575
-0.8523 -3.4929 2.5531
-0.8092 -3.4918 2.5488
-0.7664 -3.4908 2.5447
-0.7237 -3.4897 2.5408
-0.6813 -3.4887 2.5372
-0.6391 -3.4877 2.5337
-0.5970 -3.4867 2.5304
-0.5552 -3.4858 2.5273
-0.5134 -3.4848 2.5245
-0.4719 -3.4839 2.5218
-0.3891 -3.4821 2.5169
-0.4304 -3.4830 2.5192
-0.3479 -3.4813 2.5148
-0.1434 -3.4772 2.5068
-0.3069 -3.4804 2.5128
-0.1027 -3.4765 2.5057
-0.2659 -3.4796 2.5110
-0.0620 -3.4757 2.5049
-0.2250 -3.4788 2.5094
-0.0213 -3.4750 2.5042
-0.1841 -3.4780 2.5080
0.0193 -3.4743 2.5036
0.1005 -3.4729 2.5031
0.1411 -3.4722 2.5032
0.0599 -3.4736 2.5033
0.1817 -3.4716 2.5033
0.3447 -3.4691 2.5059
0.2224 -3.4709 2.5037
0.3855 -3.4685 2.5070
0.2631 -3.4703 2.5043
0.4265 -3.4680 2.5083
0.3038 -3.4697 2.5050
0.4675 -3.4674 2.5097
0.5913 -3.4659 2.5151
0.5087 -3.4669 2.5113
0.6329 -3.4654 2.5173
0.5500 -3.4664 2.5131
0.6745 -3.4649 2.5197
0.8429 -3.4631 2.5311
0.8854 -3.4627 2.5344
0.7164 -3.4644 2.5223
1.0863 -4.0520 2.9702
0.7583 -3.4640 2.5250
1.1354 -4.0472 2.9714
0.8005 -3.4635 2.5280
1.2834 -4.0315 2.9752
1.1847 -4.0422 2.9727
1.2340 -4.0370 2.9739
1.3329 -4.0257 2.9766
1.3825 -4.0196 2.9779
1.5821 -3.9927 2.9835
1.4323 -4.0133 2.9793
1.6323 -3.9852 2.9850
1.4821 -4.0067 2.9807
1.6827 -3.9775 2.9865
1.5321 -3.9998 2.9821
1.7331 -3.9696 2.9880
1.7764 -3.9452 2.9774
1.8269 -3.9366 2.9789
1.8775 -3.9278 2.9805
1.9362 -3.9347 2.9943
1.9873 -3.9253 2.9959
-8.0469 0.2425 3.3314
-7.9756 0.1637 3.3277
-7.9047 0.0861 3.3241
-7.8341 0.0099 3.3205
-7.7639 -0.0651 3.3169
-7.6941 -0.1388 3.3134
-7.6249 -0.2113 3.3101
-7.5560 -0.2826 3.3068
-7.4874 -0.3527 3.3035
-7.4192 -0.4217 3.3003
-7.3513 -0.4896 3.2972
-7.2838 -0.5563 3.2941
-7.2165 -0.6220 3.2910
-7.1496 -0.6865 3.2880
-7.0831 -0.7501 3.2850
-7.0169 -0.8125 3.2821
-6.9510 -0.8740 3.2792
-6.8854 -0.9345 3.2764
-6.8202 -0.9940 3.2736
-6.7549 -1.0525 3.2706
-6.6896 -1.1099 3.2676
-6.6247 -1.1665 3.2647
-6.5602 -1.2221 3.2618
-6.4959 -1.2768 3.2589
-6.4320 -1.3306 3.2561
-6.3676 -1.3834 3.2529
-6.3029 -1.4352 3.2495
-6.2385 -1.4861 3.2461
-6.1746 -1.5361 3.2427
-6.1095 -1.5849 3.2386
-6.0445 -1.6329 3.2345
-5.9789 -1.6797 3.2299
-5.9127 -1.7254 3.2247
-5.8450 -1.7696 3.2186
-5.7753 -1.8123 3.2112
-5.7021 -1.8528 3.2016
-5.6340 -1.8939 3.1946
-5.5718 -1.9361 3.1908
-5.5100 -1.9775 3.1871
-5.4486 -2.0183 3.1834
-5.3875 -2.0583 3.1798
-5.3268 -2.0977 3.1763
-5.2664 -2.1364 3.1728
-5.2063 -2.1744 3.1694
-5.1466 -2.2117 3.1660
-5.0872 -2.2485 3.1627
-5.0281 -2.2846 3.1594
-4.9693 -2.3200 3.1562
-4.9108 -2.3549 3.1530
-4.8527 -2.3892 3.1499
-4.7948 -2.4228 3.1469
-4.7372 -2.4559 3.1439
-4.6799 -2.4884 3.1409
-4.6229 -2.5204 3.1380
-4.5662 -2.5518 3.1351
-4.5097 -2.5826 3.1323
-4.4536 -2.6130 3.1295
-4.3976 -2.6428 3.1268
-4.3420 -2.6720 3.1241
-4.2866 -2.7008 3.1214
-4.2314 -2.7290 3.1188
-4.1766 -2.7567 3.1162
-4.1219 -2.7840 3.1137
-4.0675 -2.8108 3.1112
-4.0133 -2.8371 3.1088
-3.9594 -2.8629 3.1064
-3.9057 -2.8882 3.1040
-3.8521 -2.9131 3.1017
-3.7989 -2.9376 3.0994
-3.7458 -2.9616 3.0972
-3.6930 -2.9851 3.0950
-3.6403 -3.0083 3.0928
-3.5879 -3.0310 3.0906
-3.5357 -3.0533 3.0885
-3.4837 -3.0751 3.0865
-3.4318 -3.0966 3.0844
-3.3802 -3.1177 3.0824
-3.3287 -3.1383 3.0805
-3.2775 -3.1586 3.0785
-3.2264 -3.1784 3.0766
-3.1755 -3.1979 3.0747
-3.1248 -3.2170 3.0729
-3.0742 -3.2357 3.0711
-3.0238 -3.2541 3.0693
-2.9736 -3.2720 3.0676
-2.9235 -3.2897 3.0659
-2.8736 -3.3069 3.0642
-2.8238 -3.3238 3.0625
-2.7742 -3.3403 3.0609
-2.7248 -3.3565 3.0593
-2.6755 -3.3724 3.0577
-2.6263 -3.3879 3.0562
-2.5773 -3.4031 3.0547
-2.5284 -3.4179 3.0532
-2.4797 -3.4324 3.0518
-2.4311 -3.4466 3.0503
-2.3826 -3.4605 3.0489
-2.3343 -3.4740 3.0475
-2.2860 -3.4872 3.0462
-2.2379 -3.5002 3.0449
-2.1900 -3.5127 3.0436
-2.1421 -3.5250 3.0423
-2.0943 -3.5370 3.0411
-2.0467 -3.5487 3.0399
-1.9991 -3.5601 3.0387
-1.9517 -3.5711 3.0375
-1.9044 -3.5819 3.0363
-1.8572 -3.5924 3.0352
-1.8101 -3.6026 3.0341
-1.7630 -3.6125 3.0331
-1.7161 -3.6221 3.0320
-1.6692 -3.6314 3.0310
-1.6225 -3.6405 3.0300
-1.5758 -3.6493 3.0290
-1.5292 -3.6577 3.0281
-1.4827 -3.6659 3.0271
-1.4363 -3.6739 3.0262
-1.3899 -3.6815 3.0253
-1.3437 -3.6889 3.0245
-1.2974 -3.6960 3.0236
-1.2513 -3.7029 3.0228
-1.2052 -3.7095 3.0220
-1.1592 -3.7158 3.0213
-0.9733 -3.7290 3.0107
-1.1128 -3.7203 3.0192
-0.9271 -3.7314 3.0080
-1.0662 -3.7234 3.0164
-1.0197 -3.7263 3.0135
-0.8810 -3.7335 3.0053
-0.8350 -3.7353 3.0025
-0.6973 -3.7377 2.9932
-0.7889 -3.7363 2.9994
-0.6516 -3.7381 2.9902
-0.7430 -3.7372 2.9963
-0.6061 -3.7382 2.9873
-0.4247 -3.7339 2.9738
-0.5605 -3.7376 2.9839
-0.3797 -3.7328 2.9710
-0.5152 -3.7366 2.9805
-0.3352 -3.7356 2.9716
-0.4699 -3.7353 2.9772
-0.2907 -3.7382 2.9721
-0.1571 -3.7445 2.9739
-0.2462 -3.7406 2.9727
-0.1052 -3.5003 2.7793
-0.2017 -3.7427 2.9733
-0.0635 -3.4995 2.7783
0.1030 -3.4966 2.7763
0.1446 -3.4959 2.7764
-0.0219 -3.4987 2.7775
0.1862 -3.4952 2.7767
0.0198 -3.4980 2.7769
0.2279 -3.4946 2.7771
0.0614 -3.4973 2.7765
0.2696 -3.4940 2.7778
0.3532 -3.4928 2.7799
0.3114 -3.4934 2.7788
0.3951 -3.4922 2.7812
0.6489 -3.7360 2.9884
0.4371 -3.4916 2.7828
0.6941 -3.7331 2.9894
0.4792 -3.4911 2.7846
0.7393 -3.7301 2.9904
0.5214 -3.4906 2.7866
0.6038 -3.7385 2.9874
0.7846 -3.7267 2.9914
0.9208 -3.7152 2.9947
0.8299 -3.7231 2.9925
0.9663 -3.7108 2.9959
0.8753 -3.7193 2.9936
1.0119 -3.7062 2.9970
1.1949 -3.6851 3.0019
1.0575 -3.7013 2.9982
1.2409 -3.6792 3.0031
1.1032 -3.6962 2.9994
1.2869 -3.6730 3.0044
1.1490 -3.6908 3.0006
1.3330 -3.6665 3.0057
1.4719 -3.6454 3.0098
1.3792 -3.6597 3.0071
1.5184 -3.6379 3.0112
1.4255 -3.6527 3.0084
1.5650 -3.6300 3.0127
1.6117 -3.6219 3.0141
1.6585 -3.6135 3.0156
1.7053 -3.6048 3.0171
1.7452 -3.5813 3.0064
1.7921 -3.5720 3.0079
1.8391 -3.5625 3.0095
-7.1328 0.3269 3.3322
-7.0762 0.2564 3.3290
-7.0195 0.1869 3.3257
-6.9629 0.1184 3.3225
-6.9064 0.0510 3.3193
-6.8501 -0.0154 3.3162
-6.7940 -0.0809 3.3132
-6.7382 -0.1453 3.3102
-6.6824 -0.2088 3.3073
-6.6268 -0.2714 3.3045
-6.5713 -0.3330 3.3016
-6.5159 -0.3938 3.2988
-6.4607 -0.4536 3.2960
-6.4055 -0.5125 3.2933
-6.3506 -0.5706 3.2906
-6.2958 -0.6278 3.2879
-6.2411 -0.6841 3.2853
-6.1865 -0.7396 3.2827
-6.1321 -0.7943 3.2802
-6.0779 -0.8482 3.2777
-6.0237 -0.9012 3.2752
-5.9698 -0.9535 3.2728
-5.9155 -1.0049 3.2701
-5.8613 -1.0556 3.2675
-5.8071 -1.1054 3.2647
-5.7521 -1.1543 3.2615
-5.6964 -1.2023 3.2579
-5.6396 -1.2492 3.2534
-5.5801 -1.2947 3.2474
-5.5168 -1.3383 3.2390
-5.4613 -1.3830 3.2351
-5.4061 -1.4270 3.2312
-5.3511 -1.4703 3.2274
-5.2963 -1.5129 3.2236
-5.2417 -1.5547 3.2199
-5.1874 -1.5960 3.2162
-5.1334 -1.6365 3.2126
-5.0795 -1.6764 3.2091
-5.0259 -1.7157 3.2056
-4.9725 -1.7543 3.2022
-4.9193 -1.7923 3.1988
-4.8663 -1.8297 3.1954
-4.8136 -1.8665 3.1921
-4.7610 -1.9027 3.1889
-4.7087 -1.9383 3.1857
-4.6566 -1.9733 3.1826
-4.6047 -2.0077 3.1795
-4.5530 -2.0416 3.1764
-4.5014 -2.0750 3.1734
-4.4501 -2.1078 3.1705
-4.3990 -2.1401 3.1676
-4.3481 -2.1718 3.1647
-4.2973 -2.2030 3.1619
-4.2467 -2.2337 3.1591
-4.1964 -2.2639 3.1564
-4.1462 -2.2936 3.1537
-4.0962 -2.3228 3.1510
-4.0463 -2.3515 3.1484
-3.8978 -2.4348 3.1408
-3.9966 -2.3797 3.1458
-3.8487 -2.4616 3.1383
-3.9471 -2.4075 3.1433
-3.7997 -2.4880 3.1359
-3.6053 -2.5890 3.1266
-3.7508 -2.5139 3.1335
-3.5571 -2.6132 3.1244
-3.7021 -2.5394 3.1312
-3.5090 -2.6370 3.1222
-3.4611 -2.6603 3.1200
-3.6536 -2.5644 3.1289
-3.4134 -2.6832 3.1179
-3.3183 -2.7279 3.1137
-3.3658 -2.7057 3.1158
-3.2710 -2.7496 3.1117
-3.0363 -2.8524 3.1020
-3.2238 -2.7709 3.1097
-2.9898 -2.8718 3.1002
-3.1767 -2.7919 3.1077
-2.9434 -2.8909 3.0984
-3.1298 -2.8124 3.1058
-2.8971 -2.9096 3.0966
-3.0830 -2.8326 3.1039
-2.8510 -2.9280 3.0948
-2.7590 -2.9636 3.0914
-2.8049 -2.9459 3.0931
-2.4858 -3.0622 3.0818
-2.7132 -2.9809 3.0897
-2.4407 -3.0775 3.0803
-2.6675 -2.9978 3.0881
-2.3956 -3.0924 3.0789
-2.6219 -3.0144 3.0865
-2.3506 -3.1070 3.0774
-2.3058 -3.1214 3.0760
-2.5764 -3.0307 3.0849
-2.2610 -3.1353 3.0746
-2.5311 -3.0466 3.0834
-2.2163 -3.1490 3.0733
-1.9502 -3.2246 3.0656
-2.1718 -3.1624 3.0719
-2.1273 -3.1754 3.0706
-1.9061 -3.2362 3.0644
-2.0829 -3.1882 3.0693
-1.8622 -3.2474 3.0633
-2.0386 -3.2006 3.0681
-1.8183 -3.2584 3.0621
-1.9944 -3.2128 3.0668
-1.7745 -3.2691 3.0610
-1.6870 -3.2896 3.0588
-1.7307 -3.2795 3.0599
-1.6434 -3.2994 3.0578
-1.4264 -3.3443 3.0529
-1.5999 -3.3090 3.0568
-1.3832 -3.3525 3.0520
-1.5564 -3.3182 3.0558
-1.3400 -3.3604 3.0511
-1.5130 -3.3272 3.0548
-1.4696 -3.3359 3.0539
-1.2969 -3.3680 3.0503
-1.1679 -3.3893 3.0478
-1.2538 -3.3754 3.0494
-1.1250 -3.3958 3.0470
-1.2108 -3.3824 3.0486
-1.0822 -3.4021 3.0463
-0.9112 -3.4247 3.0435
-1.0394 -3.4082 3.0455
-0.8682 -3.4280 3.0413
-0.9966 -3.4139 3.0448
-0.9539 -3.4194 3.0441
-0.8251 -3.4305 3.0388
-0.7821 -3.4328 3.0362
