ply
format ascii 1.0
element vertex 2031
property float32 x
property float32 y
property float32 z
end_header
-11.4495 -4.6237 -0.8766
-11.4260 -5.0010 -0.7866
-11.3904 -5.5153 -0.6666
-11.4148 -5.1271 -0.7565
-11.3821 -5.6468 -0.6367
-11.4067 -5.2555 -0.7265
-11.3986 -5.3849 -0.6966
-11.3738 -5.7793 -0.6067
-11.3397 -6.3213 -0.4865
-11.3654 -5.9130 -0.5767
-11.3310 -6.4600 -0.4563
-11.3569 -6.0479 -0.5467
-11.3483 -6.1840 -0.5166
-11.3222 -6.5999 -0.4261
-11.3133 -6.7413 -0.3958
-11.2861 -7.1744 -0.3044
-11.3044 -6.8842 -0.3654
-11.2768 -7.3219 -0.2738
-11.2953 -7.0285 -0.3350
-11.2675 -7.4710 -0.2431
-11.2580 -7.6219 -0.2122
-11.2287 -8.0853 -0.1189
-11.2184 -8.2434 -0.0876
-11.2484 -7.7745 -0.1812
-11.2080 -8.4035 -0.0560
-11.2387 -7.9290 -0.1501
-11.1975 -8.5658 -0.0243
-11.1868 -8.7302 0.0075
-11.1760 -8.8968 0.0395
-11.1651 -9.0658 0.0718
-11.1539 -9.2372 0.1042
-11.1427 -9.4111 0.1368
-11.1312 -9.5875 0.1697
-11.1196 -9.7666 0.2028
-11.1078 -9.9486 0.2362
-11.0958 -10.1334 0.2698
-11.0836 -10.3211 0.3037
-11.0712 -10.5120 0.3378
-11.0586 -10.7060 0.3723
-20.8976 15.4533 -8.1876
-21.2984 15.4166 -8.2162
-21.7131 15.3824 -8.2477
-21.8359 15.1384 -8.1675
-22.2899 15.1204 -8.2102
-22.2904 14.7928 -8.0855
-22.9755 14.9144 -8.2076
-38.7370 14.3865 -9.9012
-39.6098 14.2663 -9.9686
-39.6498 13.8395 -9.8247
-14.7779 1.7874 -2.5372
-14.0335 1.5592 -2.3655
-13.0842 1.0692 -2.0846
-13.6444 1.3820 -2.2576
-12.8628 0.9257 -2.0102
-13.3139 1.2181 -2.1619
-12.6808 0.7891 -1.9435
-12.5438 0.6587 -1.8848
-12.1858 0.2856 -1.7226
-12.4100 0.5313 -1.8277
-12.1222 0.1669 -1.6781
-12.2791 0.4067 -1.7720
-12.0593 0.0495 -1.6342
-11.8512 -0.4092 -1.4695
-11.9970 -0.0666 -1.5910
-11.8280 -0.5227 -1.4329
-11.9354 -0.1816 -1.5483
-11.8050 -0.6358 -1.3966
-11.8745 -0.2953 -1.5063
-11.7820 -0.7485 -1.3606
-11.7293 -1.0863 -1.2559
-11.7591 -0.8609 -1.3249
-11.7190 -1.1993 -1.2222
-11.7397 -0.9733 -1.2898
-11.7086 -1.3123 -1.1886
-11.6556 -1.7629 -1.0548
-11.6983 -1.4253 -1.1552
-11.6396 -1.8752 -1.0214
-11.6877 -1.5383 -1.1219
-11.6235 -1.9876 -0.9883
-11.6717 -1.6506 -1.0883
-11.6059 -2.0996 -0.9551
-11.5846 -2.4429 -0.8588
-11.5988 -2.2137 -0.9229
-11.5917 -2.3281 -0.8908
-11.5774 -2.5579 -0.8268
-11.5413 -3.1387 -0.6678
-11.5702 -2.6733 -0.7949
-11.5341 -3.2562 -0.6362
-11.5631 -2.7890 -0.7631
-11.5267 -3.3742 -0.6045
-11.5558 -2.9052 -0.7313
-11.5194 -3.4927 -0.5729
-11.5486 -3.0217 -0.6996
-11.5120 -3.6118 -0.5413
-11.4971 -3.8517 -0.4781
-11.5045 -3.7314 -0.5097
-11.4896 -3.9726 -0.4465
-11.4514 -4.5876 -0.2882
-11.4820 -4.0941 -0.4149
-11.4436 -4.7130 -0.2564
-11.4744 -4.2164 -0.3832
-11.4358 -4.8392 -0.2246
-11.4668 -4.3393 -0.3516
-11.4279 -4.9663 -0.1927
-11.4591 -4.4631 -0.3199
-11.4164 -5.0928 -0.1607
-11.4083 -5.2217 -0.1287
-11.4001 -5.3516 -0.0966
-11.3497 -6.1542 0.0981
-11.3919 -5.4826 -0.0644
-11.3410 -6.2922 0.1310
-11.3836 -5.6146 -0.0321
-11.3322 -6.4315 0.1640
-11.3752 -5.7477 0.0003
-11.3234 -6.5722 0.1972
-11.3668 -5.8820 0.0328
-11.3145 -6.7144 0.2305
-11.3583 -6.0175 0.0654
-11.3054 -6.8580 0.2640
-11.2963 -7.0031 0.2977
-11.2394 -7.9090 0.5041
-11.2871 -7.1498 0.3315
-11.2289 -8.0660 0.5393
-11.2778 -7.2981 0.3656
-11.2186 -8.2252 0.5748
-11.2683 -7.4482 0.3999
-11.2081 -8.3865 0.6105
-11.2588 -7.5999 0.4344
-11.1975 -8.5498 0.6465
-11.2492 -7.7536 0.4691
-11.1867 -8.7155 0.6829
-11.1758 -8.8833 0.7195
-11.1648 -9.0536 0.7565
-11.1535 -9.2264 0.7938
-11.1422 -9.4017 0.8315
-11.1306 -9.5796 0.8696
-11.1189 -9.7603 0.9080
-11.1070 -9.9438 0.9469
-11.0948 -10.1302 0.9862
-11.0825 -10.3197 1.0259
-11.0700 -10.5124 1.0661
-21.3701 16.1710 -7.1251
-21.5843 15.9923 -7.0766
-21.1491 15.3414 -6.8186
-21.4974 15.2653 -6.8157
-21.7670 15.1290 -6.7865
-22.1458 15.0638 -6.7899
-22.3930 14.9046 -6.7517
-22.4114 14.5939 -6.6450
-22.3284 14.2227 -6.5104
-22.1922 13.8249 -6.3631
-38.6677 13.1975 -7.4178
-39.9757 13.2069 -7.5260
-38.7195 14.9412 -7.9952
-38.4626 14.4083 -7.7990
-39.0951 14.2079 -7.7833
-39.3480 13.8631 -7.6902
-13.4117 1.2760 -1.5268
-13.1692 1.1243 -1.4598
-14.2569 1.6359 -1.7088
-13.7863 1.4466 -1.6108
-12.9450 0.9790 -1.3965
-12.3283 0.4536 -1.1852
-12.7332 0.8390 -1.3360
-12.2101 0.3310 -1.1383
-12.5951 0.7076 -1.2845
-12.1462 0.2118 -1.0972
-12.4602 0.5791 -1.2342
-12.0831 0.0939 -1.0567
-11.8976 -0.2523 -0.9382
-12.0206 -0.0227 -1.0166
-11.8600 -0.3661 -0.9014
-11.9588 -0.1381 -0.9771
-11.8368 -0.4798 -0.8660
-11.7448 -0.9310 -0.7265
-11.8137 -0.5931 -0.8308
-11.7332 -1.0441 -0.6928
-11.7907 -0.7060 -0.7959
-11.7228 -1.1572 -0.6593
-11.7677 -0.8187 -0.7611
-11.7124 -1.2704 -0.6258
-11.6776 -1.6096 -0.5259
-11.7021 -1.3836 -0.5925
-11.6615 -1.7221 -0.4926
-11.6917 -1.4968 -0.5592
-11.6454 -1.8346 -0.4593
-11.5939 -2.2878 -0.3276
-11.6293 -1.9472 -0.4262
-11.5867 -2.4028 -0.2949
-11.6081 -2.0589 -0.3929
-11.5796 -2.5180 -0.2623
-11.6010 -2.1732 -0.3602
-11.5724 -2.6336 -0.2296
-11.5507 -2.9829 -0.1316
-11.5652 -2.7496 -0.1970
-11.5434 -3.1001 -0.0989
-11.5580 -2.8660 -0.1643
-11.5361 -3.2179 -0.0662
-11.5065 -3.6944 0.0652
-11.5288 -3.3362 -0.0334
-11.4990 -3.8149 0.0982
-11.5214 -3.4550 -0.0006
-11.4915 -3.9362 0.1313
-11.5140 -3.5744 0.0323
-11.4839 -4.0581 0.1645
-11.4610 -4.4283 0.2645
-11.4763 -4.1807 0.1977
-11.4532 -4.5532 0.2981
-11.4687 -4.3041 0.2311
-11.4454 -4.6790 0.3317
-11.4098 -5.1896 0.4677
-11.4375 -4.8057 0.3656
-11.4016 -5.3200 0.5021
-11.3933 -5.4515 0.5366
-11.4296 -4.9333 0.3995
-11.3850 -5.5841 0.5714
-11.4179 -5.0602 0.4334
-11.3766 -5.7178 0.6063
-11.3595 -5.9888 0.6767
-11.3681 -5.8527 0.6414
-11.3509 -6.1261 0.7123
-11.3064 -6.8335 0.8937
-11.3422 -6.2648 0.7481
-11.2972 -6.9795 0.9307
-11.3334 -6.4048 0.7841
-11.2880 -7.1270 0.9681
-11.3245 -6.5463 0.8203
-11.2786 -7.2762 1.0058
-11.3155 -6.6891 0.8569
-11.2691 -7.4271 1.0438
-11.2498 -7.7345 1.1208
-11.2595 -7.5799 1.0822
-11.2399 -7.8910 1.1599
-11.2290 -8.0487 1.1992
-11.2186 -8.2090 1.2390
-11.2080 -8.3714 1.2792
-11.1973 -8.5359 1.3198
-11.1865 -8.7028 1.3608
-11.1755 -8.8719 1.4023
-11.1643 -9.0435 1.4443
-11.1530 -9.2177 1.4867
-11.1415 -9.3944 1.5297
-11.1299 -9.5738 1.5732
-11.1180 -9.7561 1.6173
-11.1060 -9.9412 1.6619
-11.0938 -10.1294 1.7071
-11.0813 -10.3207 1.7530
-13.1490 13.8182 -4.7941
-21.1708 16.3822 -5.8321
-21.3165 16.1555 -5.7639
-20.8946 15.5084 -5.5454
-21.3018 15.4820 -5.5488
-21.4151 15.2392 -5.4748
-21.7250 15.1347 -5.4507
-22.0443 15.0323 -5.4276
-22.0939 14.7451 -5.3379
-22.1963 14.4956 -5.2619
-22.1465 14.1503 -5.1510
-21.9746 13.7343 -5.0141
-22.8215 13.9498 -5.1082
-38.2979 15.3294 -6.0416
-31.0570 12.0790 -4.7901
-38.2958 14.4637 -5.7733
-38.8426 14.2369 -5.7217
-39.2727 13.9598 -5.6507
-39.3458 13.5535 -5.5279
-38.7849 12.9374 -5.3188
-39.8791 12.8706 -5.3359
-14.5483 1.7206 -1.0423
-13.9266 1.5105 -0.9567
-13.5448 1.3366 -0.8908
-13.2526 1.1784 -0.8329
-13.0257 1.0313 -0.7807
-12.8069 0.8894 -0.7304
-12.6453 0.7554 -0.6846
-12.5094 0.6259 -0.6411
-12.3765 0.4994 -0.5986
-12.2465 0.3756 -0.5572
-12.1697 0.2556 -0.5188
-12.1063 0.1373 -0.4814
-12.0436 0.0202 -0.4445
-11.9815 -0.0956 -0.4080
-11.9200 -0.2103 -0.3720
-11.8685 -0.3241 -0.3365
-11.8453 -0.4380 -0.3022
-11.8222 -0.5515 -0.2680
-11.7991 -0.6647 -0.2339
-11.7761 -0.7775 -0.2000
-11.7532 -0.8901 -0.1662
-11.7369 -1.0029 -0.1327
-11.7266 -1.1162 -0.0992
-11.7162 -1.2295 -0.0658
-11.7058 -1.3429 -0.0324
-11.6954 -1.4563 0.0010
-11.6833 -1.5695 0.0343
-11.6672 -1.6823 0.0676
-11.6510 -1.7951 0.1008
-11.6349 -1.9079 0.1340
-11.6188 -2.0207 0.1672
-11.6031 -2.1337 0.2004
-11.5960 -2.2486 0.2338
-11.5888 -2.3637 0.2672
-11.5817 -2.4792 0.3006
-11.5745 -2.5950 0.3341
-11.5673 -2.7113 0.3677
-11.5600 -2.8279 0.4014
-11.5527 -2.9450 0.4351
-11.5455 -3.0626 0.4689
-11.5381 -3.1806 0.5029
-11.5308 -3.2992 0.5369
-11.5234 -3.4183 0.5710
-11.5159 -3.5380 0.6053
-11.5085 -3.6583 0.6397
-11.5010 -3.7792 0.6742
-11.4934 -3.9008 0.7089
-11.4858 -4.0231 0.7437
-11.4782 -4.1461 0.7787
-11.4705 -4.2699 0.8139
-11.4627 -4.3944 0.8492
-11.4550 -4.5198 0.8848
-11.4471 -4.6460 0.9205
-11.4392 -4.7731 0.9564
-11.4313 -4.9012 0.9926
-11.4194 -5.0285 1.0286
-11.4112 -5.1585 1.0652
-11.4030 -5.2894 1.1020
-11.3947 -5.4214 1.1391
-11.3863 -5.5546 1.1764
-11.3779 -5.6889 1.2141
-11.3693 -5.8243 1.2520
-11.3607 -5.9611 1.2902
-11.3521 -6.0991 1.3287
-11.3433 -6.2384 1.3676
-11.3344 -6.3791 1.4068
-11.3255 -6.5213 1.4463
-11.3165 -6.6649 1.4862
-11.3073 -6.8101 1.5265
-11.2981 -6.9569 1.5671
-11.2888 -7.1052 1.6082
-11.2793 -7.2553 1.6497
-11.2698 -7.4072 1.6916
-11.2601 -7.5609 1.7340
-11.2503 -7.7165 1.7769
-11.2404 -7.8740 1.8202
-11.2290 -8.0325 1.8638
-11.2185 -8.1939 1.9082
-11.2078 -8.3574 1.9530
-11.1971 -8.5232 1.9984
-11.1861 -8.6913 2.0444
-11.1750 -8.8618 2.0910
-11.1638 -9.0347 2.1382
-11.1524 -9.2103 2.1861
-11.1408 -9.3885 2.2347
-11.1290 -9.5695 2.2839
-11.1171 -9.7533 2.3339
-11.1049 -9.9401 2.3846
-11.0926 -10.1301 2.4361
-13.2323 15.3663 -4.2839
-34.7686 34.3409 -9.5317
-35.0985 33.3009 -9.2312
-35.6632 33.1634 -9.1869
-36.2350 33.0242 -9.1421
-36.3933 32.5072 -8.9925
-21.0902 16.3406 -4.4947
-21.3290 16.1885 -4.4487
-20.8079 15.4694 -4.2470
-21.1104 15.3710 -4.2158
-21.4621 15.3033 -4.1930
-21.7872 15.2114 -4.1634
-22.4150 15.3215 -4.1889
-21.9542 14.6896 -4.0115
-22.4162 14.6797 -4.0040
-22.7053 14.5501 -3.9638
-22.0033 13.7955 -3.7534
-38.2835 15.0034 -3.9271
-38.0123 14.4709 -3.7755
-38.8603 14.3613 -3.7341
-39.1126 14.0228 -3.6329
-38.8534 13.5042 -3.4850
-37.9858 12.7895 -3.2870
-14.8471 1.8075 -0.3520
-14.0677 1.5748 -0.2930
-13.6784 1.3974 -0.2456
-13.3359 1.2324 -0.2012
-13.1063 1.0835 -0.1602
-12.8849 0.9399 -0.1207
-12.6952 0.8029 -0.0826
-12.5583 0.6725 -0.0459
-12.4244 0.5450 -0.0100
-12.2934 0.4203 0.0252
-12.1929 0.2990 0.0597
-12.1293 0.1802 0.0940
-12.0663 0.0627 0.1279
-12.0040 -0.0536 0.1615
-11.9423 -0.1687 0.1947
-11.8813 -0.2827 0.2276
-11.8537 -0.3966 0.2610
-11.8306 -0.5103 0.2943
-11.8074 -0.6237 0.3276
-11.7844 -0.7368 0.3608
-11.7614 -0.8496 0.3939
-11.7407 -0.9622 0.4270
-11.7303 -1.0757 0.4605
-11.7199 -1.1891 0.4940
-11.7095 -1.3026 0.5275
-11.6991 -1.4162 0.5611
-11.6887 -1.5298 0.5947
-11.6728 -1.6428 0.6281
-11.6567 -1.7558 0.6615
-11.6405 -1.8689 0.6949
-11.6243 -1.9820 0.7283
-11.6053 -2.0946 0.7616
-11.5981 -2.2097 0.7957
-11.5910 -2.3250 0.8300
-11.5838 -2.4407 0.8644
-11.5766 -2.5568 0.8989
-11.5693 -2.6732 0.9335
-11.5621 -2.7901 0.9683
-11.5548 -2.9075 1.0032
-11.5475 -3.0253 1.0383
-11.5401 -3.1436 1.0735
-11.5327 -3.2624 1.1089
-11.5253 -3.3819 1.1445
-11.5179 -3.5019 1.1803
-11.5104 -3.6225 1.2163
-11.5028 -3.7437 1.2525
-11.4953 -3.8657 1.2889
-11.4876 -3.9883 1.3256
-11.4800 -4.1117 1.3624
-11.4723 -4.2359 1.3995
-11.4645 -4.3608 1.4369
-11.4567 -4.4866 1.4746
-11.4488 -4.6133 1.5125
-11.4409 -4.7408 1.5507
-11.4329 -4.8694 1.5892
-11.4249 -4.9989 1.6280
-11.4126 -5.1275 1.6665
-11.4043 -5.2590 1.7059
-11.3960 -5.3916 1.7457
-11.3876 -5.5253 1.7858
-11.3791 -5.6602 1.8263
-11.3706 -5.7962 1.8672
-11.3619 -5.9336 1.9085
-11.3532 -6.0723 1.9502
-11.3444 -6.2123 1.9923
-11.3355 -6.3537 2.0349
-11.3265 -6.4966 2.0779
-11.3174 -6.6410 2.1213
-11.3082 -6.7870 2.1653
-11.2990 -6.9345 2.2098
-11.2896 -7.0838 2.2548
-11.2801 -7.2348 2.3003
-11.2705 -7.3876 2.3464
-11.2607 -7.5422 2.3930
-11.2509 -7.6988 2.4403
-11.2409 -7.8573 2.4882
-11.2289 -8.0166 2.5363
-11.2183 -8.1792 2.5854
-11.2076 -8.3438 2.6352
-11.0334 -8.3867 2.6465
-10.8080 -8.3871 2.6445
-10.5880 -8.3874 2.6425
-10.3733 -8.3877 2.6406
-10.1636 -8.3879 2.6387
-9.9587 -8.3881 2.6369
-9.7584 -8.3883 2.6351
-9.5625 -8.3884 2.6334
-9.3855 -8.4015 2.6358
-27.2671 38.0457 -8.3467
-25.9091 33.9385 -7.3899
-26.2825 33.7197 -7.3227
-26.6893 33.5414 -7.2640
-26.3976 32.5000 -7.0186
-27.9881 33.7607 -7.2696
-13.2162 15.6208 -3.3534
-29.1292 33.7380 -7.2203
-29.8853 33.2454 -7.0686
-30.4961 33.2505 -7.0455
-30.8362 32.9547 -6.9581
-34.9744 33.8308 -7.0048
-35.2415 33.4174 -6.8893
-36.1840 33.6347 -6.9032
-20.7907 16.1290 -3.1538
-20.5971 15.6557 -3.0415
-21.0469 15.6726 -3.0244
-20.9696 15.2962 -2.9311
-21.3266 15.2372 -2.8986
-21.6901 15.1767 -2.8652
-22.1698 15.1898 -2.8449
-21.8700 14.6707 -2.7250
-22.2303 14.5979 -2.6880
-22.8289 14.6723 -2.6773
-23.0591 14.5026 -2.6214
-22.8433 14.0563 -2.5155
-23.9439 14.4120 -2.5524
-37.6684 15.2985 -2.0474
-37.8926 14.9625 -1.9435
-37.6872 14.4600 -1.8182
-39.1357 14.5817 -1.7696
-39.3470 14.2273 -1.6606
-39.5136 13.8558 -1.5493
-38.0102 12.9162 -1.3770
-39.6417 13.0435 -1.3185
-39.5013 12.5746 -1.1972
-14.3126 1.6521 0.3862
-13.8150 1.4597 0.4117
-13.4404 1.2891 0.4385
-13.1881 1.1365 0.4675
-12.9640 0.9912 0.4962
-12.7477 0.8510 0.5240
-12.6077 0.7195 0.5539
-12.4728 0.5911 0.5834
-12.3409 0.4655 0.6122
-12.2163 0.3427 0.6408
-12.1525 0.2235 0.6720
-12.0893 0.1055 0.7030
-12.0267 -0.0112 0.7338
-11.9648 -0.1267 0.7643
-11.9035 -0.2411 0.7946
-11.8622 -0.3550 0.8260
-11.8390 -0.4689 0.8586
-11.8159 -0.5825 0.8911
-11.7928 -0.6958 0.9237
-11.7697 -0.8087 0.9563
-11.7468 -0.9214 0.9888
-11.7340 -1.0348 1.0222
-11.7236 -1.1484 1.0560
-11.7132 -1.2621 1.0898
-11.7028 -1.3758 1.1237
-11.6924 -1.4896 1.1577
-11.6785 -1.6031 1.1914
-11.6623 -1.7163 1.2250
-11.6461 -1.8296 1.2587
-11.6299 -1.9429 1.2926
-11.6074 -2.0552 1.3257
-11.6002 -2.1704 1.3608
-11.5931 -2.2859 1.3960
-11.5859 -2.4018 1.4315
-11.5786 -2.5181 1.4671
-11.5714 -2.6348 1.5029
-11.5641 -2.7519 1.5389
-11.5568 -2.8695 1.5751
-11.5495 -2.9876 1.6116
-11.5421 -3.1062 1.6483
-11.5347 -3.2253 1.6852
-11.5273 -3.3450 1.7224
-11.5198 -3.4653 1.7598
-11.5123 -3.5862 1.7976
-11.5047 -3.7078 1.8356
-11.4972 -3.8301 1.8739
-11.4895 -3.9531 1.9125
-11.4818 -4.0769 1.9514
-11.4741 -4.2014 1.9906
-11.4663 -4.3268 2.0302
-11.4585 -4.4530 2.0701
-11.4506 -4.5800 2.1103
-11.4426 -4.7081 2.1510
-11.4346 -4.8371 2.1920
-11.4265 -4.9670 2.2334
-11.4141 -5.0962 2.2744
-11.4058 -5.2281 2.3166
-11.3974 -5.3612 2.3592
-11.3889 -5.4955 2.4023
-11.3804 -5.6310 2.4459
-11.3718 -5.7677 2.4899
-11.3631 -5.9056 2.5345
-11.3544 -6.0450 2.5795
-11.3455 -6.1857 2.6251
-11.3366 -6.3278 2.6712
-11.3275 -6.4714 2.7179
-11.3184 -6.6166 2.7652
-11.2307 -6.7164 2.7935
-11.0168 -6.7386 2.7899
-10.8080 -6.7601 2.7863
-10.6040 -6.7809 2.7829
-10.4047 -6.8011 2.7795
-10.2098 -6.8206 2.7763
-10.0192 -6.8395 2.7731
-9.8327 -6.8578 2.7700
-9.6501 -6.8755 2.7670
-9.4830 -6.9012 2.7674
-9.4557 -7.0279 2.8085
-9.4367 -7.1624 2.8527
-9.3745 -7.2653 2.8843
-9.2030 -7.2822 2.8819
-9.0347 -7.2986 2.8796
-8.8591 -7.3060 2.8740
-8.6818 -7.3086 2.8668
-8.4624 -7.2717 2.8443
-8.3255 -7.3021 2.8484
-26.4062 37.4543 -6.0172
-24.9539 34.6559 -5.5355
-25.4406 34.6001 -5.4935
-25.9228 34.5306 -5.4485
-26.4309 34.4876 -5.4069
-26.9348 34.4309 -5.3623
-28.0334 35.1109 -5.4307
-27.5367 33.7953 -5.1900
-29.1534 35.0634 -5.3451
-13.2281 15.5927 -2.3589
-28.8043 33.2789 -4.9946
-29.3317 33.2179 -4.9446
-31.3363 34.7880 -5.1343
-32.7303 35.6207 -5.2108
-33.1525 35.3721 -5.1270
-36.4950 31.9620 -4.1273
-37.0790 31.8357 -4.0518
-37.1050 31.2309 -3.9149
-36.9583 30.4934 -3.7620
-38.0069 30.7375 -3.7293
-20.5771 16.3106 -1.9445
-20.5957 15.9997 -1.8726
-20.5264 15.6262 -1.7937
-20.6811 15.4269 -1.7349
-21.0427 15.3789 -1.6925
-21.4114 15.3298 -1.6490
-22.2446 15.6001 -1.6379
-21.7987 14.9723 -1.5321
-22.2286 14.9507 -1.4886
-22.2633 14.6609 -1.4178
-22.9284 14.7808 -1.3856
-22.4611 14.1719 -1.2849
-22.4884 13.8850 -1.2146
-22.4345 13.5521 -1.1407
-22.3814 13.2247 -1.0676
-31.3218 14.6195 -0.5473
-38.8261 15.0155 0.1051
-38.3324 14.4006 0.2125
-38.7381 14.1278 0.3242
-39.2081 13.8720 0.4386
-39.0809 13.4041 0.5470
-39.0782 12.9832 0.6565
-47.8698 6.1639 3.4544
-14.6085 1.7381 1.0948
-13.9571 1.5244 1.0848
-13.5752 1.3504 1.0930
-13.2725 1.1912 1.1057
-13.0457 1.0442 1.1234
-12.8268 0.9023 1.1406
-12.6585 0.7679 1.1613
-12.5226 0.6385 1.1842
-12.3896 0.5119 1.2067
-12.2596 0.3881 1.2289
-12.1762 0.2678 1.2553
-12.1128 0.1494 1.2835
-12.0500 0.0323 1.3115
-11.9879 -0.0837 1.3394
-11.9263 -0.1986 1.3671
-11.8709 -0.3124 1.3953
-11.8476 -0.4265 1.4273
-11.8245 -0.5403 1.4593
-11.8013 -0.6537 1.4913
-11.7783 -0.7669 1.5234
-11.7553 -0.8798 1.5556
-11.7379 -0.9930 1.5885
-11.7274 -1.1067 1.6226
-11.7170 -1.2205 1.6568
-11.7066 -1.3344 1.6911
-11.6961 -1.4484 1.7256
-11.6843 -1.5623 1.7601
-11.6681 -1.6757 1.7941
-11.6519 -1.7892 1.8282
-11.6357 -1.9028 1.8625
-11.6194 -2.0164 1.8970
-11.6024 -2.1301 1.9315
-11.5952 -2.2458 1.9678
-11.5880 -2.3619 2.0044
-11.5808 -2.4784 2.0413
-11.5735 -2.5953 2.0784
-11.5662 -2.7127 2.1158
-11.5589 -2.8305 2.1535
-11.5516 -2.9488 2.1914
-11.5442 -3.0676 2.2297
-11.5368 -3.1870 2.2683
-11.5293 -3.3070 2.3072
-11.5218 -3.4276 2.3465
-11.5143 -3.5489 2.3861
-11.5067 -3.6708 2.4261
-11.4991 -3.7934 2.4664
-11.4915 -3.9167 2.5071
-11.4837 -4.0408 2.5482
-11.4760 -4.1658 2.5897
-11.4682 -4.2915 2.6316
-11.4603 -4.4181 2.6740
-11.4524 -4.5456 2.7168
-11.4444 -4.6741 2.7600
-11.4364 -4.8035 2.8038
-11.4282 -4.9340 2.8480
-11.4156 -5.0635 2.8915
-11.3138 -5.1535 2.9127
-11.1156 -5.1973 2.9083
-10.9216 -5.2396 2.9041
-10.7304 -5.2800 2.8995
-10.5435 -5.3192 2.8951
-10.3605 -5.3573 2.8908
-10.1813 -5.3942 2.8867
-10.0059 -5.4301 2.8826
-9.8340 -5.4650 2.8786
-9.6660 -5.4991 2.8749
-9.5565 -5.5644 2.8880
-9.5396 -5.6835 2.9291
-9.5224 -5.8038 2.9707
-9.4522 -5.8923 2.9962
-9.2930 -5.9238 2.9930
-9.1366 -5.9544 2.9899
-8.9783 -5.9813 2.9853
-8.8189 -6.0046 2.9795
-8.6609 -6.0261 2.9733
-8.5010 -6.0435 2.9655
-8.3441 -6.0602 2.9579
-8.1903 -6.0764 2.9505
-8.0394 -6.0920 2.9432
-7.8846 -6.1019 2.9336
-7.7325 -6.1110 2.9241
-7.5834 -6.1197 2.9148
-7.4306 -6.1226 2.9031
-7.2796 -6.1241 2.8911
-7.1269 -6.1212 2.8775
-26.4010 37.2726 -3.8000
-26.7008 36.9193 -3.7145
-27.2055 36.8477 -3.6565
-27.7739 36.8530 -3.6048
-26.7623 34.7934 -3.3527
-26.8900 34.2573 -3.2497
-26.5466 33.1440 -3.0931
-27.7477 33.9549 -3.1150
-27.9235 33.4937 -3.0181
-13.2497 15.5795 -1.3778
-29.4180 33.9114 -2.9405
-29.0405 32.8208 -2.7878
-29.6729 32.8810 -2.7330
-30.0206 31.9849 -2.5369
-20.8760 15.9200 -0.5730
-20.6885 15.4621 -0.5050
-21.1619 15.4986 -0.4527
-21.2647 15.2596 -0.3913
-21.5501 15.1504 -0.3326
-21.8388 15.0397 -0.2727
-22.1362 14.9308 -0.2117
-22.0232 14.5467 -0.1466
-22.3880 14.4788 -0.0845
-22.2693 14.0987 -0.0202
-22.2305 13.7752 0.0431
-39.0970 13.9603 2.4131
-47.4003 15.4008 3.3020
-45.6653 14.3538 3.3020
-44.0529 13.3836 3.3020
-42.5497 12.4820 3.3020
-43.0440 12.1795 3.4544
-41.6674 11.3591 3.4544
-40.3750 10.5914 3.4544
-39.1590 9.8716 3.4544
-38.0125 9.1954 3.4544
-36.9298 8.5590 3.4544
-35.9052 7.9590 3.4544
-34.9341 7.3925 3.4544
-34.0123 6.8569 3.4544
-33.1361 6.3497 3.4544
-32.3017 5.8687 3.4544
-31.5063 5.4120 3.4544
-30.7470 4.9779 3.4544
-30.0214 4.5648 3.4544
-29.3269 4.1712 3.4544
-28.6618 3.7958 3.4544
-28.0238 3.4374 3.4544
-14.1099 1.5931 1.7781
-13.7176 1.4153 1.7666
-13.3611 1.2487 1.7578
-13.1315 1.0998 1.7642
-12.9099 0.9562 1.7706
-12.7116 0.8184 1.7791
-12.5746 0.6880 1.7955
-12.4406 0.5605 1.8117
-12.3095 0.4357 1.8278
-12.2010 0.3140 1.8467
-12.1373 0.1952 1.8721
-12.0743 0.0776 1.8974
-12.0119 -0.0389 1.9227
-11.9501 -0.1542 1.9479
-11.8889 -0.2684 1.9731
-11.8566 -0.3824 2.0030
-11.8334 -0.4964 2.0346
-11.8102 -0.6100 2.0662
-11.7871 -0.7234 2.0979
-11.7641 -0.8365 2.1298
-11.7418 -0.9495 2.1620
-11.7314 -1.0633 2.1964
-11.7210 -1.1772 2.2311
-11.7105 -1.2913 2.2661
-11.7001 -1.4054 2.3012
-11.6896 -1.5197 2.3366
-11.6742 -1.6334 2.3712
-11.6579 -1.7471 2.4059
-11.6416 -1.8609 2.4408
-11.6254 -1.9748 2.4759
-11.6047 -2.0880 2.5103
-11.5975 -2.2039 2.5479
-11.5903 -2.3202 2.5858
-11.5831 -2.4369 2.6241
-11.5758 -2.5540 2.6627
-11.5685 -2.6716 2.7016
-11.5611 -2.7896 2.7409
-11.5538 -2.9082 2.7805
-11.5464 -3.0273 2.8205
-11.5389 -3.1469 2.8610
-11.5315 -3.2672 2.9018
-11.5240 -3.3881 2.9430
-11.5164 -3.5096 2.9846
-11.4634 -3.6175 3.0148
-11.2786 -3.6821 3.0099
-11.0977 -3.7449 3.0051
-10.9196 -3.8056 3.0002
-10.7439 -3.8642 2.9950
-10.5716 -3.9211 2.9900
-10.4029 -3.9764 2.9852
-10.2374 -4.0302 2.9804
-10.0752 -4.0826 2.9758
-9.9160 -4.1335 2.9712
-9.7602 -4.1833 2.9670
-9.6447 -4.2482 2.9743
-9.6270 -4.3557 3.0118
-9.6114 -4.4650 3.0505
-9.5957 -4.5751 3.0896
-9.4549 -4.6248 3.0884
-9.3088 -4.6697 3.0847
-9.1652 -4.7134 3.0812
-9.0205 -4.7543 3.0766
-8.8777 -4.7938 3.0719
-8.7326 -4.8298 3.0657
-8.5896 -4.8646 3.0595
-8.4490 -4.8983 3.0534
-8.3108 -4.9311 3.0474
-8.1749 -4.9631 3.0416
-8.0395 -4.9931 3.0352
-7.9026 -5.0199 3.0275
-7.7680 -5.0460 3.0200
-7.6357 -5.0712 3.0127
-7.5032 -5.0941 3.0045
-7.3694 -5.1138 2.9951
-7.2378 -5.1328 2.9858
-7.1047 -5.1483 2.9751
-6.9711 -5.1611 2.9634
-6.8363 -5.1705 2.9503
-6.6999 -5.1763 2.9357
-6.5893 -5.1998 2.9316
-6.4831 -5.2251 2.9290
-6.3783 -5.2499 2.9264
-6.2747 -5.2740 2.9239
-25.8504 36.3381 -1.5820
-26.2533 36.1536 -1.5106
-26.5249 35.7895 -1.4309
-26.8486 35.4989 -1.3535
-27.7940 36.0152 -1.3047
-26.2498 33.3390 -1.1425
-29.2980 36.4754 -1.1766
-28.1599 34.3693 -1.0375
-28.4583 34.0537 -0.9556
-13.2800 15.5812 -0.4032
-29.1172 33.4989 -0.7915
-30.4782 34.3857 -0.7329
-30.9409 34.2333 -0.6482
-31.2662 33.9267 -0.5595
-31.5093 33.5330 -0.4686
-35.3868 28.6956 0.8672
-36.0415 28.6559 0.9789
-36.7101 28.6155 1.0938
-37.3932 28.5741 1.2122
-37.9878 28.4541 1.3306
-38.8127 28.4939 1.4602
-21.6302 15.5619 0.8696
-21.7434 15.3286 0.9301
-21.8998 15.1262 0.9928
-21.9268 14.8360 1.0499
-21.8909 14.5075 1.1038
-42.9640 21.8409 3.4544
-41.6815 20.6895 3.4544
-40.4738 19.6098 3.4544
-39.3343 18.5953 3.4544
-38.2574 17.6406 3.4544
-35.5949 16.0019 3.3020
-34.6705 15.1896 3.3020
-33.7924 14.4214 3.3020
-32.9570 13.6940 3.3020
-32.1612 13.0043 3.3020
-32.7302 12.8717 3.4416
-32.0931 12.2683 3.4544
-31.3679 11.6486 3.4544
-30.6735 11.0584 3.4544
-30.0080 10.4955 3.4544
-29.3695 9.9581 3.4544
-28.7562 9.4447 3.4544
-28.1667 8.9537 3.4544
-27.5994 8.4837 3.4544
-27.0530 8.0335 3.4544
-26.5263 7.6019 3.4544
-26.0183 7.1878 3.4544
-25.5277 6.7902 3.4544
-25.0536 6.4081 3.4544
-24.5953 6.0408 3.4544
-24.1518 5.6874 3.4544
-23.7223 5.3472 3.4544
-23.3062 5.0195 3.4544
-22.9027 4.7036 3.4544
-22.5113 4.3990 3.4544
-22.1313 4.1050 3.4544
-21.7622 3.8212 3.4544
-21.4035 3.5471 3.4544
-20.1257 3.1374 3.3020
-19.8013 2.8926 3.3020
-19.4855 2.6558 3.3020
-19.1780 2.4266 3.3020
-14.4244 1.6846 2.5230
-13.8707 1.4850 2.4643
-13.4947 1.3138 2.4348
-13.2229 1.1591 2.4225
-12.9984 1.0136 2.4178
-12.7816 0.8730 2.4135
-12.6298 0.7406 2.4207
-12.4947 0.6120 2.4305
-12.3626 0.4862 2.4404
-12.2332 0.3630 2.4503
-12.1632 0.2435 2.4718
-12.0999 0.1254 2.4945
-12.0373 0.0085 2.5172
-11.9753 -0.1072 2.5400
-11.9138 -0.2219 2.5629
-11.8661 -0.3359 2.5886
-11.8429 -0.4500 2.6198
-11.8197 -0.5638 2.6511
-11.7965 -0.6774 2.6826
-11.7734 -0.7907 2.7143
-11.7504 -0.9038 2.7462
-11.7356 -1.0175 2.7802
-11.7252 -1.1315 2.8156
-11.7147 -1.2457 2.8512
-11.7043 -1.3599 2.8871
-11.6938 -1.4743 2.9233
-11.6806 -1.5886 2.9591
-11.6643 -1.7025 2.9945
-11.6480 -1.8165 3.0301
-11.6317 -1.9306 3.0661
-11.6072 -2.0434 3.1001
-11.4488 -2.1314 3.0982
-11.2817 -2.2149 3.0932
-11.1177 -2.2962 3.0883
-10.9551 -2.3751 3.0831
-10.7944 -2.4516 3.0777
-10.6366 -2.5261 3.0724
-10.4818 -2.5986 3.0672
-10.3298 -2.6693 3.0622
-10.1804 -2.7382 3.0573
-10.0337 -2.8053 3.0525
-9.8959 -2.8727 3.0497
-9.7490 -2.9349 3.0436
-9.7162 -3.0304 3.0728
-9.7020 -3.1320 3.1083
-9.6877 -3.2340 3.1441
-9.6507 -3.3286 3.1729
-9.5147 -3.3881 3.1689
-9.3809 -3.4461 3.1651
-9.2490 -3.5028 3.1613
-9.1181 -3.5578 3.1573
-8.9858 -3.6101 3.1522
-8.8547 -3.6608 3.1469
-8.6952 -3.6974 3.1308
-8.5985 -3.7586 3.1367
-8.4732 -3.8057 3.1317
-8.3498 -3.8517 3.1269
-8.2282 -3.8965 3.1221
-8.1066 -3.9395 3.1168
-7.9842 -3.9802 3.1107
-7.8637 -4.0199 3.1046
-7.7450 -4.0586 3.0987
-7.6279 -4.0964 3.0929
-7.5105 -4.1321 3.0864
-7.3923 -4.1654 3.0789
-7.2758 -4.1979 3.0716
-7.1610 -4.2294 3.0644
-7.0430 -4.2573 3.0552
-6.9265 -4.2841 3.0461
-6.8095 -4.3086 3.0360
-6.6907 -4.3300 3.0246
-6.5704 -4.3484 3.0117
-6.4512 -4.3654 2.9986
-6.3549 -4.3962 2.9956
-6.2596 -4.4263 2.9927
-6.1654 -4.4557 2.9898
-6.0722 -4.4845 2.9870
-5.9800 -4.5127 2.9842
-5.8887 -4.5402 2.9815
-5.7983 -4.5671 2.9788
-5.7088 -4.5935 2.9762
-5.6202 -4.6192 2.9737
-27.2605 34.5299 0.9078
-23.6796 29.4084 0.8463
-24.1268 29.3813 0.9205
-24.5801 29.3539 0.9968
-25.0397 29.3260 1.0750
-25.5058 29.2978 1.1552
-25.9787 29.2692 1.2376
-26.4587 29.2401 1.3222
-26.9458 29.2106 1.4090
-27.3647 29.1001 1.4940
-27.9419 29.1491 1.5896
-28.4524 29.1182 1.6835
-28.9712 29.0868 1.7800
-29.4987 29.0548 1.8791
-30.0352 29.0223 1.9810
-30.5810 28.9893 2.0856
-31.1364 28.9556 2.1931
-31.7019 28.9214 2.3036
-32.2186 28.8335 2.4127
-32.7750 28.7724 2.5271
-33.4582 28.8110 2.6538
-34.0677 28.7741 2.7773
-34.6894 28.7364 2.9044
-35.3238 28.6980 3.0352
-35.9713 28.6588 3.1699
-36.5605 28.5625 3.3020
-35.6943 27.3418 3.3020
-35.5292 26.6819 3.3646
-35.6537 26.2477 3.4544
-34.8660 25.1591 3.4544
-34.1125 24.1246 3.4544
-21.8089 15.1139 2.2562
-32.6986 22.2029 3.4544
-32.0344 21.3092 3.4544
-31.3960 20.4562 3.4544
-30.7821 19.6415 3.4544
-30.1911 18.8626 3.4544
-29.6218 18.1174 3.4544
-27.7899 16.6360 3.3020
-27.2835 15.9822 3.3020
-26.7941 15.3552 3.3020
-26.3211 14.7535 3.3020
-25.8636 14.1756 3.3020
-25.4207 13.6202 3.3020
-25.4636 13.3332 3.3644
-25.7101 13.1524 3.4544
-25.2881 12.6348 3.4544
-24.8786 12.1361 3.4544
-24.4810 11.6554 3.4544
-24.0946 11.1918 3.4544
-23.7190 10.7444 3.4544
-23.3536 10.3125 3.4544
-22.9981 9.8954 3.4544
-22.6518 9.4923 3.4544
-22.3146 9.1026 3.4544
-21.9859 8.7257 3.4544
-21.6654 8.3609 3.4544
-21.3528 8.0079 3.4544
-21.0476 7.6660 3.4544
-20.7498 7.3347 3.4544
-20.4588 7.0137 3.4544
-20.1745 6.7024 3.4544
-19.8967 6.4006 3.4544
-19.6249 6.1077 3.4544
-19.3591 5.8234 3.4544
-19.0990 5.5474 3.4544
-18.8443 5.2794 3.4544
-18.5950 5.0190 3.4544
-18.3508 4.7660 3.4544
-18.1114 4.5200 3.4544
-17.8768 4.2808 3.4544
-17.6468 4.0482 3.4544
-17.4212 3.8219 3.4544
-17.1999 3.6016 3.4544
-16.2335 3.2378 3.3020
-16.0296 3.0382 3.3020
-15.8295 2.8439 3.3020
-15.6330 2.6546 3.3020
-15.4399 2.4701 3.3020
-15.2501 2.2904 3.3020
-15.0637 2.1151 3.3020
-14.8803 1.9442 3.3020
-14.7000 1.7776 3.3020
-14.0378 1.5611 3.1918
-13.6531 1.3859 3.1421
-13.3219 1.2233 3.1030
-13.0942 1.0757 3.0867
-12.8744 0.9332 3.0714
-12.6892 0.7972 3.0635
-12.5530 0.6675 3.0668
-12.4197 0.5405 3.0704
-12.2892 0.4163 3.0742
-12.1910 0.2953 3.0857
-12.1274 0.1768 3.1059
-12.0645 0.0594 3.1262
-12.0023 -0.0569 3.1466
-11.9406 -0.1720 3.1671
-11.8794 -0.2861 3.1878
-11.7853 -0.3981 3.1994
-11.5991 -0.5043 3.1856
-11.4344 -0.6083 3.1769
-11.2626 -0.7089 3.1656
-11.1129 -0.8079 3.1598
-10.9673 -0.9046 3.1546
-10.8232 -0.9989 3.1492
-10.6814 -1.0908 3.1440
-10.5419 -1.1805 3.1388
-10.4047 -1.2681 3.1338
-10.2697 -1.3536 3.1289
-10.1367 -1.4370 3.1241
-10.0057 -1.5185 3.1194
-9.8777 -1.5982 3.1151
-9.8058 -1.6854 3.1282
-9.7928 -1.7823 3.1603
-9.7796 -1.8794 3.1926
-9.7665 -1.9767 3.2252
-9.7118 -2.0654 3.2444
-9.5887 -2.1383 3.2405
-9.4673 -2.2095 3.2367
-9.3459 -2.2788 3.2324
-9.2251 -2.3462 3.2278
-9.1055 -2.4121 3.2231
-8.9875 -2.4765 3.2186
-8.8710 -2.5394 3.2142
-8.7292 -2.5929 3.1999
-8.6427 -2.6611 3.2055
-8.5307 -2.7200 3.2013
-8.4202 -2.7776 3.1972
-8.3110 -2.8339 3.1932
-8.2018 -2.8886 3.1888
-8.0921 -2.9414 3.1837
-7.9839 -2.9930 3.1787
-7.8769 -3.0434 3.1737
-7.7713 -3.0928 3.1689
-7.6670 -3.1410 3.1642
-7.5640 -3.1882 3.1596
-7.4586 -3.2329 3.1535
-7.3547 -3.2765 3.1476
-7.2520 -3.3191 3.1418
-7.1506 -3.3608 3.1361
-7.0478 -3.4002 3.1293
-6.9450 -3.4380 3.1221
-6.8435 -3.4750 3.1150
-6.7406 -3.5095 3.1067
-6.6373 -3.5423 3.0978
-6.5334 -3.5732 3.0881
-6.4278 -3.6014 3.0770
-6.3192 -3.6261 3.0639
-6.2208 -3.6550 3.0551
-6.1344 -3.6896 3.0519
-6.0488 -3.7235 3.0487
-5.9640 -3.7566 3.0455
-5.8801 -3.7891 3.0425
-5.7969 -3.8209 3.0395
-5.7145 -3.8520 3.0365
-5.6328 -3.8825 3.0336
-5.5518 -3.9124 3.0307
-5.4716 -3.9416 3.0279
-5.3920 -3.9703 3.0252
-5.3131 -3.9983 3.0225
-5.2349 -4.0258 3.0199
-5.1573 -4.0527 3.0173
-5.0804 -4.0791 3.0147
-14.8220 29.9543 1.1590
-15.1699 29.9332 1.2066
-15.5206 29.9120 1.2556
-15.8742 29.8906 1.3060
-16.2308 29.8690 1.3577
-16.5430 29.7620 1.4068
-16.9048 29.7401 1.4612
-17.3171 29.7990 1.5212
-17.6866 29.7767 1.5787
-18.0597 29.7541 1.6378
-18.4364 29.7313 1.6985
-18.8169 29.7082 1.7607
-19.2014 29.6850 1.8246
-19.5898 29.6614 1.8901
-19.9825 29.6377 1.9574
-20.3794 29.6136 2.0264
-20.7808 29.5893 2.0973
-21.1868 29.5647 2.1699
-21.5976 29.5398 2.2445
-21.9487 29.4281 2.3142
-22.3731 29.4089 2.3930
-22.8553 29.4572 2.4795
-23.2867 29.4311 2.5622
-23.7238 29.4046 2.6469
-24.1666 29.3778 2.7339
-24.6155 29.3506 2.8232
-25.0706 29.3230 2.9148
-25.5321 29.2950 3.0088
-26.0003 29.2667 3.1053
-27.2855 30.1324 3.3024
-26.9251 29.1732 3.3020
-26.5751 28.2516 3.3020
-26.2325 27.3627 3.3020
-26.6031 27.2279 3.3921
-26.7474 26.8616 3.4544
-26.4099 26.0248 3.4544
-26.0790 25.2163 3.4544
-25.7546 24.4349 3.4544
-25.4364 23.6795 3.4544
-25.1243 22.9488 3.4544
-24.8181 22.2419 3.4544
-24.5175 21.5577 3.4544
-24.2225 20.8954 3.4544
-23.9330 20.2539 3.4544
-23.6485 19.6325 3.4544
-23.3692 19.0303 3.4544
-23.0949 18.4466 3.4544
-22.8254 17.8806 3.4544
-21.5652 16.5670 3.3020
-21.3165 16.0579 3.3020
-21.0719 15.5638 3.3020
-20.8315 15.0842 3.3020
-20.5951 14.6185 3.3020
-20.3626 14.1662 3.3020
-20.1338 13.7268 3.3020
-20.4196 13.6409 3.3867
-20.5961 13.4794 3.4544
-20.3681 13.0572 3.4544
-20.1438 12.6467 3.4544
-19.9229 12.2473 3.4544
-19.7054 11.8588 3.4544
-19.4913 11.4807 3.4544
-19.2804 11.1127 3.4544
-19.0726 10.7544 3.4544
-18.8679 10.4055 3.4544
-18.6662 10.0657 3.4544
-18.4675 9.7346 3.4544
-18.2716 9.4120 3.4544
-18.0785 9.0976 3.4544
-17.8881 8.7911 3.4544
-17.7004 8.4923 3.4544
-17.5153 8.2009 3.4544
-17.3327 7.9167 3.4544
-17.1526 7.6394 3.4544
-16.9749 7.3689 3.4544
-16.7996 7.1049 3.4544
-16.6266 6.8472 3.4544
-16.4558 6.5957 3.4544
-16.2873 6.3500 3.4544
-16.1208 6.1102 3.4544
-15.9566 5.8759 3.4544
-15.7944 5.6471 3.4544
-15.6342 5.4235 3.4544
-15.4759 5.2050 3.4544
-15.3196 4.9914 3.4544
-15.1652 4.7827 3.4544
-15.0127 4.5787 3.4544
-14.8619 4.3791 3.4544
-14.7130 4.1840 3.4544
-14.5657 3.9932 3.4544
-14.4202 3.8066 3.4544
-14.2763 3.6240 3.4544
-13.5104 3.2933 3.3020
-13.3768 3.1264 3.3022
-13.2450 2.9630 3.3025
-13.1136 2.8030 3.3025
-12.9827 2.6461 3.3023
-12.8517 2.4922 3.3017
-12.7199 2.3411 3.3006
-12.5892 2.1932 3.2993
-12.4561 2.0478 3.2970
-12.3248 1.9056 3.2949
-12.1910 1.7659 3.2916
-12.0620 1.6297 3.2893
-11.9339 1.4964 3.2868
-11.8028 1.3654 3.2831
-11.6675 1.2367 3.2779
-11.5312 1.1107 3.2719
-11.3980 0.9876 3.2664
-11.2557 0.8666 3.2578
-11.1225 0.7490 3.2514
-10.9783 0.6334 3.2413
-10.8449 0.5211 3.2339
-10.7050 0.4112 3.2241
-10.5745 0.3042 3.2167
-10.4423 0.1997 3.2083
-10.3170 0.0977 3.2015
-10.1934 -0.0019 3.1950
-10.0721 -0.0992 3.1887
-9.9561 -0.1944 3.1836
-9.9199 -0.2898 3.2040
-9.8982 -0.3852 3.2293
-9.8818 -0.4806 3.2565
-9.8653 -0.5759 3.2840
-9.8489 -0.6710 3.3117
-9.7376 -0.7587 3.3076
-9.6268 -0.8445 3.3032
-9.5169 -0.9284 3.2988
-9.4083 -1.0107 3.2945
-9.3010 -1.0912 3.2903
-9.1949 -1.1700 3.2861
-9.0900 -1.2472 3.2821
-8.9862 -1.3229 3.2781
-8.8597 -1.3932 3.2653
-8.7821 -1.4696 3.2703
-8.6817 -1.5408 3.2666
-8.5824 -1.6105 3.2629
-8.4841 -1.6789 3.2593
-8.3867 -1.7458 3.2557
-8.2896 -1.8113 3.2519
-8.1919 -1.8751 3.2476
-8.0952 -1.9376 3.2433
-7.9995 -1.9989 3.2391
-7.9048 -2.0589 3.2349
-7.8111 -2.1177 3.2309
-7.7184 -2.1754 3.2269
-7.6266 -2.2319 3.2230
-7.5354 -2.2872 3.2191
-7.4428 -2.3406 3.2142
-7.3511 -2.3930 3.2094
-7.2604 -2.4443 3.2046
-7.1706 -2.4946 3.2000
-7.0816 -2.5438 3.1954
-6.9915 -2.5912 3.1900
-6.9015 -2.6374 3.1842
-6.8124 -2.6826 3.1786
-6.7241 -2.7267 3.1729
-6.6334 -2.7686 3.1658
-6.5438 -2.8095 3.1589
-6.4533 -2.8487 3.1511
-6.3618 -2.8860 3.1424
-6.2687 -2.9213 3.1326
-6.1741 -2.9543 3.1215
-6.0772 -2.9847 3.1088
-5.9991 -3.0230 3.1053
-5.9216 -3.0606 3.1019
-5.8447 -3.0974 3.0985
-5.7685 -3.1335 3.0951
-5.6929 -3.1688 3.0919
-5.6180 -3.2035 3.0887
-5.5436 -3.2376 3.0855
-5.4698 -3.2709 3.0824
-5.3966 -3.3036 3.0794
-5.3239 -3.3357 3.0764
-5.2518 -3.3672 3.0735
-5.1802 -3.3980 3.0706
-5.1091 -3.4283 3.0678
-5.0386 -3.4579 3.0650
-4.9686 -3.4870 3.0623
-4.8990 -3.5155 3.0596
-4.8300 -3.5435 3.0569
-4.7614 -3.5709 3.0544
-4.6932 -3.5977 3.0518
-4.6256 -3.6241 3.0493
-14.6007 29.9667 2.6995
-14.9424 29.9460 2.7527
-15.2869 29.9251 2.8074
-15.6341 29.9041 2.8636
-15.9842 29.8829 2.9214
-16.3373 29.8615 2.9808
-16.6457 29.7547 3.0331
-17.0063 29.7371 3.0960
-17.4129 29.7922 3.1684
-18.1512 30.3937 3.3022
-18.1466 29.7451 3.3020
-18.1372 29.1088 3.3020
-18.1222 28.4829 3.3020
-18.1017 27.8673 3.3020
-18.3934 27.7408 3.3600
-18.7483 27.7057 3.4306
-18.8413 27.2860 3.4544
-18.7998 26.6850 3.4544
-18.7538 26.0946 3.4544
-18.7037 25.5148 3.4544
-18.6497 24.9454 3.4544
-18.5919 24.3864 3.4544
-18.5306 23.8378 3.4544
-18.4660 23.2992 3.4544
-18.3982 22.7707 3.4544
-18.3275 22.2521 3.4544
-18.2539 21.7433 3.4544
-18.1779 21.2442 3.4544
-18.0993 20.7546 3.4544
-18.0184 20.2744 3.4544
-17.9354 19.8033 3.4544
-17.8504 19.3415 3.4544
-17.7635 18.8885 3.4544
-17.6747 18.4443 3.4544
-16.8087 17.2143 3.3020
-16.7209 16.8061 3.3020
-16.6317 16.4059 3.3020
-16.5413 16.0135 3.3020
-16.4498 15.6288 3.3020
-16.3572 15.2516 3.3020
-16.2636 14.8819 3.3020
-16.1691 14.5194 3.3020
-16.0738 14.1640 3.3020
-16.0961 13.9179 3.3265
-16.3692 13.8882 3.4035
-16.5122 13.7456 3.4544
-16.4098 13.4021 3.4544
-16.3069 13.0655 3.4544
-16.2036 12.7353 3.4544
-16.0999 12.4117 3.4544
-15.9958 12.0943 3.4544
-15.8915 11.7832 3.4544
-15.7869 11.4781 3.4544
-15.6822 11.1790 3.4544
-15.5773 10.8857 3.4544
-15.4722 10.5981 3.4544
-15.3671 10.3161 3.4544
-15.2620 10.0395 3.4544
-15.1569 9.7682 3.4544
-15.0518 9.5022 3.4544
-14.9464 9.2410 3.4543
-14.8410 8.9848 3.4542
-14.7357 8.7335 3.4541
-14.6306 8.4870 3.4540
-14.5257 8.2453 3.4539
-14.4209 8.0081 3.4537
-14.3164 7.7754 3.4536
-14.2121 7.5471 3.4535
-14.1081 7.3232 3.4534
-14.0043 7.1035 3.4533
-13.9009 6.8879 3.4532
-13.7977 6.6763 3.4531
-13.6949 6.4687 3.4530
-13.5924 6.2650 3.4529
-13.4902 6.0650 3.4527
-13.3885 5.8688 3.4526
-13.2870 5.6761 3.4525
-13.1860 5.4871 3.4524
-13.0853 5.3015 3.4523
-12.9851 5.1193 3.4522
-12.8852 4.9405 3.4521
-12.7858 4.7649 3.4520
-12.6867 4.5925 3.4519
-12.5881 4.4232 3.4518
-12.4900 4.2570 3.4517
-12.3923 4.0938 3.4516
-12.2951 3.9335 3.4515
-12.1983 3.7761 3.4514
-12.1019 3.6215 3.4513
-12.0038 3.4691 3.4506
-11.9055 3.3192 3.4497
-11.8068 3.1717 3.4485
-11.7078 3.0268 3.4471
-11.6086 2.8843 3.4455
-11.5092 2.7441 3.4437
-11.3106 2.4713 3.4396
-11.4097 2.6065 3.4416
-11.2116 2.3385 3.4373
-10.7125 1.7081 3.4223
-11.1124 2.2080 3.4349
-10.6105 1.5884 3.4179
-11.0137 2.0799 3.4324
-10.5081 1.4709 3.4133
-10.9136 1.9538 3.4293
-10.4037 1.3552 3.4078
-10.8142 1.8300 3.4262
-10.3012 1.2420 3.4026
-10.1985 1.1309 3.3972
-10.0952 1.0218 3.3913
-9.4958 0.4118 3.3581
-9.9918 0.9149 3.3852
-9.4013 0.3171 3.3536
-9.8896 0.8101 3.3792
-9.3076 0.2242 3.3492
-9.7884 0.7074 3.3733
-9.2149 0.1331 3.3449
-9.6877 0.6068 3.3674
-9.1232 0.0437 3.3408
-9.5912 0.5083 3.3627
-9.0322 -0.0440 3.3367
-8.9420 -0.1300 3.3327
-8.4166 -0.6137 3.3102
-8.8526 -0.2144 3.3288
-8.3315 -0.6892 3.3067
-8.7639 -0.2973 3.3249
-8.2462 -0.7632 3.3029
-8.6760 -0.3786 3.3211
-8.5888 -0.4584 3.3174
-8.1616 -0.8359 3.2991
-8.5023 -0.5368 3.3138
-8.0776 -0.9073 3.2954
-7.9117 -1.0460 3.2881
-7.9943 -0.9773 3.2917
-7.8297 -1.1135 3.2846
-7.7483 -1.1798 3.2812
-7.4284 -1.4330 3.2676
-7.6676 -1.2449 3.2778
-7.3482 -1.4932 3.2635
-7.5875 -1.3088 3.2744
-7.5081 -1.3716 3.2711
-7.2686 -1.5522 3.2596
-6.9565 -1.7777 3.2444
-7.1897 -1.6101 3.2557
-6.8781 -1.8310 3.2399
-7.1113 -1.6670 3.2518
-6.8000 -1.8833 3.2353
-6.7225 -1.9345 3.2307
-7.0336 -1.7229 3.2481
-6.6457 -1.9848 3.2263
-6.4900 -2.0813 3.2156
-6.5681 -2.0337 3.2212
-6.4126 -2.1280 3.2101
-6.0100 -2.3383 3.1707
-5.9228 -2.3741 3.1583
-6.3340 -2.1732 3.2038
-5.8512 -2.4149 3.1539
-6.2550 -2.2170 3.1970
-5.7813 -2.4554 3.1503
-5.7119 -2.4953 3.1467
-6.1749 -2.2593 3.1894
-5.6431 -2.5343 3.1431
-6.0940 -2.3000 3.1810
-5.5747 -2.5727 3.1397
-5.5068 -2.6104 3.1363
-5.1741 -2.7886 3.1201
-5.4394 -2.6473 3.1329
-5.1088 -2.8223 3.1170
-5.3724 -2.6836 3.1296
-5.0440 -2.8554 3.1139
-5.3058 -2.7193 3.1264
-4.9796 -2.8879 3.1110
-5.2397 -2.7542 3.1232
-4.9156 -2.9197 3.1080
-4.8519 -2.9510 3.1052
-4.7887 -2.9818 3.1023
-4.7259 -3.0119 3.0996
-4.6634 -3.0416 3.0968
-4.6012 -3.0706 3.0942
-4.5395 -3.0991 3.0915
-4.4780 -3.1271 3.0889
-4.4170 -3.1546 3.0864
-4.3562 -3.1816 3.0839
-4.2958 -3.2080 3.0814
-4.2357 -3.2340 3.0790
-11.7049 24.4043 3.4544
-11.8150 24.0555 3.4544
-11.9196 23.7069 3.4544
-12.0188 23.3588 3.4544
-12.1128 23.0113 3.4544
-12.2016 22.6647 3.4544
-12.2853 22.3192 3.4544
-12.3640 21.9748 3.4544
-12.4378 21.6318 3.4544
-12.5069 21.2904 3.4544
-12.5713 20.9507 3.4544
-12.6311 20.6128 3.4544
-12.6865 20.2768 3.4544
-12.7375 19.9431 3.4544
-12.7843 19.6115 3.4544
-12.8270 19.2822 3.4544
-12.8656 18.9553 3.4544
-12.9003 18.6311 3.4544
-12.3607 17.5016 3.3020
-12.3866 17.1967 3.3020
-12.4092 16.8945 3.3020
-12.4283 16.5949 3.3020
-12.4442 16.2982 3.3020
-12.4570 16.0042 3.3020
-12.4667 15.7132 3.3020
-12.4734 15.4251 3.3020
-12.4772 15.1400 3.3020
-12.4782 14.8578 3.3020
-12.4765 14.5787 3.3020
-12.4723 14.3027 3.3020
-12.5601 14.1362 3.3271
-12.7758 14.1129 3.3867
-12.9944 14.0892 3.4479
-13.0043 13.8399 3.4544
-12.9875 13.5674 3.4544
-12.9684 13.2981 3.4544
-12.9471 13.0322 3.4544
-12.9237 12.7695 3.4544
-12.8984 12.5100 3.4544
-12.8711 12.2539 3.4544
-12.8420 12.0010 3.4544
-12.8107 11.7510 3.4543
-12.7778 11.5043 3.4542
-12.7431 11.2609 3.4541
-12.7069 11.0206 3.4540
-12.6691 10.7835 3.4539
-12.6299 10.5497 3.4538
-12.5892 10.3190 3.4538
-12.5472 10.0914 3.4537
-12.5039 9.8670 3.4536
-12.4594 9.6456 3.4535
-12.4136 9.4273 3.4534
-12.3667 9.2120 3.4533
-12.3188 8.9998 3.4532
-12.2697 8.7905 3.4531
-12.2197 8.5841 3.4530
-12.1687 8.3807 3.4530
-12.1168 8.1802 3.4529
-12.0640 7.9825 3.4528
-12.0104 7.7877 3.4527
-11.9560 7.5956 3.4526
-11.9008 7.4063 3.4525
-11.8449 7.2197 3.4525
-11.7883 7.0358 3.4524
-11.7311 6.8546 3.4523
-11.6732 6.6760 3.4522
-11.6148 6.5001 3.4521
-11.5540 6.3255 3.4515
-11.4924 6.1536 3.4508
-11.4299 5.9840 3.4500
-11.3668 5.8169 3.4492
-11.3029 5.6520 3.4482
-11.2385 5.4895 3.4472
-11.1734 5.3293 3.4460
-11.1077 5.1715 3.4448
-11.0414 5.0159 3.4435
-10.9746 4.8626 3.4422
-10.9073 4.7115 3.4407
-10.8395 4.5626 3.4392
-10.7716 4.4161 3.4377
-10.7028 4.2715 3.4360
-10.6329 4.1288 3.4340
-10.5629 3.9884 3.4321
-10.4928 3.8501 3.4301
-10.4271 3.7157 3.4296
-10.3618 3.5834 3.4293
-10.2964 3.4530 3.4290
-10.2308 3.3247 3.4286
-10.1651 3.1982 3.4283
-10.0994 3.0736 3.4280
-10.0335 2.9509 3.4277
-9.9676 2.8300 3.4274
-9.9016 2.7109 3.4272
-9.8356 2.5935 3.4269
-9.7696 2.4780 3.4266
-9.7035 2.3641 3.4263
-9.6374 2.2519 3.4260
-9.5713 2.1414 3.4257
-9.4993 2.0312 3.4233
-9.4246 1.9223 3.4199
-9.3502 1.8151 3.4166
-9.2741 1.7094 3.4126
-9.1982 1.6054 3.4085
-9.1227 1.5032 3.4046
-9.0474 1.4027 3.4007
-8.9708 1.3037 3.3962
-8.8945 1.2063 3.3918
-8.8187 1.1107 3.3874
-8.7433 1.0166 3.3831
-8.2966 0.4849 3.3579
-8.6677 0.9241 3.3787
-8.2237 0.4015 3.3539
-8.5925 0.8332 3.3743
-8.1512 0.3194 3.3501
-8.5178 0.7439 3.3700
-8.0791 0.2388 3.3463
-8.0076 0.1595 3.3427
-8.4434 0.6560 3.3658
-7.9365 0.0816 3.3391
-8.3699 0.5697 3.3618
-7.8657 0.0049 3.3356
-7.7952 -0.0705 3.3321
-7.4485 -0.4292 3.3155
-7.7252 -0.1446 3.3287
-7.3802 -0.4974 3.3124
-7.6554 -0.2176 3.3253
-7.5861 -0.2893 3.3220
-7.3122 -0.5645 3.3092
-7.5171 -0.3598 3.3187
-7.2446 -0.6305 3.3062
-7.0417 -0.8219 3.2963
-6.9747 -0.8836 3.2931
-7.1766 -0.6954 3.3028
-6.9081 -0.9443 3.2899
-7.1089 -0.7592 3.2995
-6.8419 -1.0040 3.2868
-6.7760 -1.0627 3.2838
-6.6429 -1.1768 3.2767
-6.7097 -1.1203 3.2805
-6.5765 -1.2324 3.2731
-6.2450 -1.4954 3.2530
-6.1778 -1.5448 3.2481
-6.5105 -1.2870 3.2694
-6.1101 -1.5931 3.2427
-6.4448 -1.3408 3.2659
-6.0419 -1.6403 3.2369
-5.9725 -1.6861 3.2303
-6.3782 -1.3933 3.2617
-5.9012 -1.7303 3.2224
-6.3114 -1.4448 3.2573
-5.8275 -1.7727 3.2130
-5.7518 -1.8134 3.2023
-5.4408 -2.0245 3.1835
-5.6889 -1.8571 3.1984
-5.3797 -2.0645 3.1799
-5.6263 -1.9001 3.1946
-5.5641 -1.9422 3.1908
-5.3189 -2.1039 3.1764
-5.5023 -1.9837 3.1871
-5.2584 -2.1426 3.1730
-5.0791 -2.2547 3.1629
-5.0199 -2.2908 3.1597
-5.1983 -2.1806 3.1696
-4.9611 -2.3263 3.1565
-5.1385 -2.2180 3.1662
-4.9026 -2.3612 3.1534
-4.8444 -2.3954 3.1503
-4.7288 -2.4622 3.1442
-4.7864 -2.4291 3.1472
-4.6715 -2.4947 3.1413
-4.6144 -2.5267 3.1384
-4.5576 -2.5581 3.1356
-4.5011 -2.5889 3.1328
-4.4449 -2.6192 3.1300
-4.3889 -2.6490 3.1273
-4.3332 -2.6783 3.1246
-4.2777 -2.7070 3.1220
-4.2225 -2.7353 3.1194
-4.1676 -2.7630 3.1169
-4.1129 -2.7902 3.1144
-4.0584 -2.8170 3.1119
-4.0041 -2.8433 3.1095
-3.9501 -2.8691 3.1071
-3.8963 -2.8945 3.1048
-8.0618 17.0808 3.3020
-8.1596 16.8835 3.3020
-8.2542 16.6853 3.3020
-8.3455 16.4862 3.3020
-8.4336 16.2864 3.3020
-8.5185 16.0861 3.3020
-8.6002 15.8853 3.3020
-8.6789 15.6840 3.3020
-8.7544 15.4825 3.3020
-8.8268 15.2809 3.3020
-8.8962 15.0791 3.3020
-8.9626 14.8773 3.3020
-9.0260 14.6757 3.3020
-9.0866 14.4742 3.3020
-9.1909 14.3456 3.3188
-9.3662 14.3276 3.3619
-9.5431 14.3093 3.4061
-9.7216 14.2907 3.4515
-9.7774 14.0924 3.4539
-9.8220 13.8826 3.4535
-9.8638 13.6736 3.4530
-9.9030 13.4655 3.4525
-9.9396 13.2583 3.4520
-9.9735 13.0520 3.4515
-10.0050 12.8469 3.4510
-10.0339 12.6428 3.4506
-10.0604 12.4399 3.4501
-10.0845 12.2382 3.4496
-10.1063 12.0377 3.4492
-10.1259 11.8386 3.4487
-10.1432 11.6407 3.4482
-10.1583 11.4442 3.4478
-10.1712 11.2490 3.4473
-10.1821 11.0555 3.4468
-10.1910 10.8632 3.4464
-10.1979 10.6726 3.4459
-10.2028 10.4834 3.4455
-10.2059 10.2957 3.4451
-10.2071 10.1096 3.4446
-10.2065 9.9251 3.4442
-10.2042 9.7422 3.4438
-10.2002 9.5609 3.4433
-10.1945 9.3813 3.4429
-10.1872 9.2033 3.4425
-10.1783 9.0267 3.4421
-10.1679 8.8522 3.4417
-10.1560 8.6792 3.4412
-10.1426 8.5079 3.4408
-10.1279 8.3382 3.4404
-10.1117 8.1703 3.4400
-10.0943 8.0040 3.4396
-10.0756 7.8395 3.4393
-10.0556 7.6766 3.4389
-10.0344 7.5155 3.4385
-10.0120 7.3560 3.4381
-9.9884 7.1983 3.4377
-9.9638 7.0422 3.4374
-9.9381 6.8879 3.4370
-9.9113 6.7352 3.4366
-9.8835 6.5842 3.4363
-9.8547 6.4349 3.4359
-9.8250 6.2872 3.4356
-9.7944 6.1412 3.4352
-9.7629 5.9969 3.4349
-9.7305 5.8542 3.4345
-9.6973 5.7131 3.4342
-9.6633 5.5737 3.4339
-9.6285 5.4359 3.4335
-9.5929 5.2997 3.4332
-9.5566 5.1651 3.4329
-9.5197 5.0321 3.4326
-9.4820 4.9007 3.4323
-9.4437 4.7708 3.4319
-9.4047 4.6425 3.4316
-9.3651 4.5157 3.4313
-9.3250 4.3905 3.4310
-9.2843 4.2667 3.4307
-9.2430 4.1445 3.4304
-9.2012 4.0238 3.4301
-9.1589 3.9045 3.4299
-9.1161 3.7867 3.4296
-9.0728 3.6703 3.4293
-9.0291 3.5554 3.4290
-8.9849 3.4419 3.4287
-8.9404 3.3298 3.4285
-8.8953 3.2192 3.4282
-8.8500 3.1098 3.4279
-8.8042 3.0019 3.4277
-8.7581 2.8953 3.4274
-8.7117 2.7901 3.4271
-8.6649 2.6861 3.4269
-8.6178 2.5835 3.4266
-8.5704 2.4822 3.4264
-8.5227 2.3821 3.4261
-8.4748 2.2834 3.4259
-8.4266 2.1859 3.4256
-8.3725 2.0882 3.4231
-8.3170 1.9916 3.4201
-8.2616 1.8964 3.4171
-8.2040 1.8021 3.4133
-8.1468 1.7093 3.4098
-8.0897 1.6179 3.4063
-8.0326 1.5278 3.4028
-7.9747 1.4389 3.3991
-7.9163 1.3512 3.3951
-7.8579 1.2648 3.3912
-7.7997 1.1798 3.3874
-7.7414 1.0960 3.3836
-7.6831 1.0134 3.3798
-7.6246 0.9321 3.3759
-7.5662 0.8520 3.3721
-7.5079 0.7731 3.3683
-7.4501 0.6954 3.3647
-7.3924 0.6189 3.3612
-7.3347 0.5435 3.3577
-7.2771 0.4693 3.3542
-7.2197 0.3961 3.3508
-7.1624 0.3241 3.3474
-7.1054 0.2531 3.3442
-7.0485 0.1833 3.3410
-6.9918 0.1144 3.3379
-6.9351 0.0466 3.3348
-6.8786 -0.0202 3.3317
-6.8222 -0.0860 3.3287
-6.7659 -0.1509 3.3257
-6.7098 -0.2147 3.3228
-6.6537 -0.2777 3.3199
-6.5979 -0.3397 3.3170
-6.5422 -0.4007 3.3142
-6.4866 -0.4609 3.3114
-6.4311 -0.5201 3.3087
-6.3758 -0.5785 3.3060
-6.3200 -0.6360 3.3030
-5.9857 -0.9625 3.2844
-6.2645 -0.6926 3.3001
-5.9288 -1.0137 3.2804
-6.2090 -0.7483 3.2973
-5.8716 -1.0640 3.2762
-6.1538 -0.8032 3.2944
-5.8132 -1.1133 3.2713
-6.0980 -0.8572 3.2912
-5.7536 -1.1614 3.2656
-6.0418 -0.9102 3.2878
-5.6918 -1.2082 3.2585
-5.6257 -1.2531 3.2488
-5.2902 -1.5187 3.2238
-5.5668 -1.2987 3.2431
-5.2356 -1.5606 3.2201
-5.1813 -1.6019 3.2165
-5.5110 -1.3441 3.2391
-5.1271 -1.6424 3.2129
-5.4555 -1.3888 3.2352
-5.0732 -1.6823 3.2094
-5.4002 -1.4328 3.2313
-5.0196 -1.7216 3.2059
-5.3451 -1.4761 3.2275
-4.9661 -1.7603 3.2025
-4.6498 -1.9793 3.1830
-4.9128 -1.7983 3.1991
-4.8598 -1.8357 3.1958
-4.5978 -2.0138 3.1800
-4.8070 -1.8725 3.1925
-4.5461 -2.0477 3.1770
-4.7544 -1.9087 3.1893
-4.4945 -2.0811 3.1740
-4.7020 -1.9443 3.1862
-4.4431 -2.1139 3.1710
-4.3409 -2.1779 3.1653
-4.3919 -2.1461 3.1682
-4.2901 -2.2091 3.1625
-4.2395 -2.2398 3.1598
-4.1890 -2.2700 3.1570
-4.1387 -2.2997 3.1544
-4.0887 -2.3289 3.1517
-4.0388 -2.3576 3.1491
-3.9890 -2.3858 3.1466
-3.9394 -2.4136 3.1441
-3.8901 -2.4409 3.1416
-3.8408 -2.4677 3.1392
-3.7918 -2.4941 3.1368
-3.7429 -2.5200 3.1344
-3.6941 -2.5455 3.1321
-3.6455 -2.5705 3.1298
-3.5971 -2.5951 3.1275
-6.5275 14.0602 3.4534
-6.6165 13.9195 3.4531
-6.7032 13.7777 3.4528
-6.7875 13.6349 3.4524
-6.8695 13.4911 3.4521
-6.9492 13.3465 3.4518
-7.0266 13.2011 3.4514
-7.1017 13.0550 3.4511
-7.1745 12.9082 3.4508
-7.2449 12.7608 3.4504
-7.3132 12.6130 3.4501
-7.3791 12.4646 3.4498
-7.4429 12.3159 3.4494
-7.5044 12.1669 3.4491
-7.5637 12.0176 3.4487
-7.6208 11.8681 3.4484
-7.6757 11.7184 3.4480
-7.7286 11.5687 3.4477
-7.7793 11.4189 3.4474
-7.8279 11.2692 3.4470
-7.8744 11.1195 3.4467
-7.9189 10.9699 3.4463
-7.9614 10.8206 3.4460
-8.0018 10.6714 3.4456
-8.0403 10.5225 3.4453
-8.0769 10.3739 3.4449
-8.1115 10.2257 3.4446
-8.1443 10.0779 3.4442
-8.1752 9.9305 3.4439
-8.2042 9.7835 3.4436
-8.2315 9.6371 3.4432
-8.2570 9.4912 3.4429
-8.2807 9.3459 3.4425
-8.3027 9.2012 3.4422
-8.3230 9.0572 3.4419
-8.3417 8.9138 3.4415
-8.3587 8.7711 3.4412
-8.3741 8.6291 3.4409
-8.3880 8.4878 3.4405
-8.4003 8.3474 3.4402
-8.4111 8.2077 3.4399
-8.4204 8.0689 3.4396
-8.4282 7.9309 3.4392
-8.4346 7.7937 3.4389
-8.4397 7.6575 3.4386
-8.4433 7.5221 3.4383
-8.4456 7.3876 3.4380
-8.4466 7.2541 3.4376
-8.4463 7.1215 3.4373
-8.4447 6.9898 3.4370
-8.4419 6.8591 3.4367
-8.4379 6.7294 3.4364
-8.4327 6.6007 3.4361
-8.4263 6.4729 3.4358
-8.4188 6.3462 3.4355
-8.4102 6.2205 3.4352
-8.4006 6.0958 3.4349
-8.3898 5.9721 3.4346
-8.3781 5.8495 3.4343
-8.3653 5.7279 3.4340
-8.3516 5.6074 3.4338
-8.3369 5.4878 3.4335
-8.3212 5.3694 3.4332
-8.3047 5.2520 3.4329
-8.2872 5.1357 3.4326
-8.2689 5.0203 3.4324
-8.2497 4.9061 3.4321
-8.2297 4.7930 3.4318
-8.2089 4.6808 3.4315
-8.1874 4.5698 3.4313
-8.1650 4.4598 3.4310
-8.1419 4.3508 3.4308
-8.1181 4.2429 3.4305
-8.0936 4.1361 3.4302
-7.9609 3.6175 3.4290
-8.0683 4.0303 3.4300
-7.9325 3.5169 3.4287
-8.0424 3.9255 3.4297
-8.0159 3.8218 3.4295
-7.9035 3.4174 3.4285
-7.9887 3.7191 3.4292
-7.7821 3.0293 3.4275
-7.8740 3.3188 3.4283
-7.5850 2.4772 3.4262
-7.7504 2.9348 3.4273
-7.8439 3.2213 3.4280
-7.5506 2.3886 3.4260
-7.5158 2.3010 3.4258
-7.7183 2.8413 3.4271
-7.8132 3.1248 3.4278
-7.4801 2.2142 3.4254
-7.6856 2.7488 3.4269
-7.3563 1.9557 3.4173
-7.4391 2.1269 3.4227
-7.6525 2.6573 3.4266
-7.3126 1.8711 3.4138
-7.3978 2.0408 3.4200
-7.6190 2.5668 3.4264
-7.0930 1.4650 3.3976
-7.2690 1.7878 3.4105
-6.8199 1.0108 3.3770
-7.0479 1.3868 3.3941
-7.2256 1.7056 3.4074
-7.0026 1.3096 3.3907
-6.7737 0.9386 3.3736
-7.1820 1.6244 3.4043
-6.9572 1.2334 3.3873
-6.7275 0.8673 3.3702
-6.9117 1.1582 3.3839
-7.1381 1.5443 3.4012
-6.8659 1.0841 3.3805
-6.6813 0.7970 3.3669
-6.5430 0.5918 3.3575
-6.2652 0.2055 3.3398
-6.6354 0.7277 3.3638
-5.9871 -0.1506 3.3236
-6.4967 0.5252 3.3544
-6.2189 0.1441 3.3370
-6.5893 0.6593 3.3607
-6.1726 0.0835 3.3343
-5.9407 -0.2071 3.3210
-6.4504 0.4595 3.3514
-6.1262 0.0238 3.3315
-5.7089 -0.4786 3.3085
-5.8943 -0.2629 3.3184
-6.4040 0.3947 3.3484
-6.0798 -0.0351 3.3288
-5.6626 -0.5307 3.3061
-6.0334 -0.0932 3.3262
-5.8479 -0.3180 3.3159
-6.3578 0.3307 3.3455
-5.4151 -0.7782 3.2846
-5.6159 -0.5820 3.3035
-6.3115 0.2677 3.3426
-5.8016 -0.3722 3.3134
-5.3660 -0.8255 3.2805
-5.5684 -0.6325 3.3004
-5.7552 -0.4258 3.3109
-5.1226 -1.0517 3.2609
