ply
format ascii 1.0
element vertex 2179
property float32 x
property float32 y
property float32 z
end_header
8.0557 -1.3380 -1.0969
8.0531 -1.2585 -1.1181
8.0399 -0.8650 -1.2255
8.0504 -1.1794 -1.1394
8.0373 -0.7869 -1.2472
8.0478 -1.1004 -1.1608
8.0347 -0.7089 -1.2691
8.0451 -1.0217 -1.1823
8.0321 -0.6312 -1.2910
8.0425 -0.9432 -1.2038
8.0295 -0.5535 -1.3131
8.0269 -0.4760 -1.3353
8.0139 -0.0897 -1.4480
8.0243 -0.3986 -1.3576
8.0114 -0.0126 -1.4710
8.0217 -0.3213 -1.3800
8.0088 0.0645 -1.4941
8.0191 -0.2441 -1.4025
8.0062 0.1416 -1.5174
8.0165 -0.1669 -1.4252
8.0036 0.2187 -1.5408
8.0011 0.2959 -1.5643
7.9881 0.6827 -1.6848
7.9985 0.3731 -1.5881
7.9855 0.7604 -1.7094
7.9959 0.4503 -1.6120
7.9829 0.8383 -1.7342
7.9933 0.5277 -1.6360
7.9803 0.9163 -1.7593
7.9907 0.6051 -1.6603
7.9777 0.9945 -1.7845
7.9751 1.0728 -1.8100
7.9725 1.1514 -1.8356
2.7383 -13.0381 2.0542
2.8777 -13.0483 2.0521
3.0180 -13.0592 2.0499
3.1593 -13.0707 2.0476
3.3017 -13.0829 2.0452
3.4452 -13.0958 2.0427
3.5898 -13.1093 2.0401
3.7357 -13.1235 2.0373
3.8828 -13.1385 2.0345
4.0313 -13.1541 2.0316
4.1812 -13.1705 2.0286
4.3325 -13.1877 2.0254
4.4855 -13.2056 2.0221
4.6400 -13.2243 2.0187
4.7963 -13.2438 2.0152
5.7420 -13.3049 1.9805
4.9543 -13.2641 2.0116
5.9443 -13.4043 1.9870
5.1141 -13.2852 2.0078
6.1169 -13.4305 1.9823
5.2759 -13.3072 2.0039
5.4398 -13.3301 1.9999
6.2918 -13.4571 1.9774
5.6057 -13.3539 1.9957
6.4692 -13.4847 1.9723
6.6493 -13.5133 1.9671
7.3069 -13.1556 1.8648
6.6781 -13.2375 1.9174
6.7484 -13.0523 1.8809
7.4999 -13.1928 1.8591
6.9310 -13.0849 1.8756
7.6966 -13.2314 1.8532
7.1173 -13.1196 1.8703
7.8970 -13.2713 1.8471
8.3097 -13.3551 1.8342
8.4257 -13.2472 1.8067
8.1014 -13.3126 1.8408
8.4162 -12.9475 1.7531
8.3895 -12.1050 1.6012
8.4070 -12.6576 1.7010
8.3811 -11.8415 1.5533
8.3981 -12.3769 1.6504
8.3730 -11.5858 1.5066
8.3479 -10.8594 1.3731
8.3652 -11.3376 1.4611
8.3406 -10.6316 1.3309
8.3334 -10.4099 1.2896
8.3575 -11.0966 1.4168
8.3265 -10.1941 1.2492
8.3132 -9.7790 1.1710
8.3198 -9.9839 1.2097
8.3068 -9.5792 1.1332
8.2826 -8.8269 0.9890
8.2770 -8.6496 0.9546
8.3005 -9.3844 1.0961
8.2714 -8.4761 0.9208
8.2944 -9.1942 1.0597
8.2659 -8.3065 0.8876
8.2606 -8.1404 0.8550
8.2885 -9.0084 1.0240
8.2554 -7.9778 0.8229
8.2315 -7.2128 0.6696
8.2514 -7.8196 0.7914
8.2268 -7.0683 0.6402
8.2463 -7.6634 0.7603
8.2413 -7.5103 0.7296
8.2221 -6.9263 0.6112
8.2363 -7.3602 0.6994
8.2175 -6.7869 0.5826
8.2086 -6.5154 0.5265
8.2043 -6.3831 0.4990
8.2130 -6.6500 0.5544
8.2000 -6.2529 0.4717
8.1876 -5.8749 0.3918
8.1958 -6.1249 0.4448
8.1836 -5.7528 0.3658
8.1916 -5.9989 0.4182
8.1796 -5.6324 0.3399
8.1681 -5.2818 0.2639
8.1757 -5.5139 0.3144
8.1644 -5.1682 0.2391
8.1719 -5.3970 0.2890
8.1607 -5.0561 0.2144
8.1587 -4.7337 0.1417
8.1570 -4.9455 0.1899
8.1553 -4.6272 0.1177
8.1535 -4.8364 0.1656
8.1519 -4.5219 0.0940
8.1420 -4.2135 0.0235
8.1486 -4.4179 0.0703
8.1388 -4.1130 0.0003
8.1453 -4.3151 0.0469
8.1356 -4.0136 -0.0227
8.1263 -3.7215 -0.0912
8.1325 -3.9152 -0.0456
8.1232 -3.6260 -0.1138
8.1293 -3.8178 -0.0685
8.1202 -3.5315 -0.1363
8.1112 -3.2531 -0.2032
8.1172 -3.4378 -0.1587
8.1083 -3.1619 -0.2254
8.1142 -3.3451 -0.1810
8.1054 -3.0715 -0.2475
8.0968 -2.8046 -0.3134
8.1025 -2.9818 -0.2695
8.0940 -2.7169 -0.3352
8.0912 -2.6300 -0.3570
8.0997 -2.8928 -0.2915
8.0885 -2.5436 -0.3788
8.0830 -2.3726 -0.4222
8.0857 -2.4578 -0.4005
8.0803 -2.2879 -0.4439
8.0696 -1.9542 -0.5305
8.0776 -2.2037 -0.4656
8.0669 -1.8719 -0.5521
8.0749 -2.1201 -0.4872
8.0702 -1.7914 -0.5741
8.0722 -2.0369 -0.5088
8.0675 -1.7098 -0.5957
8.0620 -1.5478 -0.6390
8.0648 -1.6286 -0.6173
8.0594 -1.4674 -0.6606
8.0487 -1.1487 -0.7475
8.0567 -1.3873 -0.6823
8.0460 -1.0697 -0.7694
8.0540 -1.3074 -0.7040
8.0434 -0.9909 -0.7912
8.0513 -1.2279 -0.7258
8.0408 -0.9124 -0.8131
8.0355 -0.7560 -0.8570
8.0382 -0.8341 -0.8350
8.0329 -0.6780 -0.8791
8.0225 -0.3676 -0.9680
8.0303 -0.6002 -0.9012
8.0200 -0.2903 -0.9905
8.0277 -0.5225 -0.9234
8.0174 -0.2130 -1.0130
8.0251 -0.4450 -0.9457
8.0148 -0.1358 -1.0356
8.0096 0.0184 -1.0811
8.0122 -0.0587 -1.0583
8.0071 0.0955 -1.1039
7.9967 0.4040 -1.1967
8.0045 0.1726 -1.1270
7.9942 0.4812 -1.2201
8.0019 0.2497 -1.1501
7.9916 0.5585 -1.2438
7.9993 0.3268 -1.1733
7.9890 0.6359 -1.2675
7.9864 0.7134 -1.2914
7.9838 0.7911 -1.3155
7.9812 0.8689 -1.3397
7.9786 0.9468 -1.3640
7.9760 1.0249 -1.3885
7.9734 1.1032 -1.4132
7.9730 1.1820 -1.4385
7.9649 1.2599 -1.4626
2.3782 -11.1687 2.3082
2.4987 -11.1745 2.3073
2.6198 -11.1806 2.3064
2.7418 -11.1871 2.3054
2.8645 -11.1939 2.3044
2.9880 -11.2010 2.3034
3.1124 -11.2082 2.3022
3.2374 -11.2151 2.3009
3.3633 -11.2222 2.2995
3.4903 -11.2298 2.2980
3.6182 -11.2376 2.2965
3.7473 -11.2459 2.2950
3.8774 -11.2544 2.2934
4.0087 -11.2634 2.2918
4.1412 -11.2727 2.2901
4.2750 -11.2825 2.2883
4.4101 -11.2926 2.2865
4.5466 -11.3031 2.2846
4.6845 -11.3140 2.2827
4.8240 -11.3254 2.2807
4.9649 -11.3371 2.2786
5.1075 -11.3494 2.2765
5.2518 -11.3620 2.2743
5.3978 -11.3751 2.2721
5.5457 -11.3887 2.2697
5.6650 -11.3420 2.2553
5.8471 -11.4174 2.2649
6.0009 -11.4325 2.2623
6.1568 -11.4481 2.2597
6.3147 -11.4638 2.2569
6.4749 -11.4801 2.2541
6.6055 -11.4415 2.2403
6.6136 -11.1944 2.1856
6.6914 -11.0710 2.1551
6.8553 -11.0894 2.1521
7.0223 -11.1092 2.1492
7.1923 -11.1297 2.1462
7.3652 -11.1509 2.1431
7.5412 -11.1728 2.1399
7.7204 -11.1954 2.1365
7.9031 -11.2187 2.1331
8.0892 -11.2428 2.1296
8.2789 -11.2677 2.1260
8.3596 -11.1430 2.0939
8.3520 -10.9049 2.0406
8.3426 -10.6707 1.9882
8.3353 -10.4456 1.9375
8.3283 -10.2265 1.8882
8.3214 -10.0133 1.8400
8.3148 -9.8055 1.7930
8.3082 -9.6030 1.7470
8.3019 -9.4055 1.7021
8.2957 -9.2128 1.6582
8.2897 -9.0247 1.6152
8.2838 -8.8411 1.5731
8.2780 -8.6616 1.5319
8.2724 -8.4862 1.4915
8.2668 -8.3146 1.4519
8.2615 -8.1468 1.4130
8.2562 -7.9825 1.3749
8.2521 -7.8226 1.3376
8.2469 -7.6648 1.3009
8.2418 -7.5102 1.2647
8.2368 -7.3587 1.2292
8.2320 -7.2100 1.1943
8.2272 -7.0642 1.1599
8.2225 -6.9211 1.1261
8.2178 -6.7805 1.0928
8.2133 -6.6425 1.0600
8.2088 -6.5068 1.0277
8.2045 -6.3735 0.9958
8.2001 -6.2424 0.9644
8.1959 -6.1135 0.9334
8.1917 -5.9866 0.9029
8.1836 -5.7388 0.8429
8.1876 -5.8618 0.8727
8.1796 -5.6178 0.8135
8.1643 -5.1508 0.6993
8.1757 -5.4985 0.7845
8.1606 -5.0382 0.6715
8.1718 -5.3810 0.7557
8.1569 -4.9270 0.6440
8.1680 -5.2651 0.7273
8.1609 -4.8218 0.6174
8.1540 -4.6064 0.5637
8.1574 -4.7134 0.5904
8.1506 -4.5007 0.5373
8.1374 -4.0901 0.4337
8.1473 -4.3962 0.5110
8.1342 -3.9903 0.4084
8.1439 -4.2930 0.4851
8.1311 -3.8915 0.3832
8.1407 -4.1910 0.4593
8.1279 -3.7938 0.3583
8.1218 -3.6014 0.3088
8.1248 -3.6971 0.3335
8.1187 -3.5065 0.2844
8.1068 -3.1359 0.1880
8.1157 -3.4126 0.2601
8.1039 -3.0452 0.1643
8.1127 -3.3195 0.2359
8.1011 -2.9553 0.1407
8.0982 -2.8661 0.1172
8.1098 -3.2273 0.2119
8.0954 -2.7777 0.0938
8.0926 -2.6898 0.0705
8.0788 -2.2599 -0.0446
8.0898 -2.6027 0.0473
8.0761 -2.1756 -0.0674
8.0870 -2.5161 0.0242
8.0734 -2.0918 -0.0901
8.0842 -2.4302 0.0012
8.0707 -2.0085 -0.1127
8.0815 -2.3448 -0.0218
8.0681 -1.9257 -0.1353
8.0713 -1.8446 -0.1580
8.0577 -1.4383 -0.2702
8.0685 -1.7626 -0.1805
8.0550 -1.3581 -0.2925
8.0658 -1.6809 -0.2030
8.0523 -1.2782 -0.3149
8.0631 -1.5997 -0.2254
8.0497 -1.1986 -0.3372
8.0604 -1.5188 -0.2478
8.0470 -1.1193 -0.3595
8.0444 -1.0402 -0.3818
8.0313 -0.6484 -0.4934
8.0417 -0.9614 -0.4041
8.0286 -0.5705 -0.5158
8.0391 -0.8829 -0.4264
8.0260 -0.4929 -0.5382
8.0365 -0.8045 -0.4487
8.0235 -0.4153 -0.5606
8.0339 -0.7263 -0.4711
8.0209 -0.3379 -0.5831
8.0183 -0.2606 -0.6056
8.0054 0.1251 -0.7188
8.0157 -0.1833 -0.6281
8.0028 0.2022 -0.7417
8.0131 -0.1062 -0.6507
8.0002 0.2792 -0.7646
8.0105 -0.0290 -0.6733
7.9976 0.3563 -0.7875
8.0079 0.0481 -0.6961
7.9951 0.4335 -0.8106
7.9925 0.5107 -0.8338
7.9795 0.8980 -0.9510
7.9769 0.9759 -0.9747
7.9899 0.5879 -0.8570
7.9743 1.0539 -0.9986
7.9873 0.6653 -0.8803
7.9847 0.7427 -0.9038
7.9717 1.1321 -1.0226
7.9821 0.8203 -0.9273
7.9700 1.2107 -1.0469
7.9620 1.2885 -1.0705
7.9540 1.3664 -1.0941
2.0801 -9.6343 2.4738
2.1958 -9.6849 2.4860
2.3018 -9.6877 2.4859
2.4083 -9.6905 2.4857
2.5154 -9.6935 2.4856
2.6231 -9.6966 2.4854
2.7316 -9.6997 2.4852
2.8406 -9.7031 2.4850
2.9504 -9.7065 2.4848
3.0610 -9.7101 2.4846
3.1723 -9.7138 2.4843
3.2845 -9.7176 2.4841
3.3975 -9.7215 2.4838
3.5114 -9.7256 2.4836
3.6263 -9.7299 2.4833
3.7421 -9.7342 2.4830
3.8589 -9.7387 2.4826
3.9767 -9.7434 2.4823
4.0952 -9.7472 2.4817
4.2148 -9.7511 2.4811
4.3355 -9.7551 2.4804
4.4574 -9.7592 2.4797
4.5805 -9.7635 2.4790
4.7049 -9.7680 2.4783
4.8306 -9.7726 2.4776
4.9577 -9.7773 2.4768
5.0862 -9.7823 2.4760
5.2162 -9.7873 2.4752
5.3477 -9.7926 2.4744
5.4808 -9.7980 2.4736
5.5866 -9.7531 2.4599
5.7520 -9.8094 2.4718
5.8902 -9.8153 2.4709
6.0303 -9.8215 2.4699
6.1720 -9.8273 2.4688
6.3153 -9.8328 2.4675
6.4606 -9.8385 2.4662
6.5524 -9.7617 2.4442
6.5602 -9.5628 2.3916
6.6254 -9.4518 2.3610
6.7735 -9.4583 2.3597
6.9244 -9.4659 2.3585
7.0778 -9.4736 2.3574
7.2337 -9.4816 2.3562
7.3923 -9.4899 2.3549
7.5537 -9.4984 2.3536
7.7180 -9.5072 2.3523
7.8852 -9.5162 2.3509
8.0556 -9.5256 2.3496
8.2292 -9.5352 2.3481
8.3033 -9.4285 2.3179
8.2971 -9.2333 2.2660
8.2909 -9.0428 2.2153
8.2849 -8.8568 2.1658
8.2791 -8.6752 2.1174
8.2734 -8.4977 2.0700
8.2678 -8.3242 2.0237
8.2623 -8.1545 1.9783
8.2570 -7.9884 1.9339
8.2523 -7.8264 1.8904
8.2475 -7.6675 1.8478
8.2424 -7.5114 1.8059
8.2374 -7.3584 1.7648
8.2324 -7.2084 1.7245
8.2276 -7.0612 1.6849
8.2228 -6.9169 1.6460
8.2182 -6.7751 1.6077
8.2136 -6.6360 1.5702
8.2091 -6.4993 1.5332
8.2047 -6.3649 1.4969
8.2003 -6.2328 1.4611
8.1961 -6.1030 1.4259
8.1919 -5.9752 1.3912
8.1877 -5.8495 1.3570
8.1837 -5.7258 1.3234
8.1796 -5.6039 1.2902
8.1757 -5.4839 1.2575
8.1718 -5.3657 1.2252
8.1680 -5.2492 1.1933
8.1642 -5.1343 1.1619
8.1605 -5.0210 1.1309
8.1568 -4.9092 1.1002
8.1596 -4.8027 1.0708
8.1561 -4.6938 1.0409
8.1527 -4.5863 1.0113
8.1493 -4.4801 0.9820
8.1459 -4.3752 0.9531
8.1426 -4.2716 0.9245
8.1393 -4.1691 0.8962
8.1361 -4.0678 0.8681
8.1329 -3.9677 0.8404
8.1297 -3.8686 0.8129
8.1266 -3.7705 0.7856
8.1235 -3.6735 0.7587
8.1204 -3.5774 0.7319
8.1173 -3.4823 0.7054
8.1143 -3.3881 0.6791
8.1113 -3.2947 0.6530
8.1084 -3.2023 0.6271
8.1054 -3.1106 0.6014
8.1025 -3.0197 0.5759
8.0996 -2.9296 0.5506
8.0968 -2.8402 0.5255
8.0939 -2.7515 0.5005
8.0911 -2.6635 0.4757
8.0883 -2.5761 0.4510
8.0855 -2.4894 0.4265
8.0828 -2.4032 0.4021
8.0800 -2.3177 0.3779
8.0773 -2.2327 0.3538
8.0746 -2.1483 0.3298
8.0719 -2.0644 0.3059
8.0692 -1.9809 0.2822
8.0666 -1.8980 0.2585
8.0697 -1.8167 0.2351
8.0669 -1.7346 0.2116
8.0642 -1.6528 0.1882
8.0614 -1.5715 0.1649
8.0587 -1.4905 0.1417
8.0560 -1.4099 0.1185
8.0534 -1.3296 0.0954
8.0507 -1.2497 0.0724
8.0480 -1.1700 0.0494
8.0454 -1.0907 0.0265
8.0427 -1.0116 0.0036
8.0401 -0.9327 -0.0192
8.0374 -0.8541 -0.0420
8.0348 -0.7757 -0.0648
8.0322 -0.6975 -0.0875
8.0296 -0.6195 -0.1102
8.0270 -0.5417 -0.1329
8.0244 -0.4640 -0.1556
8.0218 -0.3865 -0.1782
8.0192 -0.3090 -0.2009
8.0166 -0.2317 -0.2236
8.0141 -0.1545 -0.2462
8.0115 -0.0773 -0.2689
8.0089 -0.0002 -0.2916
8.0063 0.0769 -0.3143
8.0037 0.1539 -0.3370
8.0012 0.2309 -0.3597
7.9986 0.3080 -0.3825
7.9960 0.3850 -0.4053
7.9934 0.4621 -0.4282
7.9908 0.5392 -0.4510
7.9883 0.6165 -0.4740
7.9857 0.6937 -0.4970
7.9831 0.7711 -0.5200
7.9805 0.8486 -0.5432
7.9779 0.9263 -0.5664
7.9753 1.0041 -0.5896
7.9727 1.0820 -0.6130
7.9751 1.1608 -0.6368
7.9672 1.2384 -0.6599
7.9592 1.3160 -0.6830
7.9512 1.3938 -0.7062
7.9431 1.4717 -0.7295
1.8577 -8.4849 2.6144
1.9511 -8.4856 2.6148
2.0352 -8.4461 2.6029
2.1290 -8.4467 2.6033
2.2338 -8.4876 2.6162
2.3290 -8.4882 2.6167
2.4247 -8.4887 2.6172
2.5209 -8.4893 2.6176
2.6177 -8.4898 2.6181
2.7151 -8.4903 2.6186
2.8131 -8.4908 2.6191
2.9117 -8.4912 2.6196
3.0109 -8.4917 2.6201
3.1109 -8.4921 2.6207
3.2115 -8.4925 2.6212
3.3129 -8.4928 2.6217
3.4150 -8.4931 2.6223
3.5180 -8.4935 2.6228
3.6217 -8.4937 2.6234
3.7263 -8.4940 2.6239
3.8318 -8.4942 2.6245
3.9382 -8.4944 2.6251
4.0451 -8.4937 2.6254
4.1530 -8.4928 2.6257
4.2618 -8.4919 2.6260
4.3716 -8.4909 2.6263
4.4825 -8.4900 2.6266
4.5945 -8.4889 2.6269
4.7076 -8.4879 2.6272
4.8218 -8.4868 2.6275
4.9373 -8.4856 2.6278
5.0541 -8.4844 2.6282
5.1721 -8.4832 2.6285
5.2915 -8.4819 2.6288
5.4123 -8.4806 2.6292
5.5070 -8.4372 2.6165
5.6301 -8.4358 2.6169
5.7834 -8.4764 2.6303
5.9102 -8.4749 2.6307
6.0387 -8.4733 2.6311
6.1678 -8.4703 2.6311
6.2985 -8.4670 2.6310
6.4309 -8.4635 2.6309
6.5072 -8.3852 2.6075
6.5145 -8.2207 2.5573
6.5516 -8.0971 2.5199
6.6858 -8.0935 2.5198
6.8228 -8.0906 2.5199
6.9618 -8.0877 2.5201
7.1031 -8.0847 2.5203
7.2466 -8.0817 2.5205
7.3925 -8.0785 2.5207
7.5408 -8.0753 2.5209
7.6917 -8.0719 2.5211
7.8452 -8.0685 2.5213
8.0014 -8.0650 2.5216
8.1605 -8.0614 2.5218
8.2579 -7.9950 2.5024
8.2526 -7.8308 2.4524
8.2482 -7.6707 2.4037
8.2430 -7.5130 2.3558
8.2379 -7.3586 2.3088
8.2329 -7.2072 2.2628
8.2280 -7.0587 2.2176
8.2233 -6.9131 2.1734
8.2185 -6.7701 2.1300
8.2139 -6.6298 2.0873
8.2094 -6.4920 2.0455
8.2049 -6.3566 2.0044
8.2005 -6.2236 1.9640
8.1962 -6.0928 1.9244
8.1920 -5.9641 1.8854
8.1878 -5.8376 1.8470
8.1837 -5.7130 1.8093
8.1797 -5.5904 1.7721
8.1757 -5.4696 1.7355
8.1718 -5.3507 1.6995
8.1679 -5.2334 1.6641
8.1641 -5.1179 1.6291
8.1604 -5.0040 1.5947
8.1567 -4.8916 1.5607
8.1584 -4.7839 1.5282
8.1549 -4.6745 1.4951
8.1514 -4.5665 1.4625
8.1480 -4.4598 1.4303
8.1446 -4.3545 1.3985
8.1413 -4.2504 1.3672
8.1380 -4.1475 1.3361
8.1347 -4.0458 1.3055
8.1315 -3.9453 1.2752
8.1283 -3.8458 1.2452
8.1252 -3.7474 1.2156
8.1221 -3.6501 1.1863
8.1190 -3.5537 1.1573
8.1159 -3.4583 1.1286
8.1129 -3.3638 1.1002
8.1099 -3.2701 1.0721
8.1070 -3.1774 1.0442
8.1040 -3.0855 1.0166
8.1011 -2.9944 0.9893
8.0982 -2.9040 0.9621
8.0953 -2.8144 0.9353
8.0925 -2.7255 0.9086
8.0897 -2.6373 0.8822
8.0869 -2.5497 0.8560
8.0841 -2.4628 0.8299
8.0813 -2.3766 0.8041
8.0786 -2.2909 0.7785
8.0759 -2.2057 0.7530
8.0732 -2.1212 0.7277
8.0705 -2.0371 0.7026
8.0678 -1.9535 0.6776
8.0651 -1.8705 0.6528
8.0680 -1.7891 0.6286
8.0653 -1.7068 0.6040
8.0625 -1.6250 0.5796
8.0598 -1.5435 0.5554
8.0571 -1.4625 0.5312
8.0544 -1.3818 0.5072
8.0517 -1.3015 0.4833
8.0491 -1.2215 0.4594
8.0464 -1.1418 0.4357
8.0437 -1.0623 0.4121
8.0411 -0.9832 0.3886
8.0384 -0.9043 0.3651
8.0358 -0.8257 0.3418
8.0332 -0.7473 0.3185
8.0306 -0.6690 0.2953
8.0280 -0.5910 0.2722
8.0254 -0.5132 0.2491
8.0228 -0.4355 0.2260
8.0202 -0.3579 0.2031
8.0176 -0.2805 0.1801
8.0150 -0.2032 0.1573
8.0124 -0.1260 0.1344
8.0098 -0.0488 0.1116
8.0073 0.0283 0.0888
8.0047 0.1053 0.0660
8.0021 0.1823 0.0433
7.9995 0.2593 0.0206
7.9970 0.3363 -0.0022
7.9944 0.4133 -0.0249
7.9918 0.4903 -0.0476
7.9892 0.5674 -0.0703
7.9866 0.6446 -0.0930
7.9841 0.7218 -0.1158
7.9815 0.7991 -0.1385
7.9789 0.8765 -0.1613
7.9763 0.9541 -0.1841
7.9737 1.0318 -0.2070
7.9711 1.1096 -0.2298
7.9723 1.1882 -0.2529
7.9644 1.2656 -0.2757
7.9564 1.3431 -0.2985
7.9484 1.4207 -0.3213
7.9404 1.4985 -0.3442
7.9324 1.5764 -0.3670
0.8469 -3.8135 1.3766
0.8896 -3.8143 1.3775
1.8334 -7.5007 2.7099
1.9176 -7.5000 2.7109
1.9932 -7.4655 2.6996
2.0778 -7.4646 2.7006
2.1726 -7.4973 2.7138
2.2584 -7.4962 2.7148
2.3447 -7.4949 2.7159
2.4314 -7.4935 2.7169
2.5186 -7.4920 2.7180
2.6063 -7.4903 2.7190
2.6945 -7.4886 2.7201
2.7833 -7.4867 2.7213
2.8726 -7.4847 2.7224
2.9625 -7.4825 2.7235
3.0529 -7.4803 2.7247
3.1440 -7.4779 2.7259
3.2357 -7.4753 2.7271
3.3281 -7.4726 2.7283
3.4211 -7.4698 2.7296
3.5148 -7.4666 2.7307
3.6088 -7.4626 2.7317
3.7036 -7.4584 2.7327
3.7991 -7.4541 2.7337
3.8954 -7.4496 2.7347
3.9925 -7.4450 2.7357
4.0904 -7.4402 2.7368
4.1892 -7.4352 2.7378
4.2889 -7.4301 2.7389
4.3895 -7.4248 2.7401
4.4910 -7.4193 2.7412
4.5934 -7.4137 2.7424
4.6969 -7.4078 2.7436
4.8015 -7.4018 2.7448
4.9070 -7.3956 2.7461
5.0137 -7.3892 2.7473
5.1216 -7.3826 2.7486
5.2306 -7.3759 2.7500
5.3408 -7.3689 2.7513
5.4523 -7.3617 2.7527
5.5387 -7.3194 2.7411
5.6792 -7.3466 2.7556
5.7947 -7.3387 2.7570
5.9116 -7.3306 2.7585
6.0299 -7.3222 2.7600
6.1479 -7.3114 2.7608
6.2674 -7.3003 2.7615
6.3884 -7.2889 2.7623
6.4674 -7.2285 2.7446
6.4744 -7.0891 2.6969
6.4865 -6.9584 2.6525
6.5929 -6.9294 2.6469
6.7171 -6.9175 2.6479
6.8434 -6.9055 2.6490
6.9716 -6.8932 2.6502
7.1017 -6.8806 2.6514
7.2338 -6.8676 2.6527
7.3680 -6.8543 2.6540
7.5043 -6.8406 2.6553
7.6429 -6.8266 2.6567
7.7837 -6.8122 2.6581
7.9269 -6.7974 2.6595
8.0726 -6.7822 2.6610
8.2189 -6.7649 2.6619
8.2142 -6.6234 2.6140
8.2097 -6.4845 2.5670
8.2052 -6.3481 2.5209
8.2007 -6.2140 2.4757
8.1964 -6.0822 2.4313
8.1921 -5.9527 2.3877
8.1879 -5.8253 2.3449
8.1838 -5.6999 2.3029
8.1797 -5.5765 2.2615
8.1757 -5.4550 2.2209
8.1718 -5.3353 2.1810
8.1679 -5.2174 2.1417
8.1641 -5.1012 2.1030
8.1603 -4.9866 2.0649
8.1566 -4.8737 2.0275
8.1571 -4.7647 1.9916
8.1535 -4.6548 1.9553
8.1501 -4.5463 1.9194
8.1467 -4.4391 1.8841
8.1433 -4.3333 1.8493
8.1399 -4.2288 1.8150
8.1366 -4.1255 1.7812
8.1334 -4.0234 1.7478
8.1301 -3.9225 1.7148
8.1270 -3.8227 1.6822
8.1238 -3.7240 1.6501
8.1207 -3.6263 1.6183
8.1176 -3.5296 1.5870
8.1145 -3.4339 1.5560
8.1115 -3.3391 1.5253
8.1085 -3.2452 1.4950
8.1055 -3.1522 1.4651
8.1026 -3.0600 1.4354
8.0996 -2.9687 1.4061
8.0968 -2.8781 1.3771
8.0939 -2.7883 1.3484
8.0910 -2.6992 1.3199
8.0882 -2.6108 1.2918
8.0854 -2.5231 1.2639
8.0826 -2.4360 1.2362
8.0799 -2.3496 1.2089
8.0771 -2.2637 1.1817
8.0744 -2.1785 1.1548
8.0717 -2.0938 1.1281
8.0690 -2.0096 1.1017
8.0663 -1.9259 1.0754
8.0654 -1.8431 1.0496
8.0664 -1.7612 1.0242
8.0636 -1.6788 0.9985
8.0609 -1.5969 0.9730
8.0582 -1.5154 0.9477
8.0555 -1.4343 0.9225
8.0528 -1.3535 0.8975
8.0501 -1.2731 0.8727
8.0474 -1.1930 0.8480
8.0447 -1.1133 0.8235
8.0421 -1.0338 0.7991
8.0394 -0.9546 0.7748
8.0368 -0.8757 0.7507
8.0342 -0.7971 0.7267
8.0316 -0.7186 0.7028
8.0289 -0.6404 0.6790
8.0263 -0.5624 0.6554
8.0237 -0.4845 0.6318
8.0211 -0.4068 0.6084
8.0185 -0.3293 0.5850
8.0159 -0.2518 0.5617
8.0134 -0.1745 0.5385
8.0108 -0.0973 0.5154
8.0082 -0.0202 0.4924
8.0056 0.0568 0.4694
8.0030 0.1338 0.4465
8.0005 0.2108 0.4237
7.9979 0.2878 0.4009
7.9953 0.3647 0.3781
7.9928 0.4417 0.3554
7.9902 0.5186 0.3328
7.9876 0.5957 0.3102
7.9850 0.6727 0.2876
7.9824 0.7499 0.2650
7.9799 0.8271 0.2425
7.9773 0.9045 0.2200
7.9747 0.9819 0.1974
7.9721 1.0595 0.1750
7.9695 1.1373 0.1525
7.9695 1.2156 0.1300
7.9616 1.2929 0.1074
7.9536 1.3702 0.0849
7.9456 1.4477 0.0624
7.9376 1.5253 0.0398
7.9296 1.6030 0.0173
7.9197 1.6805 -0.0052
0.7641 -3.3914 1.4098
0.8025 -3.3911 1.4106
0.8410 -3.3908 1.4115
0.8796 -3.3905 1.4123
0.9184 -3.3900 1.4132
1.8833 -6.6674 2.7815
1.9523 -6.6388 2.7719
2.0293 -6.6372 2.7736
2.1153 -6.6625 2.7866
2.1935 -6.6605 2.7883
2.2720 -6.6584 2.7901
2.3509 -6.6560 2.7918
2.4302 -6.6535 2.7936
2.5100 -6.6508 2.7955
2.5902 -6.6478 2.7973
2.6709 -6.6447 2.7992
2.7521 -6.6414 2.8011
2.8338 -6.6379 2.8030
2.9155 -6.6330 2.8045
2.9976 -6.6277 2.8059
3.0802 -6.6221 2.8073
3.1633 -6.6163 2.8087
3.2470 -6.6104 2.8101
3.3312 -6.6041 2.8116
3.4161 -6.5977 2.8131
3.5015 -6.5910 2.8147
3.5875 -6.5841 2.8162
3.6742 -6.5770 2.8178
3.7616 -6.5696 2.8194
3.8496 -6.5620 2.8211
3.9383 -6.5542 2.8228
4.0278 -6.5461 2.8245
4.1179 -6.5377 2.8262
4.2089 -6.5291 2.8280
4.3006 -6.5202 2.8298
4.3932 -6.5110 2.8317
4.4866 -6.5016 2.8336
4.5808 -6.4919 2.8355
4.6760 -6.4819 2.8375
4.7720 -6.4716 2.8394
4.8690 -6.4610 2.8415
4.9670 -6.4501 2.8436
5.0659 -6.4389 2.8457
5.1659 -6.4273 2.8478
5.2670 -6.4155 2.8500
5.3691 -6.4033 2.8523
5.4470 -6.3611 2.8413
5.5503 -6.3476 2.8433
5.6817 -6.3639 2.8589
5.7879 -6.3495 2.8610
5.8953 -6.3349 2.8631
6.0038 -6.3196 2.8652
6.1121 -6.3023 2.8667
6.2217 -6.2846 2.8681
6.3326 -6.2665 2.8697
6.4316 -6.2352 2.8653
6.4383 -6.1149 2.8202
6.4447 -5.9967 2.7759
6.4945 -5.9202 2.7509
6.6071 -5.9004 2.7525
6.7219 -5.8807 2.7543
6.8382 -5.8605 2.7562
6.9562 -5.8397 2.7581
7.0758 -5.8185 2.7601
7.1972 -5.7967 2.7621
7.3203 -5.7743 2.7642
7.4453 -5.7514 2.7663
7.5722 -5.7279 2.7685
7.7011 -5.7038 2.7707
7.8320 -5.6791 2.7730
7.9650 -5.6537 2.7754
8.1002 -5.6277 2.7778
8.1797 -5.5616 2.7607
8.1757 -5.4393 2.7158
8.1717 -5.3189 2.6717
8.1678 -5.2003 2.6284
8.1640 -5.0835 2.5858
8.1602 -4.9683 2.5439
8.1564 -4.8548 2.5027
8.1557 -4.7445 2.4632
8.1522 -4.6341 2.4233
8.1487 -4.5251 2.3841
8.1453 -4.4175 2.3456
8.1419 -4.3112 2.3076
8.1385 -4.2063 2.2701
8.1352 -4.1026 2.2333
8.1320 -4.0001 2.1970
8.1287 -3.8988 2.1611
8.1255 -3.7987 2.1258
8.1224 -3.6996 2.0910
8.1192 -3.6016 2.0567
8.1161 -3.5046 2.0228
8.1131 -3.4086 1.9893
8.1100 -3.3136 1.9563
8.1070 -3.2194 1.9237
8.1041 -3.1262 1.8916
8.1011 -3.0338 1.8598
8.0982 -2.9422 1.8283
8.0953 -2.8514 1.7973
8.0924 -2.7614 1.7666
8.0896 -2.6721 1.7363
8.0867 -2.5835 1.7063
8.0839 -2.4957 1.6766
8.0811 -2.4084 1.6472
8.0784 -2.3218 1.6182
8.0756 -2.2358 1.5894
8.0729 -2.1504 1.5610
8.0702 -2.0656 1.5328
8.0675 -1.9813 1.5049
8.0648 -1.8975 1.4773
8.0675 -1.8154 1.4508
8.0647 -1.7325 1.4237
8.0620 -1.6501 1.3967
8.0592 -1.5681 1.3700
8.0565 -1.4865 1.3435
8.0538 -1.4053 1.3173
8.0511 -1.3245 1.2913
8.0484 -1.2440 1.2654
8.0457 -1.1639 1.2398
8.0431 -1.0841 1.2143
8.0404 -1.0046 1.1891
8.0378 -0.9254 1.1640
8.0351 -0.8465 1.1391
8.0325 -0.7678 1.1144
8.0299 -0.6893 1.0898
8.0273 -0.6111 1.0654
8.0247 -0.5331 1.0412
8.0221 -0.4552 1.0170
8.0195 -0.3775 0.9931
8.0169 -0.3000 0.9692
8.0143 -0.2226 0.9455
8.0117 -0.1453 0.9220
8.0091 -0.0681 0.8985
8.0065 0.0090 0.8752
8.0040 0.0860 0.8519
8.0014 0.1630 0.8288
7.9988 0.2399 0.8058
7.9962 0.3168 0.7828
7.9937 0.3937 0.7600
7.9911 0.4706 0.7372
7.9885 0.5475 0.7146
7.9860 0.6244 0.6920
7.9834 0.7014 0.6694
7.9808 0.7785 0.6470
7.9782 0.8557 0.6246
7.9756 0.9329 0.6023
7.9731 1.0103 0.5800
7.9705 1.0878 0.5578
7.9746 1.1664 0.5360
7.9666 1.2435 0.5135
7.9587 1.3206 0.4911
7.9508 1.3978 0.4687
7.9428 1.4751 0.4464
7.9348 1.5525 0.4242
7.9268 1.6301 0.4020
7.9156 1.7071 0.3796
7.9037 1.7841 0.3574
0.7752 -3.3899 1.6021
0.8141 -3.3894 1.6032
0.8531 -3.3888 1.6044
0.8923 -3.3883 1.6056
1.6424 -5.9720 2.8327
1.7117 -5.9693 2.8343
1.7812 -5.9664 2.8359
1.8511 -5.9632 2.8376
1.9212 -5.9599 2.8393
1.9835 -5.9320 2.8294
2.0623 -5.9524 2.8427
2.1333 -5.9484 2.8445
2.2047 -5.9441 2.8462
2.2764 -5.9396 2.8480
2.3485 -5.9348 2.8499
2.4209 -5.9299 2.8517
2.4937 -5.9246 2.8536
2.5668 -5.9192 2.8555
2.6404 -5.9134 2.8575
2.7144 -5.9075 2.8594
2.7888 -5.9012 2.8614
2.8636 -5.8947 2.8635
2.9389 -5.8880 2.8655
3.0146 -5.8810 2.8676
3.0908 -5.8737 2.8697
3.1675 -5.8662 2.8719
3.2447 -5.8583 2.8740
3.3223 -5.8502 2.8763
3.4006 -5.8419 2.8785
3.4793 -5.8332 2.8808
3.5587 -5.8242 2.8831
3.6386 -5.8150 2.8855
3.7190 -5.8054 2.8878
3.8001 -5.7955 2.8903
3.8818 -5.7853 2.8927
3.9642 -5.7748 2.8952
4.0472 -5.7640 2.8978
4.1309 -5.7528 2.9004
4.2152 -5.7413 2.9030
4.3003 -5.7295 2.9056
4.3853 -5.7163 2.9078
4.4711 -5.7027 2.9100
4.5575 -5.6887 2.9123
4.6447 -5.6744 2.9146
4.7327 -5.6597 2.9169
4.8215 -5.6446 2.9193
4.9111 -5.6291 2.9217
5.0016 -5.6132 2.9242
5.0930 -5.5970 2.9267
5.1852 -5.5803 2.9292
5.2784 -5.5632 2.9319
5.3725 -5.5456 2.9345
5.4429 -5.5027 2.9240
5.5636 -5.5092 2.9400
5.6607 -5.4902 2.9429
5.7589 -5.4709 2.9458
5.8582 -5.4510 2.9487
5.9585 -5.4306 2.9517
6.0577 -5.4076 2.9536
6.1579 -5.3841 2.9556
6.2592 -5.3600 2.9575
6.3616 -5.3353 2.9596
6.4042 -5.2599 2.9337
6.4103 -5.1558 2.8917
6.4164 -5.0533 2.8506
6.4872 -5.0023 2.8386
6.5911 -4.9759 2.8408
6.6969 -4.9493 2.8433
6.8041 -4.9220 2.8458
6.9126 -4.8941 2.8484
7.0226 -4.8655 2.8511
7.1341 -4.8363 2.8539
7.2471 -4.8063 2.8567
7.3618 -4.7756 2.8595
7.4780 -4.7442 2.8625
7.5959 -4.7119 2.8655
7.7156 -4.6789 2.8686
7.8371 -4.6451 2.8718
7.9597 -4.6101 2.8748
8.0842 -4.5742 2.8779
8.1473 -4.5023 2.8588
8.1438 -4.3943 2.8167
8.1404 -4.2876 2.7753
8.1371 -4.1822 2.7346
8.1338 -4.0782 2.6946
8.1305 -3.9753 2.6552
8.1272 -3.8737 2.6163
8.1240 -3.7732 2.5781
8.1209 -3.6738 2.5405
8.1177 -3.5755 2.5034
8.1146 -3.4782 2.4668
8.1116 -3.3819 2.4308
8.1085 -3.2866 2.3952
8.1055 -3.1922 2.3602
8.1025 -3.0987 2.3256
8.0996 -3.0061 2.2915
8.0967 -2.9143 2.2579
8.0937 -2.8233 2.2247
8.0909 -2.7331 2.1919
8.0880 -2.6436 2.1595
8.0852 -2.5549 2.1276
8.0824 -2.4668 2.0960
8.0796 -2.3795 2.0648
8.0768 -2.2927 2.0340
8.0741 -2.2066 2.0035
8.0713 -2.1211 1.9734
8.0686 -2.0361 1.9436
8.0659 -1.9517 1.9141
8.0633 -1.8678 1.8850
8.0658 -1.7856 1.8573
8.0630 -1.7026 1.8288
8.0602 -1.6201 1.8005
8.0575 -1.5380 1.7725
8.0548 -1.4564 1.7448
8.0521 -1.3751 1.7173
8.0494 -1.2943 1.6901
8.0467 -1.2138 1.6632
8.0440 -1.1336 1.6365
8.0413 -1.0538 1.6101
8.0387 -0.9743 1.5839
8.0360 -0.8950 1.5579
8.0334 -0.8161 1.5321
8.0308 -0.7374 1.5066
8.0282 -0.6589 1.4813
8.0255 -0.5807 1.4561
8.0229 -0.5027 1.4312
8.0203 -0.4248 1.4064
8.0178 -0.3471 1.3819
8.0152 -0.2696 1.3575
8.0126 -0.1922 1.3333
8.0100 -0.1150 1.3092
8.0074 -0.0378 1.2853
8.0048 0.0392 1.2616
8.0023 0.1162 1.2380
7.9997 0.1931 1.2146
7.9971 0.2700 1.1913
7.9946 0.3468 1.1682
7.9920 0.4237 1.1452
7.9894 0.5005 1.1223
7.9868 0.5774 1.0995
7.9843 0.6542 1.0769
7.9817 0.7312 1.0543
7.9791 0.8081 1.0319
7.9765 0.8852 1.0096
7.9740 0.9624 0.9874
7.9714 1.0396 0.9652
7.9688 1.1170 0.9432
7.9716 1.1954 0.9219
7.9637 1.2723 0.8994
7.9557 1.3492 0.8770
7.9478 1.4263 0.8548
7.9399 1.5034 0.8326
7.9319 1.5807 0.8105
7.9232 1.6580 0.7885
7.9113 1.7346 0.7662
7.8994 1.8114 0.7440
7.8875 1.8883 0.7220
0.7911 -3.4070 1.8128
0.8308 -3.4065 1.8144
0.8707 -3.4060 1.8160
0.9107 -3.4055 1.8178
1.5037 -5.3839 2.8773
1.5668 -5.3802 2.8788
1.6302 -5.3763 2.8804
1.6937 -5.3721 2.8820
1.7575 -5.3677 2.8837
1.8216 -5.3630 2.8853
1.8858 -5.3581 2.8870
1.9424 -5.3312 2.8770
2.0069 -5.3258 2.8787
2.0801 -5.3418 2.8922
2.1454 -5.3359 2.8940
2.2110 -5.3296 2.8958
2.2768 -5.3232 2.8977
2.3430 -5.3164 2.8996
2.4094 -5.3094 2.9015
2.4762 -5.3021 2.9034
2.5433 -5.2945 2.9054
2.6107 -5.2866 2.9073
2.6785 -5.2785 2.9094
2.7466 -5.2701 2.9114
2.8151 -5.2614 2.9135
2.8840 -5.2523 2.9156
2.9532 -5.2430 2.9177
3.0228 -5.2334 2.9199
3.0929 -5.2235 2.9221
3.1633 -5.2132 2.9244
3.2341 -5.2027 2.9266
3.3054 -5.1918 2.9289
3.3772 -5.1806 2.9313
3.4494 -5.1690 2.9337
3.5220 -5.1571 2.9361
3.5952 -5.1449 2.9385
3.6688 -5.1324 2.9410
3.7429 -5.1194 2.9436
3.8176 -5.1062 2.9461
3.8928 -5.0925 2.9487
3.9685 -5.0785 2.9514
4.0448 -5.0641 2.9541
4.1217 -5.0493 2.9568
4.1991 -5.0342 2.9596
4.2772 -5.0186 2.9624
4.3559 -5.0026 2.9653
4.4352 -4.9863 2.9682
4.5151 -4.9695 2.9712
4.5958 -4.9522 2.9742
4.6771 -4.9346 2.9772
4.7591 -4.9165 2.9803
4.8419 -4.8979 2.9835
4.9253 -4.8789 2.9867
5.0096 -4.8594 2.9900
5.0946 -4.8394 2.9933
5.1804 -4.8189 2.9967
5.2670 -4.7979 3.0001
5.3545 -4.7765 3.0036
5.4207 -4.7351 2.9949
5.5320 -4.7319 3.0107
5.6221 -4.7088 3.0144
5.7132 -4.6851 3.0181
5.8052 -4.6609 3.0219
5.8982 -4.6361 3.0258
5.9909 -4.6097 3.0291
6.0823 -4.5809 3.0313
6.1746 -4.5516 3.0336
6.2679 -4.5216 3.0359
6.3621 -4.4909 3.0383
6.3777 -4.4046 3.0032
6.3833 -4.3126 2.9641
6.3889 -4.2219 2.9258
6.4504 -4.1685 2.9134
6.5513 -4.1395 2.9185
6.6421 -4.1028 2.9187
6.7399 -4.0690 2.9216
6.8388 -4.0345 2.9246
6.9390 -3.9992 2.9276
7.0404 -3.9631 2.9307
7.1430 -3.9262 2.9338
7.2470 -3.8885 2.9371
7.3523 -3.8499 2.9404
7.4590 -3.8104 2.9437
7.5671 -3.7700 2.9472
7.6767 -3.7287 2.9507
7.7878 -3.6864 2.9544
7.9004 -3.6431 2.9581
8.0146 -3.5988 2.9619
8.1162 -3.5472 2.9605
8.1130 -3.4497 2.9211
8.1100 -3.3531 2.8823
8.1069 -3.2575 2.8441
8.1039 -3.1629 2.8065
8.1009 -3.0692 2.7694
8.0980 -2.9764 2.7328
8.0950 -2.8844 2.6968
8.0921 -2.7932 2.6613
8.0892 -2.7028 2.6263
8.0864 -2.6132 2.5917
8.0836 -2.5243 2.5577
8.0807 -2.4361 2.5240
8.0780 -2.3486 2.4909
8.0752 -2.2618 2.4581
8.0724 -2.1755 2.4258
8.0697 -2.0899 2.3939
8.0670 -2.0048 2.3624
8.0643 -1.9203 2.3312
8.0668 -1.8375 2.3019
8.0640 -1.7540 2.2715
8.0612 -1.6709 2.2414
8.0584 -1.5884 2.2117
8.0557 -1.5062 2.1823
8.0530 -1.4245 2.1532
8.0503 -1.3432 2.1245
8.0476 -1.2623 2.0960
8.0449 -1.1818 2.0679
8.0422 -1.1016 2.0401
8.0396 -1.0218 2.0125
8.0369 -0.9422 1.9853
8.0343 -0.8630 1.9583
8.0316 -0.7840 1.9316
8.0290 -0.7053 1.9051
8.0264 -0.6268 1.8789
8.0238 -0.5486 1.8530
8.0212 -0.4706 1.8273
8.0186 -0.3928 1.8018
8.0160 -0.3151 1.7766
8.0134 -0.2376 1.7515
8.0108 -0.1603 1.7267
8.0082 -0.0830 1.7021
8.0056 -0.0059 1.6777
8.0031 0.0711 1.6535
8.0005 0.1480 1.6295
7.9979 0.2249 1.6057
7.9954 0.3017 1.5821
7.9928 0.3785 1.5587
7.9902 0.4552 1.5354
7.9877 0.5320 1.5123
7.9851 0.6088 1.4893
7.9825 0.6855 1.4666
7.9800 0.7624 1.4439
7.9774 0.8393 1.4215
7.9748 0.9163 1.3991
7.9722 0.9933 1.3769
7.9697 1.0705 1.3549
7.9671 1.1478 1.3330
7.9685 1.2258 1.3119
7.9606 1.3026 1.2893
7.9527 1.3794 1.2669
7.9447 1.4563 1.2447
7.9368 1.5332 1.2226
7.9289 1.6103 1.2006
7.9187 1.6871 1.1785
7.9069 1.7636 1.1562
7.8950 1.8401 1.1341
7.8831 1.9167 1.1121
7.8712 1.9935 1.0903
0.8080 -3.4252 2.0365
0.8486 -3.4247 2.0386
0.8893 -3.4242 2.0409
1.3268 -4.8829 2.9140
1.3846 -4.8788 2.9155
1.4425 -4.8745 2.9171
1.5005 -4.8699 2.9186
1.5588 -4.8650 2.9202
1.6172 -4.8599 2.9217
1.6758 -4.8545 2.9234
1.7345 -4.8488 2.9250
1.7935 -4.8429 2.9267
1.8527 -4.8367 2.9283
1.9043 -4.8106 2.9181
1.9636 -4.8039 2.9199
2.0315 -4.8165 2.9336
2.0915 -4.8092 2.9354
2.1518 -4.8016 2.9372
2.2123 -4.7937 2.9390
2.2730 -4.7856 2.9409
2.3340 -4.7772 2.9428
2.3952 -4.7684 2.9447
2.4567 -4.7594 2.9467
2.5186 -4.7501 2.9487
2.5806 -4.7404 2.9507
2.6430 -4.7305 2.9528
2.7056 -4.7202 2.9549
2.7685 -4.7097 2.9570
2.8318 -4.6988 2.9591
2.8953 -4.6876 2.9613
2.9592 -4.6761 2.9635
3.0234 -4.6642 2.9658
3.0880 -4.6520 2.9680
3.1529 -4.6394 2.9704
3.2181 -4.6266 2.9727
3.2837 -4.6133 2.9751
3.3497 -4.5997 2.9775
3.4161 -4.5858 2.9800
3.4829 -4.5715 2.9825
3.5500 -4.5568 2.9850
3.6176 -4.5417 2.9876
3.6856 -4.5263 2.9902
3.7540 -4.5104 2.9928
3.8229 -4.4942 2.9955
3.8922 -4.4775 2.9983
3.9619 -4.4605 3.0010
4.0322 -4.4430 3.0038
4.1029 -4.4252 3.0067
4.1741 -4.4069 3.0096
4.2458 -4.3881 3.0126
4.3181 -4.3689 3.0156
4.3909 -4.3493 3.0186
4.4642 -4.3292 3.0217
4.5380 -4.3086 3.0248
4.6125 -4.2876 3.0280
4.6875 -4.2660 3.0313
4.7631 -4.2440 3.0346
4.8393 -4.2215 3.0379
4.9162 -4.1984 3.0413
4.9937 -4.1749 3.0448
5.0718 -4.1508 3.0483
5.1506 -4.1261 3.0519
5.2301 -4.1009 3.0555
5.3103 -4.0751 3.0592
5.3693 -4.0323 3.0505
5.4506 -4.0055 3.0543
5.5560 -3.9949 3.0710
5.6412 -3.9680 3.0760
5.7272 -3.9406 3.0811
5.8141 -3.9125 3.0863
5.9019 -3.8838 3.0915
5.9858 -3.8512 3.0944
6.0700 -3.8177 3.0970
6.1550 -3.7835 3.0997
6.2407 -3.7486 3.1025
6.3273 -3.7129 3.1053
6.3509 -3.6400 3.0773
6.3562 -3.5573 3.0409
6.3615 -3.4756 3.0052
6.3863 -3.4052 2.9792
6.4733 -3.3674 2.9822
6.5613 -3.3290 2.9854
6.6505 -3.2900 2.9887
6.7407 -3.2501 2.9921
6.8317 -3.2092 2.9955
6.9231 -3.1672 2.9987
7.0156 -3.1243 3.0020
7.1090 -3.0806 3.0054
7.2036 -3.0359 3.0089
7.2992 -2.9902 3.0124
7.3960 -2.9436 3.0160
7.4939 -2.8959 3.0196
7.5930 -2.8473 3.0234
7.6933 -2.7975 3.0272
7.7948 -2.7467 3.0311
7.8976 -2.6948 3.0351
8.0017 -2.6417 3.0392
8.0847 -2.5803 3.0350
8.0818 -2.4912 2.9986
8.0790 -2.4029 2.9628
8.0762 -2.3153 2.9275
8.0735 -2.2283 2.8927
8.0707 -2.1420 2.8584
8.0680 -2.0562 2.8246
8.0653 -1.9711 2.7912
8.0626 -1.8865 2.7583
8.0649 -1.8036 2.7274
8.0621 -1.7200 2.6953
8.0593 -1.6369 2.6636
8.0566 -1.5542 2.6323
8.0538 -1.4721 2.6014
8.0511 -1.3903 2.5708
8.0484 -1.3090 2.5407
8.0457 -1.2281 2.5109
8.0430 -1.1475 2.4814
8.0403 -1.0673 2.4524
8.0377 -0.9874 2.4236
8.0350 -0.9079 2.3952
8.0324 -0.8287 2.3671
8.0298 -0.7497 2.3394
8.0271 -0.6710 2.3119
8.0245 -0.5926 2.2847
8.0219 -0.5143 2.2579
8.0193 -0.4363 2.2313
8.0167 -0.3585 2.2050
8.0141 -0.2809 2.1790
8.0115 -0.2035 2.1532
8.0089 -0.1262 2.1277
8.0064 -0.0490 2.1025
8.0038 0.0281 2.0775
8.0012 0.1050 2.0528
7.9987 0.1819 2.0283
7.9961 0.2587 2.0040
7.9935 0.3354 1.9799
7.9910 0.4122 1.9561
7.9884 0.4888 1.9325
7.9858 0.5655 1.9091
7.9833 0.6422 1.8859
7.9807 0.7189 1.8629
7.9781 0.7957 1.8401
7.9756 0.8725 1.8175
7.9730 0.9493 1.7951
7.9704 1.0263 1.7729
7.9678 1.1034 1.7508
7.9730 1.1817 1.7306
7.9651 1.2582 1.7078
7.9572 1.3348 1.6851
7.9493 1.4114 1.6626
7.9414 1.4882 1.6404
7.9335 1.5650 1.6183
7.9256 1.6419 1.5963
7.9139 1.7181 1.5738
7.9021 1.7944 1.5515
7.8903 1.8707 1.5293
7.8784 1.9471 1.5074
7.8665 2.0236 1.4856
7.8546 2.1003 1.4639
0.8261 -3.4445 2.2757
0.8676 -3.4441 2.2783
1.0039 -3.8020 2.5186
1.2275 -4.4431 2.9475
1.2807 -4.4385 2.9489
1.3341 -4.4337 2.9504
1.3876 -4.4287 2.9519
1.4412 -4.4233 2.9534
1.4950 -4.4177 2.9549
1.5489 -4.4119 2.9564
1.6030 -4.4057 2.9580
1.6572 -4.3993 2.9596
1.7115 -4.3926 2.9613
1.7661 -4.3857 2.9629
1.8208 -4.3784 2.9646
1.8757 -4.3709 2.9663
1.9228 -4.3454 2.9560
1.9778 -4.3373 2.9577
2.0413 -4.3466 2.9716
2.0969 -4.3379 2.9734
2.1527 -4.3290 2.9753
2.2087 -4.3197 2.9771
2.2649 -4.3101 2.9790
2.3213 -4.3003 2.9810
2.3779 -4.2901 2.9829
2.4347 -4.2796 2.9849
2.4918 -4.2688 2.9869
2.5490 -4.2577 2.9890
2.6066 -4.2462 2.9910
2.6643 -4.2345 2.9932
2.7223 -4.2224 2.9953
2.7806 -4.2099 2.9975
2.8391 -4.1972 2.9997
2.8979 -4.1841 3.0019
2.9570 -4.1706 3.0042
3.0163 -4.1568 3.0065
3.0759 -4.1427 3.0088
3.1358 -4.1282 3.0112
3.1960 -4.1133 3.0136
3.2565 -4.0980 3.0160
3.3173 -4.0824 3.0185
3.3784 -4.0664 3.0210
3.4399 -4.0501 3.0236
3.5017 -4.0333 3.0262
3.5638 -4.0161 3.0288
3.6263 -3.9986 3.0315
3.6891 -3.9806 3.0342
3.7523 -3.9622 3.0369
3.8158 -3.9434 3.0397
3.8797 -3.9242 3.0426
3.9440 -3.9045 3.0454
4.0087 -3.8844 3.0484
4.0738 -3.8639 3.0513
4.1393 -3.8429 3.0543
4.2052 -3.8214 3.0574
4.2715 -3.7995 3.0605
4.3383 -3.7770 3.0636
4.4055 -3.7542 3.0668
4.4732 -3.7308 3.0701
4.5413 -3.7069 3.0734
4.6100 -3.6825 3.0767
4.6790 -3.6575 3.0801
4.7486 -3.6321 3.0836
4.8187 -3.6061 3.0871
4.8893 -3.5796 3.0906
4.9605 -3.5525 3.0942
5.0322 -3.5248 3.0979
5.1044 -3.4965 3.1016
5.1772 -3.4677 3.1054
5.2518 -3.4390 3.1100
5.3274 -3.4100 3.1149
5.3799 -3.3655 3.1061
5.4566 -3.3354 3.1111
5.5584 -3.3192 3.1300
5.6368 -3.2876 3.1352
5.7160 -3.2553 3.1405
5.7959 -3.2223 3.1459
5.8757 -3.1881 3.1509
5.9521 -3.1509 3.1538
6.0287 -3.1129 3.1565
6.1058 -3.0741 3.1593
6.1837 -3.0346 3.1621
6.2621 -2.9943 3.1650
6.3234 -2.9449 3.1590
6.3283 -2.8693 3.1252
6.3330 -2.7943 3.0918
6.3377 -2.7201 3.0589
6.3667 -2.6566 3.0382
6.4456 -2.6134 3.0413
6.5253 -2.5694 3.0446
6.6061 -2.5247 3.0480
6.6876 -2.4791 3.0515
6.7700 -2.4326 3.0551
6.8531 -2.3851 3.0587
6.9370 -2.3368 3.0625
7.0218 -2.2874 3.0663
7.1074 -2.2371 3.0701
7.1939 -2.1857 3.0741
7.2813 -2.1333 3.0781
7.3696 -2.0799 3.0822
7.4588 -2.0253 3.0864
7.5490 -1.9696 3.0907
7.6402 -1.9128 3.0951
7.9199 -1.7353 3.1088
8.0139 -1.6733 3.1130
8.0573 -1.5998 3.0974
8.0545 -1.5171 3.0644
8.0518 -1.4349 3.0319
8.0491 -1.3532 2.9997
8.0464 -1.2718 2.9680
8.0437 -1.1909 2.9368
8.0410 -1.1103 2.9059
8.0383 -1.0301 2.8755
8.0357 -0.9503 2.8454
8.0330 -0.8707 2.8157
8.0304 -0.7915 2.7864
8.0278 -0.7126 2.7575
8.0251 -0.6339 2.7289
8.0225 -0.5555 2.7007
8.0199 -0.4773 2.6728
8.0173 -0.3993 2.6453
8.0147 -0.3216 2.6181
8.0121 -0.2440 2.5912
8.0096 -0.1666 2.5646
8.0070 -0.0893 2.5383
8.0044 -0.0122 2.5123
8.0018 0.0648 2.4867
7.9993 0.1417 2.4613
7.9967 0.2185 2.4362
7.9941 0.2952 2.4113
7.9916 0.3719 2.3868
7.9890 0.4485 2.3625
7.9865 0.5251 2.3385
7.9839 0.6017 2.3147
7.9813 0.6783 2.2912
7.9788 0.7549 2.2679
7.9762 0.8315 2.2448
7.9736 0.9082 2.2220
7.9711 0.9850 2.1995
7.9685 1.0619 2.1771
7.9659 1.1388 2.1550
7.9694 1.2168 2.1347
7.9615 1.2931 2.1116
7.9537 1.3696 2.0887
7.9458 1.4460 2.0661
7.9379 1.5226 2.0437
7.9300 1.5992 2.0215
7.9205 1.6756 1.9991
7.7324 -1.8549 3.0996
7.8256 -1.7957 3.1041
7.9087 1.7516 1.9764
7.8969 1.8276 1.9539
7.8851 1.9037 1.9316
7.8733 1.9799 1.9096
7.8615 2.0562 1.8878
7.8496 2.1326 1.8662
7.8378 2.2091 1.8448
0.8455 -3.4654 2.5330
0.8881 -3.4650 2.5363
1.0905 -4.0591 2.9756
1.1397 -4.0545 2.9770
1.1890 -4.0497 2.9784
1.2384 -4.0446 2.9798
1.2879 -4.0393 2.9812
1.3375 -4.0336 2.9827
1.3872 -4.0277 2.9841
1.4370 -4.0216 2.9856
1.4870 -4.0151 2.9872
1.5370 -4.0084 2.9887
1.5872 -4.0014 2.9903
1.6375 -3.9942 2.9919
1.6879 -3.9866 2.9935
1.7385 -3.9788 2.9951
1.7892 -3.9707 2.9968
1.8400 -3.9623 2.9985
1.8833 -3.9375 2.9880
1.9343 -3.9286 2.9898
1.9934 -3.9354 3.0038
2.0449 -3.9258 3.0056
2.0964 -3.9159 3.0074
2.1482 -3.9058 3.0093
2.2001 -3.8953 3.0111
2.2522 -3.8845 3.0131
2.3045 -3.8734 3.0150
2.3569 -3.8620 3.0170
2.4095 -3.8503 3.0190
2.4623 -3.8382 3.0210
2.5153 -3.8258 3.0231
2.5685 -3.8131 3.0252
2.6219 -3.8001 3.0273
2.6754 -3.7867 3.0294
2.7292 -3.7730 3.0316
2.7832 -3.7590 3.0338
2.8374 -3.7446 3.0361
2.8918 -3.7298 3.0384
2.9465 -3.7147 3.0407
3.0014 -3.6992 3.0430
3.0565 -3.6834 3.0454
3.1118 -3.6672 3.0478
3.1674 -3.6506 3.0503
3.2232 -3.6337 3.0528
3.2793 -3.6164 3.0553
3.3357 -3.5986 3.0579
3.3923 -3.5805 3.0604
3.4491 -3.5620 3.0631
3.5063 -3.5431 3.0658
3.5637 -3.5238 3.0685
3.6214 -3.5040 3.0712
3.6794 -3.4838 3.0740
3.7377 -3.4632 3.0768
3.7963 -3.4422 3.0797
3.8552 -3.4207 3.0826
3.9143 -3.3988 3.0856
3.9739 -3.3764 3.0886
4.0337 -3.3536 3.0916
4.0939 -3.3303 3.0947
4.1544 -3.3065 3.0978
4.2152 -3.2823 3.1010
4.2765 -3.2575 3.1042
4.3380 -3.2322 3.1075
4.3999 -3.2065 3.1108
4.4622 -3.1802 3.1142
4.5249 -3.1534 3.1176
4.5879 -3.1261 3.1211
4.6514 -3.0982 3.1246
4.7152 -3.0698 3.1282
4.7795 -3.0408 3.1318
4.8441 -3.0112 3.1355
4.9092 -2.9811 3.1392
4.9761 -2.9512 3.1439
5.0436 -2.9207 3.1486
5.1115 -2.8896 3.1535
5.1800 -2.8578 3.1584
5.2490 -2.8254 3.1634
5.3185 -2.7924 3.1684
5.3648 -2.7465 3.1596
5.4351 -2.7123 3.1648
5.5290 -2.6885 3.1833
5.5985 -2.6516 3.1874
5.6686 -2.6141 3.1916
5.7391 -2.5758 3.1958
5.8101 -2.5367 3.2001
5.8812 -2.4967 3.2041
5.9506 -2.4551 3.2071
6.0206 -2.4127 3.2102
6.0911 -2.3695 3.2133
6.1621 -2.3256 3.2165
6.2336 -2.2809 3.2198
6.2988 -2.2330 3.2196
6.3032 -2.1633 3.1886
6.3076 -2.0941 3.1580
6.3119 -2.0254 3.1279
6.3210 -1.9586 3.1006
6.3753 -1.9057 3.0957
6.4472 -1.8573 3.0993
6.5199 -1.8079 3.1030
6.5930 -1.7576 3.1067
6.6661 -1.7063 3.1102
6.7398 -1.6540 3.1137
6.8141 -1.6007 3.1173
6.8889 -1.5464 3.1210
6.9644 -1.4911 3.1248
7.0405 -1.4348 3.1286
7.1172 -1.3775 3.1325
7.1945 -1.3191 3.1365
7.2725 -1.2596 3.1405
7.3512 -1.1989 3.1446
7.4305 -1.1371 3.1488
7.5106 -1.0742 3.1531
7.5913 -1.0100 3.1575
7.6728 -0.9447 3.1619
7.7550 -0.8780 3.1664
7.8380 -0.8101 3.1710
7.9217 -0.7409 3.1757
8.0062 -0.6703 3.1805
8.0230 -0.5933 3.1584
8.0204 -0.5149 3.1290
8.0178 -0.4368 3.1000
8.0152 -0.3589 3.0714
8.0126 -0.2812 3.0432
8.0100 -0.2037 3.0153
8.0074 -0.1263 2.9878
8.0049 -0.0492 2.9606
8.0023 0.0279 2.9338
7.9997 0.1048 2.9074
7.9972 0.1816 2.8812
7.9946 0.2583 2.8554
7.9921 0.3350 2.8300
7.9895 0.4116 2.8048
7.9869 0.4881 2.7800
7.9844 0.5646 2.7554
7.9818 0.6411 2.7312
7.9793 0.7176 2.7073
7.9767 0.7941 2.6836
7.9742 0.8706 2.6602
7.9716 0.9472 2.6371
7.9690 1.0239 2.6143
7.9665 1.1006 2.5918
7.9733 1.1788 2.5725
7.9655 1.2550 2.5488
7.9576 1.3312 2.5253
7.9498 1.4074 2.5022
7.9419 1.4837 2.4793
7.9340 1.5601 2.4567
7.9262 1.6365 2.4343
7.9148 1.7123 2.4112
7.9031 1.7880 2.3882
7.8913 1.8638 2.3655
7.8795 1.9397 2.3430
7.8678 2.0156 2.3208
7.8560 2.0917 2.2989
7.8442 2.1678 2.2772
7.8335 2.2444 2.2562
7.8302 2.3234 2.2375
0.9244 -3.7209 2.9995
0.9700 -3.7167 3.0008
1.0156 -3.7122 3.0021
1.0613 -3.7074 3.0034
1.1071 -3.7024 3.0047
1.1530 -3.6972 3.0060
1.1989 -3.6916 3.0074
1.2449 -3.6858 3.0088
1.2911 -3.6798 3.0102
1.3372 -3.6734 3.0117
1.3835 -3.6668 3.0131
1.4299 -3.6599 3.0146
1.4764 -3.6528 3.0161
1.5230 -3.6454 3.0177
1.5696 -3.6377 3.0192
1.6164 -3.6297 3.0208
1.6633 -3.6214 3.0224
1.7103 -3.6129 3.0240
1.7574 -3.6040 3.0257
1.8046 -3.5949 3.0274
1.8519 -3.5855 3.0291
1.8916 -3.5613 3.0185
1.9390 -3.5513 3.0203
1.9946 -3.5555 3.0344
2.0424 -3.5449 3.0362
2.0903 -3.5340 3.0380
2.1384 -3.5228 3.0399
2.1866 -3.5113 3.0418
2.2350 -3.4995 3.0437
2.2834 -3.4873 3.0457
2.3321 -3.4749 3.0476
2.3808 -3.4621 3.0497
2.4297 -3.4490 3.0517
2.4788 -3.4356 3.0538
2.5281 -3.4218 3.0559
2.5774 -3.4077 3.0580
2.6270 -3.3933 3.0601
2.6767 -3.3785 3.0623
2.7266 -3.3634 3.0646
2.7766 -3.3479 3.0668
2.8268 -3.3321 3.0691
2.8772 -3.3159 3.0714
2.9278 -3.2994 3.0737
2.9785 -3.2825 3.0761
3.0295 -3.2652 3.0785
3.0806 -3.2476 3.0810
3.1319 -3.2296 3.0835
3.1834 -3.2112 3.0860
3.2351 -3.1924 3.0885
3.2871 -3.1732 3.0911
3.3392 -3.1537 3.0938
3.3915 -3.1337 3.0964
3.4441 -3.1133 3.0991
3.4968 -3.0925 3.1019
3.5498 -3.0713 3.1046
3.6031 -3.0496 3.1074
3.6565 -3.0276 3.1103
3.7102 -3.0051 3.1132
3.7641 -2.9821 3.1161
3.8182 -2.9587 3.1191
3.8726 -2.9349 3.1221
3.9273 -2.9106 3.1252
3.9822 -2.8858 3.1283
4.0374 -2.8605 3.1314
4.0928 -2.8348 3.1346
4.1485 -2.8086 3.1378
4.2044 -2.7819 3.1411
4.2607 -2.7546 3.1444
4.3172 -2.7269 3.1478
4.3740 -2.6987 3.1512
4.4311 -2.6699 3.1547
4.4885 -2.6406 3.1582
4.5462 -2.6107 3.1617
4.6042 -2.5803 3.1654
4.6626 -2.5494 3.1691
4.7225 -2.5186 3.1737
4.7827 -2.4871 3.1783
4.8433 -2.4550 3.1830
4.9043 -2.4224 3.1877
4.9656 -2.3891 3.1925
5.0274 -2.3552 3.1974
5.0895 -2.3206 3.2024
5.1521 -2.2854 3.2074
5.2136 -2.2489 3.2116
5.2750 -2.2115 3.2156
5.3158 -2.1650 3.2071
5.3777 -2.1264 3.2112
5.4614 -2.0953 3.2280
5.5243 -2.0552 3.2322
5.5875 -2.0144 3.2365
5.6512 -1.9728 3.2408
5.7152 -1.9305 3.2452
5.7797 -1.8874 3.2497
5.8444 -1.8435 3.2543
5.9073 -1.7981 3.2576
5.9698 -1.7518 3.2605
6.0326 -1.7047 3.2636
6.0958 -1.6568 3.2666
6.1593 -1.6080 3.2698
6.2232 -1.5585 3.2730
6.2753 -1.5053 3.2699
6.2792 -1.4402 3.2419
6.2829 -1.3755 3.2144
6.2866 -1.3111 3.1872
6.2903 -1.2470 3.1604
6.3166 -1.1874 3.1453
6.3800 -1.1343 3.1488
6.4501 -1.0812 3.1553
6.5083 -1.0252 3.1560
6.5732 -0.9693 3.1597
6.6385 -0.9125 3.1636
6.7042 -0.8547 3.1675
6.7703 -0.7959 3.1715
6.8368 -0.7360 3.1756
6.9038 -0.6751 3.1797
6.9711 -0.6132 3.1839
7.0389 -0.5502 3.1882
7.1072 -0.4861 3.1925
7.1759 -0.4209 3.1969
7.2450 -0.3545 3.2014
7.3142 -0.2870 3.2059
7.3829 -0.2182 3.2099
7.4519 -0.1482 3.2140
7.5213 -0.0771 3.2182
7.5912 -0.0047 3.2225
7.6615 0.0690 3.2268
7.7323 0.1439 3.2312
7.8035 0.2202 3.2356
7.8751 0.2978 3.2402
7.9472 0.3767 3.2448
7.9873 0.4552 3.2364
7.9847 0.5317 3.2109
7.9822 0.6081 3.1857
7.9796 0.6845 3.1610
7.9771 0.7608 3.1365
7.9745 0.8372 3.1124
7.9720 0.9136 3.0886
7.9694 0.9901 3.0651
7.9668 1.0666 3.0420
7.9643 1.1432 3.0191
7.9690 1.2210 2.9993
7.9611 1.2970 2.9751
7.9533 1.3730 2.9513
7.9455 1.4491 2.9277
7.9376 1.5252 2.9045
7.9298 1.6013 2.8816
7.9203 1.6772 2.8584
7.9086 1.7527 2.8347
7.8968 1.8282 2.8114
7.8851 1.9037 2.7884
7.8734 1.9793 2.7657
7.8617 2.0550 2.7433
7.8499 2.1308 2.7212
7.8382 2.2066 2.6994
7.8319 2.2843 2.6798
7.8286 2.3630 2.6614
7.8253 2.4421 2.6434
0.8630 -3.4079 3.0235
0.9055 -3.4036 3.0247
0.9480 -3.3990 3.0259
0.9906 -3.3942 3.0272
1.0332 -3.3891 3.0284
1.0759 -3.3837 3.0297
1.1187 -3.3781 3.0311
1.1615 -3.3722 3.0324
1.2044 -3.3661 3.0337
1.2473 -3.3597 3.0351
1.2903 -3.3530 3.0365
1.3334 -3.3460 3.0379
1.3766 -3.3388 3.0394
1.4198 -3.3313 3.0409
1.4631 -3.3236 3.0424
1.5065 -3.3155 3.0439
1.5500 -3.3072 3.0454
1.5935 -3.2987 3.0470
1.6372 -3.2898 3.0486
1.6809 -3.2806 3.0502
1.7247 -3.2712 3.0518
1.7686 -3.2615 3.0535
1.8126 -3.2515 3.0552
1.8491 -3.2280 3.0445
1.8931 -3.2174 3.0462
1.9372 -3.2066 3.0480
1.9895 -3.2085 3.0622
2.0340 -3.1970 3.0640
2.0786 -3.1852 3.0659
2.1233 -3.1731 3.0677
2.1681 -3.1607 3.0696
2.2130 -3.1480 3.0716
2.2580 -3.1350 3.0735
2.3031 -3.1217 3.0755
2.3483 -3.1080 3.0775
2.3937 -3.0940 3.0796
2.4391 -3.0797 3.0816
2.4847 -3.0651 3.0837
2.5304 -3.0501 3.0858
2.5763 -3.0348 3.0880
2.6222 -3.0192 3.0902
2.6683 -3.0032 3.0924
2.7145 -2.9868 3.0946
2.7609 -2.9702 3.0969
2.8074 -2.9531 3.0992
2.8540 -2.9358 3.1016
2.9007 -2.9180 3.1039
2.9476 -2.8999 3.1063
2.9947 -2.8814 3.1088
3.0419 -2.8626 3.1112
3.0892 -2.8433 3.1137
3.1367 -2.8237 3.1163
3.1843 -2.8037 3.1188
3.2321 -2.7833 3.1214
3.2801 -2.7625 3.1241
3.3282 -2.7414 3.1267
3.3765 -2.7198 3.1294
3.4249 -2.6978 3.1322
3.4735 -2.6754 3.1350
3.5223 -2.6525 3.1378
3.5713 -2.6293 3.1406
3.6204 -2.6056 3.1435
3.6697 -2.5815 3.1465
3.7192 -2.5569 3.1495
3.7688 -2.5319 3.1525
3.8186 -2.5064 3.1555
3.8687 -2.4805 3.1586
3.9189 -2.4541 3.1617
3.9693 -2.4272 3.1649
4.0199 -2.3999 3.1681
4.0707 -2.3721 3.1714
4.1217 -2.3437 3.1747
4.1729 -2.3149 3.1781
4.2243 -2.2856 3.1815
4.2759 -2.2558 3.1849
4.3277 -2.2254 3.1884
4.3797 -2.1945 3.1919
4.4321 -2.1632 3.1956
4.4857 -2.1317 3.2000
4.5395 -2.0997 3.2045
4.5936 -2.0671 3.2090
4.6479 -2.0339 3.2136
4.7026 -2.0002 3.2182
4.7574 -1.9658 3.2229
4.8126 -1.9309 3.2277
4.8680 -1.8953 3.2325
4.9225 -1.8586 3.2366
4.9768 -1.8212 3.2405
5.0313 -1.7831 3.2444
5.0861 -1.7444 3.2484
5.1411 -1.7050 3.2524
5.1964 -1.6650 3.2565
5.2519 -1.6243 3.2606
5.2869 -1.5767 3.2520
5.3427 -1.5348 3.2563
5.3988 -1.4922 3.2606
5.4765 -1.4545 3.2778
5.5321 -1.4100 3.2815
5.5874 -1.3647 3.2850
5.6430 -1.3186 3.2885
5.6988 -1.2718 3.2921
5.7548 -1.2242 3.2958
5.8111 -1.1759 3.2995
5.8667 -1.1266 3.3028
5.9223 -1.0765 3.3061
5.9782 -1.0257 3.3093
6.0343 -0.9740 3.3127
6.0905 -0.9216 3.3161
6.1470 -0.8683 3.3196
6.2037 -0.8142 3.3231
6.2504 -0.7580 3.3213
6.2538 -0.6963 3.2966
6.2570 -0.6348 3.2722
6.2602 -0.5734 3.2483
6.2633 -0.5122 3.2246
6.2711 -0.4514 3.2038
6.3096 -0.3926 3.1988
6.3653 -0.3340 3.2026
6.4245 -0.2747 3.2081
6.4757 -0.2142 3.2095
6.5312 -0.1528 3.2131
6.5870 -0.0905 3.2167
6.6430 -0.0273 3.2204
6.6991 0.0370 3.2242
6.7554 0.1022 3.2280
6.8119 0.1685 3.2319
6.8686 0.2357 3.2358
6.9255 0.3041 3.2398
6.9825 0.3735 3.2439
7.0397 0.4440 3.2480
7.0971 0.5156 3.2522
7.1547 0.5884 3.2565
7.2125 0.6623 3.2608
7.2704 0.7373 3.2652
7.3285 0.8135 3.2697
7.3868 0.8910 3.2742
7.4453 0.9696 3.2788
7.5039 1.0496 3.2835
7.5627 1.1307 3.2882
7.6205 1.2130 3.2926
7.6778 1.2965 3.2967
7.7351 1.3812 3.3009
7.9133 1.7222 3.2964
7.7926 1.4673 3.3051
7.9016 1.7974 3.2723
7.8502 1.5547 3.3094
7.8900 1.8726 3.2485
7.9079 1.6434 3.3138
7.8783 1.9479 3.2251
7.8666 2.0232 3.2020
7.8549 2.0987 3.1793
7.8432 2.1742 3.1569
7.8333 2.2503 3.1357
7.8300 2.3286 3.1174
7.8267 2.4071 3.0994
7.8234 2.4860 3.0817
7.8201 2.5653 3.0643
0.8071 -3.1227 3.0454
0.8468 -3.1184 3.0465
0.8864 -3.1137 3.0477
0.9262 -3.1089 3.0489
0.9659 -3.1037 3.0501
1.0057 -3.0983 3.0513
1.0456 -3.0927 3.0526
1.0855 -3.0868 3.0538
1.1255 -3.0806 3.0551
1.1655 -3.0742 3.0565
1.2056 -3.0675 3.0578
1.2457 -3.0606 3.0592
1.2859 -3.0534 3.0606
1.3261 -3.0459 3.0620
1.3664 -3.0382 3.0634
1.4067 -3.0302 3.0649
1.4471 -3.0219 3.0663
1.4876 -3.0134 3.0678
1.5281 -3.0046 3.0694
1.5687 -2.9955 3.0709
1.6094 -2.9861 3.0725
1.6501 -2.9765 3.0741
1.6909 -2.9665 3.0757
1.7318 -2.9563 3.0773
1.7727 -2.9458 3.0790
1.8137 -2.9350 3.0807
1.8472 -2.9121 3.0699
1.8882 -2.9008 3.0716
1.9292 -2.8892 3.0734
1.9784 -2.8890 3.0877
2.0198 -2.8768 3.0895
2.0613 -2.8642 3.0914
2.1028 -2.8514 3.0932
2.1444 -2.8382 3.0951
2.1861 -2.8248 3.0971
2.2279 -2.8110 3.0990
2.2697 -2.7969 3.1010
2.3117 -2.7826 3.1030
2.3537 -2.7678 3.1050
2.3958 -2.7528 3.1071
2.4380 -2.7374 3.1092
2.4803 -2.7218 3.1113
2.5227 -2.7057 3.1134
2.5652 -2.6894 3.1156
2.6078 -2.6727 3.1178
2.6505 -2.6557 3.1200
2.6933 -2.6383 3.1223
2.7361 -2.6206 3.1246
2.7791 -2.6026 3.1269
2.8222 -2.5842 3.1292
2.8654 -2.5654 3.1316
2.9086 -2.5463 3.1340
2.9520 -2.5268 3.1365
2.9955 -2.5069 3.1389
3.0391 -2.4867 3.1414
3.0828 -2.4661 3.1440
3.1266 -2.4451 3.1465
3.1705 -2.4237 3.1491
3.2146 -2.4019 3.1518
3.2587 -2.3798 3.1545
3.3030 -2.3572 3.1572
3.3474 -2.3343 3.1599
3.3919 -2.3109 3.1627
3.4365 -2.2872 3.1655
3.4812 -2.2630 3.1683
3.5260 -2.2384 3.1712
3.5710 -2.2133 3.1741
3.6161 -2.1879 3.1771
3.6614 -2.1620 3.1801
3.7067 -2.1356 3.1831
3.7522 -2.1088 3.1862
3.7978 -2.0816 3.1893
3.8435 -2.0539 3.1925
3.8894 -2.0257 3.1956
3.9354 -1.9971 3.1989
3.9815 -1.9680 3.2021
4.0277 -1.9384 3.2055
4.0742 -1.9083 3.2088
4.1207 -1.8778 3.2122
4.1673 -1.8467 3.2157
4.2141 -1.8151 3.2191
4.2620 -1.7834 3.2233
4.3101 -1.7512 3.2277
4.3583 -1.7184 3.2320
4.4067 -1.6851 3.2364
4.4553 -1.6513 3.2409
4.5041 -1.6168 3.2454
4.5530 -1.5819 3.2500
4.6022 -1.5463 3.2547
4.6505 -1.5098 3.2587
4.6985 -1.4726 3.2624
4.7467 -1.4348 3.2662
4.7950 -1.3964 3.2700
4.8434 -1.3574 3.2739
4.8920 -1.3178 3.2779
4.9407 -1.2776 3.2818
4.9896 -1.2368 3.2859
5.0385 -1.1953 3.2900
5.0877 -1.1532 3.2941
5.1370 -1.1104 3.2983
5.1854 -1.0668 3.3019
5.2335 -1.0224 3.3053
5.2634 -0.9739 3.2972
5.3115 -0.9284 3.3007
5.3598 -0.8821 3.3042
