ply
format ascii 1.0
element vertex 1170
property float32 x
property float32 y
property float32 z
end_header
-3.7312 18.7315 -9.3812
-3.9418 18.7137 -9.3799
-4.1529 18.6960 -9.3791
-4.9195 18.3135 -9.2230
-4.3981 18.8218 -9.4507
-5.2535 18.7360 -9.4461
-4.8468 18.8654 -9.4911
13.1738 18.2846 -8.6072
13.2351 19.2084 -8.9966
12.9151 19.1727 -8.9583
12.6521 19.2161 -8.9574
12.1615 18.9019 -8.7908
12.0673 19.1979 -8.9086
11.8071 19.2321 -8.9051
-3.4704 18.7578 -8.3053
-3.6050 18.3707 -8.1389
-3.8493 18.5507 -8.2239
-3.8986 17.8171 -7.9041
-4.8688 18.4021 -8.1892
-4.2864 18.6224 -8.2673
-5.0537 18.2997 -8.1508
-5.2734 18.3225 -8.1684
-4.5084 18.6615 -8.2910
-4.6886 18.5278 -8.2382
13.4025 18.1176 -7.3584
13.2494 18.3044 -7.4201
13.1036 18.5043 -7.4871
12.9317 19.0908 -7.6967
12.6246 18.2263 -7.3612
12.7053 19.1835 -7.7208
11.6741 18.8839 -7.5631
12.4326 19.2033 -7.7158
11.9645 18.9094 -7.5854
-3.2198 18.7940 -7.2783
-3.8748 17.9690 -6.9712
-3.4245 18.7813 -7.2764
-3.6297 18.7686 -7.2746
-4.0792 17.9838 -6.9805
-3.7249 18.2151 -7.0633
-4.4489 18.6878 -7.2577
-4.8155 18.4715 -7.1819
-4.6237 18.5426 -7.2053
-4.7061 17.2952 -6.7287
-5.3777 17.5347 -6.8357
-5.0480 17.8017 -6.9303
-5.2614 17.8295 -6.9458
13.3035 17.9052 -6.1264
13.2237 18.1841 -6.2158
12.9401 18.1833 -6.2097
12.8638 18.4747 -6.3034
12.7154 18.6676 -6.3636
12.7195 19.0926 -6.5028
12.4268 19.0758 -6.4917
12.0550 18.9285 -6.4362
12.0442 19.3488 -6.5739
11.8250 19.4409 -6.6001
11.5709 19.4733 -6.6061
11.3190 19.5054 -6.6122
21.5957 38.1174 -12.9123
21.1160 38.1869 -12.9269
20.5355 38.0628 -12.8762
20.1421 38.2778 -12.9405
19.8098 38.6130 -13.0456
19.4750 38.9507 -13.1516
18.8251 38.6492 -13.0420
-3.4243 19.0494 -6.3638
-3.4593 18.1439 -6.0626
-3.7294 18.4996 -6.1828
-3.9360 18.5161 -6.1897
-4.1311 18.4759 -6.1778
-4.3344 18.4704 -6.1776
-4.5405 18.4732 -6.1802
-4.5937 17.8771 -5.9825
-4.9037 18.2843 -6.1206
-5.0841 18.1913 -6.0913
-5.1490 17.7046 -5.9303
-5.2229 17.2804 -5.7901
-5.4646 17.4183 -5.8384
21.3838 16.5695 -4.5577
21.2155 16.7784 -4.6192
14.0835 18.0972 -5.0565
13.4385 17.6335 -4.9290
12.7599 17.0994 -4.7816
13.2820 18.1805 -5.0859
13.4117 18.7542 -5.2484
12.7507 18.2177 -5.1002
12.7835 18.6653 -5.2274
12.7113 18.9705 -5.3147
12.5667 19.1735 -5.3734
12.2785 19.1562 -5.3703
12.0398 19.2117 -5.3876
11.3233 18.4844 -5.1853
11.5297 19.2598 -5.4044
11.6254 19.8772 -5.5793
21.3962 37.4562 -10.5165
21.0731 37.7821 -10.6110
20.6089 37.8549 -10.6343
21.6304 40.7183 -11.4417
20.7910 40.1248 -11.2777
20.2568 40.0947 -11.2720
19.7817 40.1727 -11.2967
19.2744 40.1776 -11.3007
18.8393 40.3274 -11.3454
18.4132 40.4954 -11.3951
17.9018 40.4699 -11.3903
17.4391 40.5464 -11.4142
16.9784 40.6225 -11.4378
16.5198 40.6984 -11.4614
4.4788 16.0629 -4.5313
4.3074 16.0908 -4.5397
4.1441 16.1491 -4.5567
-2.9119 17.4827 -4.9368
-3.1409 17.7185 -5.0030
-3.4123 18.1504 -5.1246
-3.7410 18.8195 -5.3130
-3.8412 18.3263 -5.1733
-4.0100 18.1890 -5.1341
-4.2397 18.3239 -5.1717
-4.4234 18.2537 -5.1513
-4.7030 18.5639 -5.2383
-4.7805 18.0803 -5.1012
-4.8945 17.7646 -5.0115
-5.1773 18.0584 -5.0938
-5.2026 17.4620 -4.9249
-5.4616 17.6612 -4.9804
-5.6003 17.4672 -4.9250
-5.9033 17.7780 -5.0119
21.3052 19.4031 -3.9634
21.1677 21.7129 -4.5496
14.1110 18.0656 -3.9221
13.9496 18.2319 -3.9688
13.2712 17.7099 -3.8651
12.9533 17.6514 -3.8620
13.0704 18.1904 -3.9896
12.8910 18.3259 -4.0288
12.8067 18.6000 -4.0984
12.7209 18.8787 -4.1690
12.6054 19.1192 -4.2312
12.3787 19.1926 -4.2563
12.1529 19.2656 -4.2811
11.3318 18.3714 -4.0904
11.6067 19.2485 -4.2939
11.3421 19.2460 -4.3012
20.6232 35.8162 -8.0188
19.9588 35.4863 -7.9588
19.6388 35.7582 -8.0333
19.2042 35.8204 -8.0604
18.7725 35.8822 -8.0871
18.3436 35.9437 -8.1134
18.7724 37.7227 -8.5276
19.0773 39.3297 -8.9037
19.5509 41.3693 -9.3785
18.7932 40.8333 -9.2695
18.3763 41.0188 -9.3238
17.9591 41.2043 -9.3778
18.3404 43.2745 -9.8610
17.5610 42.6370 -9.7272
17.3829 43.4550 -9.9252
16.7517 43.1453 -9.8654
4.3087 18.6226 -4.3086
-2.8880 18.7826 -4.3617
-2.8634 17.4303 -4.0459
-3.0830 17.6342 -4.0914
-3.3189 17.8993 -4.1510
-3.6845 18.7939 -4.3563
-3.7670 18.2236 -4.2219
-3.9993 18.3946 -4.2591
-4.2085 18.4445 -4.2681
-4.3994 18.4100 -4.2575
-4.5534 18.2271 -4.2125
-4.6447 17.8152 -4.1145
-5.1205 18.8482 -4.3499
-5.2048 18.4124 -4.2462
-5.2728 17.9500 -4.1363
-5.4161 17.7643 -4.0903
-5.5571 17.5814 -4.0447
-5.6951 17.3976 -3.9989
21.3021 19.4005 -2.5734
13.9631 18.1810 -2.8485
13.0423 17.3345 -2.7333
13.2498 17.9783 -2.8525
12.6265 17.4930 -2.7922
12.8997 18.2502 -2.9300
12.9368 18.6935 -3.0180
12.5460 18.5192 -3.0061
12.8387 19.3629 -3.1596
12.0475 18.5677 -3.0452
12.4129 19.5541 -3.2228
11.4901 18.5051 -3.0644
12.0187 19.7936 -3.2929
11.2554 18.9598 -3.1683
10.8606 18.7175 -3.1412
21.1787 37.3536 -6.2950
21.4213 38.6762 -6.5442
20.8895 38.6212 -6.5605
20.4254 38.6818 -6.5956
19.9644 38.7422 -6.6300
19.2610 38.3135 -6.5799
18.8548 38.4601 -6.6277
18.3025 38.2992 -6.6218
18.0825 38.8342 -6.7358
18.3182 40.3936 -7.0279
17.9865 40.7438 -7.1101
18.4085 42.8585 -7.5007
17.7154 42.4140 -7.4436
17.2188 42.4183 -7.4644
16.9800 43.0667 -7.5983
16.7566 43.7848 -7.7443
16.3907 44.1540 -7.8285
15.8368 44.0142 -7.8220
15.4403 44.3073 -7.8917
-2.8528 18.8087 -3.4443
-3.0478 18.8078 -3.4410
-3.2433 18.8068 -3.4374
-3.2252 17.6342 -3.2197
-3.4486 17.8341 -3.2526
-3.6778 18.0389 -3.2860
-3.9050 18.2104 -3.3131
-4.1276 18.3421 -3.3327
-4.3464 18.4419 -3.3462
-4.5103 18.3071 -3.3169
-4.6587 18.1196 -3.2779
-4.8048 17.9349 -3.2393
-4.9487 17.7532 -3.2012
-5.2127 17.9961 -3.2393
-5.3678 17.8556 -3.2082
-5.5971 17.9595 -3.2207
-5.9324 18.3812 -3.2898
-6.1020 18.2747 -3.2641
-6.2707 18.1688 -3.2382
21.2979 19.4006 -1.1959
13.6639 17.3746 -1.6457
13.6811 17.7512 -1.7079
13.7319 18.1826 -1.7759
12.9988 17.5671 -1.7406
13.6375 18.8132 -1.8900
12.9217 18.1986 -1.8526
12.9378 18.6053 -1.9182
12.8096 18.8123 -1.9634
12.5270 18.7914 -1.9844
12.7789 19.5835 -2.0915
12.1275 18.9907 -2.0503
11.8519 18.9680 -2.0694
11.5800 18.9452 -2.0878
11.1013 18.5705 -2.0664
11.9857 20.5061 -2.3031
21.6946 37.9710 -4.3032
22.6109 40.4968 -4.6293
21.9131 40.1733 -4.6308
19.8907 37.3378 -4.3387
19.6109 37.7053 -4.4154
19.0967 37.6201 -4.4385
19.7970 39.9739 -4.7502
19.3457 40.0538 -4.7929
18.8968 40.1336 -4.8347
17.9072 39.0298 -4.7321
16.8048 38.6282 -4.7409
16.4750 38.9202 -4.8044
16.5984 40.3211 -5.0051
16.1622 40.3953 -5.0412
15.7278 40.4694 -5.0765
16.6983 44.2635 -5.5801
16.3898 44.7876 -5.6732
15.9881 45.0726 -5.7355
15.5125 45.1513 -5.7710
-2.6375 18.9170 -2.5558
-2.8323 18.9289 -2.5532
-3.0278 18.9408 -2.5502
-3.2241 18.9525 -2.5470
-3.4284 19.0032 -2.5486
-3.5317 18.5157 -2.4779
-3.5981 17.8915 -2.3890
-3.8639 18.2682 -2.4334
-3.9905 17.9788 -2.3888
-4.2273 18.1859 -2.4098
-4.4864 18.4638 -2.4398
-4.6038 18.1560 -2.3920
-4.8248 18.2616 -2.3985
-4.9888 18.1481 -2.3759
-5.1517 18.0358 -2.3532
-5.4821 18.4934 -2.4044
-5.6545 18.4006 -2.3835
-5.8222 18.2960 -2.3608
-5.9573 18.0955 -2.3255
-6.1168 17.9762 -2.3005
-6.2752 17.8576 -2.2754
21.2921 19.4047 0.1755
13.5086 17.4714 -0.6297
13.5242 17.8461 -0.6772
13.5618 18.2606 -0.7266
13.6395 18.7419 -0.7795
12.8165 17.9748 -0.7791
12.8714 18.4274 -0.8301
12.9488 18.9268 -0.8840
12.8493 19.1783 -0.9266
12.3473 18.8220 -0.9389
11.9932 18.6754 -0.9601
12.3407 19.6337 -1.0385
11.4819 18.6681 -1.0144
11.0441 18.3542 -1.0232
11.4113 19.3891 -1.1073
11.0437 19.1897 -1.1215
21.0347 44.2043 -2.9975
20.9939 45.2535 -3.1151
20.4963 45.3372 -3.1659
20.0012 45.4207 -3.2156
4.3261 18.6202 -1.5658
-2.7929 18.9217 -1.6511
-2.9617 18.7816 -1.6332
-3.1495 18.7683 -1.6259
-3.3376 18.7548 -1.6182
-3.5261 18.7411 -1.6101
-3.7148 18.7273 -1.6017
-3.9257 18.8174 -1.6016
-4.0033 18.2864 -1.5486
-4.2339 18.4676 -1.5555
-4.4066 18.3881 -1.5401
-4.5931 18.3669 -1.5291
-4.7800 18.3456 -1.5178
-4.9674 18.3240 -1.5060
-5.1750 18.3724 -1.4996
-4.9141 16.8113 -1.3623
-5.5158 18.2035 -1.4639
-5.6853 18.1193 -1.4456
-5.8498 18.0220 -1.4259
-6.0068 17.9052 -1.4043
-6.1627 17.7890 -1.3826
21.2925 19.4217 1.5477
36.0664 34.1776 2.4611
35.3618 34.1548 2.3341
34.6716 34.1324 2.2108
33.9952 34.1105 2.0911
33.3323 34.0890 1.9750
32.6821 34.0680 1.8622
32.0443 34.0473 1.7528
31.3386 33.9406 1.6423
30.8099 34.0137 1.5435
30.2063 33.9941 1.4432
29.6134 33.9749 1.3457
29.0307 33.9560 1.2509
28.4578 33.9374 1.1589
27.8945 33.9192 1.0694
13.1318 17.9807 0.3098
13.0934 18.2938 0.2756
13.0109 18.5518 0.2404
12.9268 18.8132 0.2052
12.8005 19.0181 0.1695
12.4272 18.8517 0.1314
12.0170 18.6161 0.0946
11.7970 18.6666 0.0605
12.0789 19.5257 0.0284
11.6385 19.2245 -0.0055
11.2916 19.0630 -0.0378
22.4246 42.3873 -0.4144
4.2692 18.6321 -0.6747
4.1607 46.5852 -1.9420
3.7049 46.5963 -1.9521
3.2493 46.6050 -1.9609
2.7940 46.6113 -1.9685
2.3390 46.6152 -1.9749
1.8842 46.6168 -1.9801
1.4296 46.6161 -1.9841
0.9753 46.6129 -1.9869
0.5212 46.6075 -1.9885
0.0673 46.5997 -1.9889
-0.3864 46.5895 -1.9881
-0.8400 46.5770 -1.9860
-1.2934 46.5621 -1.9828
-1.7466 46.5449 -1.9784
-2.1998 46.5254 -1.9728
-2.6528 46.5035 -1.9659
-3.1057 46.4793 -1.9579
-3.5585 46.4527 -1.9487
-4.0112 46.4237 -1.9383
-4.4639 46.3924 -1.9266
-4.9165 46.3588 -1.9138
-5.3691 46.3228 -1.8997
-5.8217 46.2844 -1.8845
-6.2757 46.2552 -1.8685
-6.7332 46.2451 -1.8521
-2.9263 18.8131 -0.7465
-3.1204 18.8516 -0.7406
-3.3159 18.8903 -0.7342
-3.5046 18.8850 -0.7256
-3.6850 18.8347 -0.7148
-3.7658 18.3019 -0.6855
-3.9545 18.3155 -0.6764
-4.2349 18.7302 -0.6814
-4.3511 18.4106 -0.6592
-4.4994 18.2447 -0.6422
-4.6668 18.1632 -0.6279
-4.8336 18.0818 -0.6132
-5.0785 18.2850 -0.6076
-5.2541 18.2293 -0.5927
-5.4150 18.1249 -0.5759
-5.5749 18.0209 -0.5587
-5.7338 17.9174 -0.5411
-5.9093 17.8673 -0.5248
23.8303 19.7902 3.4802
24.1156 20.4138 3.4802
24.4061 21.0574 3.4802
25.7837 22.6731 3.6326
26.0984 23.3894 3.6326
26.4190 24.1294 3.6326
26.7457 24.8941 3.6326
27.0787 25.6847 3.6326
27.4183 26.5023 3.6326
27.7645 27.3481 3.6326
28.1177 28.2234 3.6326
28.4779 29.1296 3.6326
28.8455 30.0681 3.6326
29.2206 31.0404 3.6326
29.5890 32.0324 3.6308
29.0354 32.0349 3.5165
29.1186 32.7431 3.4802
29.5093 33.8207 3.4802
29.0664 33.9558 3.3822
28.4991 33.9374 3.2716
27.9412 33.9194 3.1641
27.3923 33.9016 3.0595
26.8521 33.8841 2.9578
26.2512 33.7778 2.8514
25.7313 33.7639 2.7557
25.2789 33.8302 2.6689
24.7708 33.8137 2.5780
24.2701 33.7975 2.4895
23.7764 33.7815 2.4034
23.2897 33.7657 2.3197
22.8095 33.7502 2.2382
12.5085 18.8923 1.2091
12.2014 18.8138 1.1616
11.9001 18.7367 1.1157
20.8952 33.6004 1.9290
20.4765 33.6357 1.8611
20.0536 33.6570 1.7941
19.6141 33.6427 1.7271
19.1797 33.6287 1.6619
18.7503 33.6147 1.5986
18.3256 33.6010 1.5370
17.9055 33.5874 1.4771
17.4898 33.5739 1.4190
17.0785 33.5605 1.3625
16.6713 33.5473 1.3076
16.2682 33.5343 1.2543
15.8327 33.4446 1.1998
15.4342 33.4234 1.1494
15.0855 33.5043 1.1039
14.6972 33.4917 1.0566
4.8293 49.3879 0.2625
3.2661 47.4929 0.2182
2.8076 47.4842 0.2094
2.3497 47.4755 0.2020
1.8925 47.4668 0.1958
1.4357 47.4580 0.1910
0.9793 47.4491 0.1875
0.5233 47.4402 0.1853
0.0676 47.4314 0.1844
-0.3880 47.4225 0.1848
-0.8435 47.4136 0.1866
-1.2989 47.4048 0.1896
-1.7544 47.3959 0.1940
-2.2101 47.3871 0.1996
-2.6659 47.3782 0.2066
-3.1221 47.3693 0.2149
-3.5787 47.3604 0.2245
-4.0357 47.3516 0.2355
-4.4932 47.3427 0.2477
-4.9514 47.3338 0.2613
-5.4103 47.3248 0.2763
-5.8700 47.3159 0.2926
-6.3305 47.3069 0.3102
-6.7921 47.2980 0.3292
-7.2546 47.2890 0.3495
-7.7183 47.2799 0.3713
-3.2165 18.5802 0.1550
-3.4029 18.5937 0.1648
-3.5901 18.6069 0.1752
-3.7677 18.5681 0.1856
-3.9580 18.5898 0.1971
-3.9956 17.9208 0.2015
-4.3009 18.4555 0.2200
-4.4873 18.4534 0.2329
-4.6329 18.2871 0.2443
-4.6578 17.6723 0.2496
-4.6402 16.9452 0.2529
-5.1096 17.9819 0.2834
-5.2919 17.9672 0.2987
-5.4381 17.8319 0.3125
-5.8142 18.4310 0.3402
-14.1791 32.5610 1.0140
17.4731 14.8298 3.6326
17.5790 15.2040 3.6326
17.6842 15.5856 3.6326
17.7885 15.9749 3.6326
17.8920 16.3719 3.6326
17.9945 16.7769 3.6326
18.0960 17.1899 3.6326
18.1962 17.6111 3.6326
17.9498 17.7001 3.5640
17.6206 17.7030 3.4801
17.7134 18.1317 3.4802
17.8040 18.5683 3.4802
17.8931 19.0135 3.4802
17.9803 19.4675 3.4802
18.0657 19.9304 3.4802
18.1490 20.4024 3.4802
18.2303 20.8835 3.4802
19.1110 22.3101 3.6326
19.1908 22.8320 3.6326
19.2679 23.3640 3.6326
19.3422 23.9062 3.6326
19.4133 24.4587 3.6326
19.4812 25.0217 3.6326
19.5457 25.5953 3.6326
19.6065 26.1795 3.6326
19.6635 26.7746 3.6326
19.7163 27.3805 3.6326
19.7649 27.9975 3.6326
19.8089 28.6255 3.6326
12.8830 18.9952 2.3579
12.6504 19.0339 2.3113
19.9110 30.5766 3.6326
19.9342 31.2494 3.6326
19.8094 31.7063 3.6068
19.3983 31.7066 3.5299
19.1295 31.9369 3.4802
19.1273 32.6245 3.4802
19.1184 33.3227 3.4802
19.1027 34.0322 3.4803
18.4491 33.6038 3.3654
18.0328 33.5903 3.2949
17.6210 33.5770 3.2263
17.2135 33.5638 3.1597
16.8101 33.5507 3.0950
16.4107 33.5378 3.0320
16.0151 33.5250 2.9709
15.5836 33.4271 2.9042
15.2346 33.4985 2.8538
14.8542 33.4956 2.7987
14.4728 33.4833 2.7443
14.0947 33.4710 2.6916
13.7198 33.4589 2.6406
13.3480 33.4468 2.5910
12.9791 33.4349 2.5430
12.6131 33.4230 2.4965
12.2499 33.4112 2.4515
11.8894 33.3995 2.4080
11.5314 33.3879 2.3658
11.1760 33.3764 2.3251
10.8230 33.3649 2.2858
10.4454 33.2679 2.2421
10.0981 33.2576 2.2056
9.7773 33.3301 2.1759
9.4330 33.3189 2.1419
9.0908 33.3078 2.1093
8.7506 33.2968 2.0778
8.4121 33.2858 2.0477
8.0755 33.2749 2.0188
4.3318 18.6150 1.1142
7.4073 33.2532 1.9646
7.0756 33.2424 1.9393
6.7453 33.2317 1.9153
6.4165 33.2210 1.8923
6.0891 33.2104 1.8706
5.7630 33.1998 1.8500
5.4381 33.1893 1.8305
5.1011 33.0925 1.8075
4.7796 33.0840 1.7904
4.4700 33.1559 1.7787
4.1495 33.1454 1.7637
3.8299 33.1351 1.7498
3.5111 33.1247 1.7370
3.1932 33.1144 1.7253
2.8761 33.1041 1.7146
2.5596 33.0938 1.7050
2.2438 33.0835 1.6965
1.9285 33.0733 1.6890
1.6138 33.0631 1.6826
1.2996 33.0529 1.6772
0.9858 33.0427 1.6729
0.6724 33.0325 1.6696
0.3592 33.0223 1.6674
0.0463 32.9402 1.6626
-0.2656 32.9181 1.6618
-0.5791 33.0037 1.6675
-0.8916 32.9935 1.6695
-1.2041 32.9833 1.6725
-1.5166 32.9732 1.6765
-1.8293 32.9630 1.6815
-2.4549 32.9427 1.6947
-2.1420 32.9528 1.6876
-2.7680 32.9325 1.7029
-3.0814 32.9223 1.7122
-3.7093 32.9019 1.7338
-3.3952 32.9121 1.7224
-4.0239 32.8916 1.7462
-4.3390 32.8814 1.7596
-4.9710 32.8608 1.7898
-4.6547 32.8711 1.7742
-5.2725 32.7542 1.8012
-6.2411 32.8065 1.8624
-5.5915 32.7568 1.8196
-6.5612 32.7961 1.8835
-5.9219 32.8169 1.8424
-3.8174 18.1851 1.0570
-4.1111 18.7025 1.1008
-4.2492 18.4950 1.1027
-4.9313 18.2689 1.1518
-4.3684 18.2225 1.1011
-5.0985 18.2031 1.1649
-4.3621 17.4660 1.0700
-9.4932 32.7006 2.1250
-4.6678 17.9661 1.1164
-9.8258 32.6897 2.1578
-10.1600 32.6789 2.1918
-11.5186 32.6466 2.3416
-10.4731 32.5969 2.2223
-11.8621 32.6354 2.3821
-12.2076 32.6242 2.4239
-10.8061 32.5740 2.2579
-12.5553 32.6128 2.4671
-11.1771 32.6577 2.3024
-12.9051 32.6014 2.5118
-13.2573 32.5900 2.5578
-13.6118 32.5784 2.6052
-13.9689 32.5668 2.6541
13.3646 11.5949 3.6326
13.4021 11.8462 3.6326
13.4380 12.1008 3.6326
13.4722 12.3588 3.6326
13.5045 12.6201 3.6326
13.5351 12.8849 3.6326
13.5636 13.1530 3.6326
13.5902 13.4246 3.6326
13.6147 13.6995 3.6326
13.6369 13.9779 3.6326
13.6570 14.2597 3.6326
13.6747 14.5450 3.6326
13.6901 14.8336 3.6326
13.7029 15.1256 3.6326
13.7132 15.4211 3.6326
13.7208 15.7199 3.6326
13.7256 16.0221 3.6326
13.7276 16.3276 3.6326
13.7266 16.6364 3.6326
13.7227 16.9485 3.6326
13.7155 17.2638 3.6326
13.6765 17.5455 3.6250
13.4190 17.5476 3.5603
13.1648 17.5495 3.4973
13.0808 17.7780 3.4802
13.0576 18.0949 3.4802
13.0307 18.4146 3.4802
13.0001 18.7369 3.4802
12.9476 19.0353 3.4754
12.5795 18.8676 3.3866
12.5576 19.2182 3.3918
12.8386 20.0517 3.4802
12.7880 20.3863 3.4802
12.7330 20.7229 3.4802
13.2286 21.9838 3.6326
13.1618 22.3392 3.6326
13.0902 22.6964 3.6326
13.0136 23.0553 3.6326
12.9320 23.4156 3.6326
12.8452 23.7772 3.6326
12.7531 24.1399 3.6326
12.6556 24.5035 3.6326
12.5527 24.8679 3.6326
12.4442 25.2328 3.6326
12.3299 25.5979 3.6326
12.2100 25.9631 3.6326
12.0841 26.3281 3.6326
11.9523 26.6926 3.6326
11.8145 27.0565 3.6326
11.6707 27.4193 3.6326
11.5206 27.7809 3.6326
11.3644 28.1410 3.6326
11.2018 28.4993 3.6326
11.0329 28.8553 3.6326
10.8576 29.2089 3.6326
10.6759 29.5596 3.6326
10.4878 29.9073 3.6326
10.2932 30.2514 3.6326
10.0921 30.5918 3.6326
9.8846 30.9279 3.6326
9.6706 31.2595 3.6326
9.3806 31.3539 3.6059
9.0620 31.3499 3.5691
8.7451 31.3458 3.5337
8.4298 31.3415 3.4996
8.1478 31.4589 3.4802
7.9062 31.7430 3.4802
7.6589 32.0203 3.4802
4.2706 18.6204 2.0068
7.1471 32.5526 3.4802
6.8828 32.8071 3.4802
6.6132 33.0533 3.4802
6.3382 33.2908 3.4802
6.0582 33.5197 3.4803
5.7734 33.7400 3.4804
5.0282 33.0892 3.3724
5.4838 33.9506 3.4805
4.7232 33.1631 3.3613
3.7755 33.1323 3.3097
4.4063 33.1528 3.3428
3.4613 33.1221 3.2949
4.0905 33.1425 3.3256
3.1480 33.1119 3.2814
2.5234 33.0916 3.2579
2.8354 33.1018 3.2690
2.2121 33.0815 3.2479
1.2813 33.0513 3.2251
1.9014 33.0714 3.2391
0.9719 33.0412 3.2199
1.5911 33.0613 3.2316
0.6629 33.0312 3.2159
0.0456 32.9392 3.2042
0.3542 33.0211 3.2130
-0.2619 32.9173 3.2025
-1.1872 32.9829 3.2171
-0.5709 33.0029 3.2124
-1.4953 32.9729 3.2212
-0.8791 32.9929 3.2142
-1.8036 32.9629 3.2264
-2.4204 32.9428 3.2404
-2.1119 32.9528 3.2329
-2.7291 32.9328 3.2492
-3.6571 32.9026 3.2825
-3.0380 32.9227 3.2591
-3.9672 32.8925 3.2960
-3.3474 32.9127 3.2702
-4.2778 32.8824 3.3107
-4.5890 32.8722 3.3265
-4.9007 32.8621 3.3436
-6.2560 33.3612 3.4804
-5.1978 32.7556 3.3520
-6.5323 33.1252 3.4803
-5.5100 32.7454 3.3715
-6.8034 32.8810 3.4802
-5.9746 33.5880 3.4805
-7.0693 32.6290 3.4802
-8.3140 31.2552 3.4802
-7.3297 32.3689 3.4802
-4.3417 18.3760 1.9922
-8.5454 30.9602 3.4802
-7.8335 31.8260 3.4802
-8.8003 30.7632 3.4920
-8.0767 31.5439 3.4802
-9.1057 30.7440 3.5251
-10.4308 30.0097 3.6326
-9.4130 30.7272 3.5597
-10.6208 29.6631 3.6326
-9.7216 30.7101 3.5955
-10.8044 29.3133 3.6326
-10.0312 30.6920 3.6326
-10.9816 28.9605 3.6326
-10.2341 30.3529 3.6326
-11.1524 28.6051 3.6326
-11.3168 28.2475 3.6326
-11.4750 27.8880 3.6326
-11.6268 27.5268 3.6326
10.7419 9.5299 3.6326
10.7499 9.7141 3.6326
10.7563 9.8999 3.6326
10.7609 10.0874 3.6326
10.7638 10.2765 3.6326
10.7649 10.4673 3.6326
10.7642 10.6596 3.6326
10.7616 10.8536 3.6326
10.7570 11.0492 3.6326
10.7505 11.2463 3.6326
10.7419 11.4449 3.6326
10.7313 11.6450 3.6326
10.7185 11.8466 3.6326
10.7036 12.0496 3.6326
10.6864 12.2540 3.6326
10.6670 12.4598 3.6326
10.6452 12.6669 3.6326
10.6210 12.8752 3.6326
10.5944 13.0848 3.6326
10.5654 13.2956 3.6326
10.5337 13.5076 3.6326
10.4996 13.7206 3.6326
10.4627 13.9347 3.6326
10.4232 14.1497 3.6326
10.3810 14.3656 3.6326
10.3359 14.5824 3.6326
10.2881 14.7999 3.6326
10.2373 15.0182 3.6326
10.1836 15.2371 3.6326
10.1269 15.4565 3.6326
10.0672 15.6764 3.6326
10.0044 15.8968 3.6326
9.9384 16.1174 3.6326
9.8693 16.3382 3.6326
9.7970 16.5592 3.6326
9.7214 16.7802 3.6326
9.6425 17.0011 3.6326
9.5603 17.2218 3.6326
9.4533 17.4028 3.6244
9.2482 17.4034 3.5794
9.0449 17.4039 3.5355
8.8435 17.4042 3.4928
8.7163 17.5503 3.4802
8.6176 17.7584 3.4802
8.5155 17.9656 3.4802
8.4101 18.1718 3.4802
8.3011 18.3767 3.4802
8.1888 18.5802 3.4802
8.0729 18.7823 3.4802
7.9536 18.9828 3.4802
7.8307 19.1815 3.4802
7.7044 19.3784 3.4802
7.5746 19.5732 3.4802
7.4413 19.7659 3.4802
7.3045 19.9562 3.4802
7.1642 20.1441 3.4802
7.0205 20.3294 3.4802
6.8734 20.5119 3.4802
6.7228 20.6915 3.4802
6.8565 21.7819 3.6326
6.6923 21.9628 3.6326
6.5247 22.1403 3.6326
6.3537 22.3140 3.6326
6.1793 22.4840 3.6326
6.0015 22.6500 3.6326
5.8205 22.8118 3.6326
5.6363 22.9694 3.6326
5.4490 23.1225 3.6326
5.2586 23.2710 3.6326
5.0653 23.4148 3.6326
4.8690 23.5538 3.6326
4.6699 23.6877 3.6326
4.4681 23.8164 3.6326
4.2637 23.9399 3.6326
4.0567 24.0579 3.6326
3.8473 24.1704 3.6326
3.6356 24.2772 3.6326
3.4217 24.3782 3.6326
3.2057 24.4734 3.6326
2.9877 24.5625 3.6326
2.7678 24.6454 3.6326
2.5463 24.7222 3.6326
2.3231 24.7928 3.6326
2.0985 24.8569 3.6326
1.8726 24.9146 3.6326
1.6454 24.9658 3.6326
1.4173 25.0105 3.6326
1.1882 25.0485 3.6326
0.9583 25.0798 3.6326
0.7279 25.1045 3.6326
0.4970 25.1224 3.6326
0.2657 25.1335 3.6326
0.0343 25.1379 3.6326
-0.1971 25.1355 3.6326
-0.4284 25.1264 3.6326
-0.6594 25.1105 3.6326
-0.8900 25.0879 3.6326
-1.8053 24.9305 3.6326
-1.1201 25.0585 3.6326
-2.0316 24.8747 3.6326
-1.3494 25.0224 3.6326
-2.2566 24.8125 3.6326
-1.5778 24.9798 3.6326
-2.4802 24.7438 3.6326
-2.7023 24.6689 3.6326
-3.5724 24.3078 3.6326
-2.9227 24.5877 3.6326
-3.7848 24.2027 3.6326
-3.1412 24.5004 3.6326
-3.9949 24.0919 3.6326
-3.3578 24.4071 3.6326
-4.2026 23.9755 3.6326
-4.4078 23.8536 3.6326
-5.2016 23.3142 3.6326
-4.6104 23.7264 3.6326
-4.2855 18.4099 2.8867
-4.8102 23.5940 3.6326
-4.4419 18.3174 2.8911
-5.0074 23.4566 3.6326
-5.7662 22.8590 3.6326
-5.9482 22.6984 3.6326
-6.6430 22.0158 3.6326
-6.1269 22.5337 3.6326
-6.8082 21.8359 3.6326
-6.3023 22.3649 3.6326
-6.9699 21.6526 3.6326
-6.4743 22.1922 3.6326
-7.1281 21.4661 3.6326
-7.2828 21.2764 3.6326
-7.5354 19.6306 3.4802
-7.1220 20.1994 3.4802
-7.6663 19.4364 3.4802
-7.2632 20.0122 3.4802
-7.7937 19.2401 3.4802
-7.9175 19.0419 3.4802
-7.4011 19.8226 3.4802
8.9158 8.0921 3.6326
8.9097 8.2347 3.6326
8.9021 8.3781 3.6326
8.8930 8.5225 3.6326
8.8824 8.6676 3.6326
8.8702 8.8136 3.6326
8.8564 8.9604 3.6326
8.8410 9.1080 3.6326
8.8240 9.2563 3.6326
8.8053 9.4053 3.6326
8.7849 9.5551 3.6326
8.7627 9.7055 3.6326
8.7388 9.8565 3.6326
8.7131 10.0081 3.6326
8.6855 10.1604 3.6326
8.6562 10.3131 3.6326
8.6249 10.4664 3.6326
8.5917 10.6201 3.6326
8.5566 10.7742 3.6326
8.5195 10.9287 3.6326
8.4804 11.0836 3.6326
8.4393 11.2387 3.6326
8.3962 11.3941 3.6326
8.3509 11.5497 3.6326
8.3036 11.7054 3.6326
8.2542 11.8613 3.6326
8.2026 12.0172 3.6326
8.1488 12.1731 3.6326
8.0928 12.3289 3.6326
8.0346 12.4847 3.6326
7.9742 12.6402 3.6326
7.9115 12.7955 3.6326
7.8465 12.9506 3.6326
7.7792 13.1053 3.6326
7.7096 13.2595 3.6326
7.6377 13.4133 3.6326
7.5634 13.5665 3.6326
7.4868 13.7191 3.6326
7.4077 13.8710 3.6326
7.3263 14.0221 3.6326
7.2425 14.1724 3.6326
7.1563 14.3218 3.6326
7.0677 14.4703 3.6326
6.9767 14.6176 3.6326
6.8832 14.7638 3.6326
6.7874 14.9087 3.6326
6.6891 15.0524 3.6326
6.5884 15.1947 3.6326
6.4853 15.3356 3.6326
6.3798 15.4749 3.6326
6.2719 15.6126 3.6326
6.1616 15.7485 3.6326
6.0489 15.8827 3.6326
5.9339 16.0150 3.6326
5.8166 16.1453 3.6326
5.6968 16.2736 3.6326
5.5749 16.3997 3.6326
5.4506 16.5237 3.6326
5.3241 16.6453 3.6326
5.1937 16.7590 3.6314
5.0632 16.8772 3.6317
4.9306 16.9927 3.6320
4.7958 17.1056 3.6323
4.6589 17.2157 3.6326
4.4974 17.2369 3.6148
4.3305 17.2349 3.5929
4.1643 17.2328 3.5720
3.9989 17.2306 3.5518
3.8342 17.2282 3.5325
3.6701 17.2258 3.5139
3.5067 17.2232 3.4962
3.3448 17.2253 3.4802
3.1974 17.3028 3.4802
2.5933 17.5791 3.4802
3.0484 17.3770 3.4802
2.4389 17.6395 3.4802
2.8981 17.4479 3.4802
2.2834 17.6962 3.4802
2.7463 17.5152 3.4802
2.1269 17.7493 3.4802
1.9692 17.7987 3.4802
1.3298 17.9584 3.4802
1.8106 17.8443 3.4802
1.1681 17.9888 3.4802
1.6511 17.8862 3.4802
1.0058 18.0152 3.4802
1.4908 17.9242 3.4802
0.8429 18.0377 3.4802
0.6798 18.0562 3.4802
0.0243 18.0905 3.4802
0.5162 18.0708 3.4802
-0.1398 18.0891 3.4802
0.3524 18.0813 3.4802
-0.3038 18.0837 3.4802
0.1884 18.0879 3.4802
-0.4677 18.0743 3.4802
-0.6313 18.0609 3.4802
-1.2819 17.9678 3.4802
-0.7946 18.0436 3.4802
-1.4431 17.9348 3.4802
-0.9576 18.0223 3.4802
-1.6037 17.8979 3.4802
-1.1200 17.9970 3.4802
-1.7634 17.8572 3.4802
-1.9223 17.8126 3.4802
-2.5476 17.5974 3.4802
-2.0802 17.7643 3.4802
-2.7010 17.5346 3.4802
-2.2371 17.7123 3.4802
-2.8532 17.4682 3.4802
-2.3929 17.6567 3.4802
-3.0040 17.3984 3.4802
-3.1533 17.3252 3.4802
-3.7354 16.9997 3.4802
-4.3735 16.9482 3.5479
-3.3013 17.2486 3.4802
-3.8912 16.9736 3.4932
-4.5353 16.9394 3.5677
-3.4476 17.1688 3.4802
-4.0515 16.9653 3.5107
-4.6977 16.9305 3.5883
-3.5923 17.0858 3.4802
-4.2122 16.9568 3.5289
-4.8607 16.9214 3.6097
-5.0243 16.9122 3.6319
-5.5366 16.4318 3.6315
-6.0113 15.9122 3.6303
-5.1564 16.7983 3.6324
-5.6588 16.3050 3.6312
-6.1241 15.7772 3.6300
-5.2854 16.6785 3.6321
-5.7786 16.1761 3.6309
-6.2345 15.6406 3.6297
-5.4121 16.5563 3.6318
-5.8961 16.0451 3.6306
-6.3424 15.5021 3.6294
7.5661 7.0294 3.6326
7.5529 7.1440 3.6326
7.5385 7.2590 3.6326
7.5227 7.3745 3.6326
7.5057 7.4904 3.6326
7.4873 7.6067 3.6326
7.4676 7.7234 3.6326
7.4465 7.8405 3.6326
7.4240 7.9579 3.6326
7.4002 8.0756 3.6326
7.3749 8.1936 3.6326
7.3482 8.3119 3.6326
7.3201 8.4304 3.6326
7.2904 8.5491 3.6326
7.2593 8.6680 3.6326
7.2267 8.7871 3.6326
7.1925 8.9062 3.6326
7.1568 9.0255 3.6326
7.1196 9.1448 3.6326
7.0808 9.2642 3.6326
7.0404 9.3835 3.6326
6.9984 9.5028 3.6326
6.9547 9.6220 3.6326
6.9095 9.7412 3.6326
6.8626 9.8601 3.6326
6.8140 9.9789 3.6326
6.7638 10.0973 3.6326
6.7117 10.2154 3.6325
6.6580 10.3331 3.6324
6.6026 10.4504 3.6323
6.5454 10.5674 3.6322
6.4865 10.6838 3.6321
6.4254 10.7991 3.6318
6.3626 10.9136 3.6314
6.2980 11.0276 3.6310
6.2314 11.1403 3.6304
6.1628 11.2519 3.6296
6.0920 11.3619 3.6286
6.0191 11.4702 3.6274
5.9442 11.5772 3.6259
5.8667 11.6813 3.6239
5.7867 11.7827 3.6214
5.7064 11.8858 3.6197
5.6274 11.9942 3.6200
5.5467 12.1017 3.6202
5.4643 12.2079 3.6205
5.3801 12.3131 3.6208
5.2942 12.4170 3.6210
5.2065 12.5197 3.6213
5.1171 12.6211 3.6215
5.0261 12.7211 3.6218
4.9333 12.8197 3.6220
4.8389 12.9169 3.6223
4.7428 13.0125 3.6225
4.6450 13.1065 3.6228
4.5457 13.1989 3.6230
4.4447 13.2896 3.6232
4.3421 13.3785 3.6234
4.2380 13.4657 3.6237
4.0252 13.6345 3.6241
4.1324 13.5511 3.6239
3.9165 13.7160 3.6243
3.5819 13.9483 3.6249
3.8064 13.7955 3.6245
3.4676 14.0216 3.6251
3.6949 13.8730 3.6247
3.3520 14.0926 3.6252
3.1169 14.2279 3.6256
3.2351 14.1614 3.6254
2.9975 14.2921 3.6258
2.6324 14.4703 3.6262
2.8770 14.3539 3.6259
2.5086 14.5248 3.6264
2.7553 14.4133 3.6261
2.3837 14.5767 3.6265
2.1311 14.6729 3.6268
2.2579 14.6261 3.6266
2.0035 14.7170 3.6269
1.6159 14.8333 3.6272
1.8751 14.7584 3.6270
1.4853 14.8666 3.6273
1.0901 14.9497 3.6275
0.5569 15.0209 3.6277
0.0199 15.0461 3.6278
1.7459 14.7972 3.6271
1.3541 14.8971 3.6274
0.9573 14.9718 3.6276
0.4228 15.0316 3.6278
-0.1145 15.0451 3.6278
1.2223 14.9248 3.6274
-0.5171 15.0247 3.6278
0.8242 14.9911 3.6276
0.2886 15.0393 3.6278
-0.2488 15.0412 3.6278
0.6907 15.0074 3.6277
-0.6510 15.0122 3.6278
-1.0508 14.9573 3.6277
0.1543 15.0441 3.6278
-0.3831 15.0344 3.6278
-1.1832 14.9333 3.6276
-1.5774 14.8445 3.6275
-2.5961 14.4885 3.6267
-2.0936 14.6876 3.6271
-2.7193 14.4323 3.6266
-2.2206 14.6417 3.6270
-1.7075 14.8093 3.6274
-0.7846 14.9967 3.6278
-2.8414 14.3738 3.6265
-1.3152 14.9065 3.6276
-2.3468 14.5932 3.6269
-1.8370 14.7714 3.6273
-2.9623 14.3127 3.6263
-0.9179 14.9784 3.6277
-1.4466 14.8769 3.6275
-2.4719 14.5421 3.6268
-1.9657 14.7309 3.6272
-3.0821 14.2493 3.6262
-3.5488 13.9728 3.6256
-3.9939 13.6617 3.6249
-4.4154 13.3192 3.6241
-3.2007 14.1836 3.6260
-3.6622 13.8981 3.6254
-4.1016 13.5789 3.6247
-4.5169 13.2290 3.6239
-3.3180 14.1156 3.6259
-3.7742 13.8213 3.6252
-4.2077 13.4941 3.6245
-4.6168 13.1372 3.6237
-3.4341 14.0453 3.6257
-3.8848 13.7425 3.6251
-4.3123 13.4076 3.6243
-4.7151 13.0437 3.6235
-4.8117 12.9486 3.6233
-4.9067 12.8520 3.6230
-5.0001 12.7539 3.6228
-5.0917 12.6543 3.6226
