ply
format ascii 1.0
element vertex 2059
property float32 x
property float32 y
property float32 z
end_header
-11.1402 -12.1041 0.5922
-11.1208 -12.8154 0.7077
-11.1339 -12.3362 0.6302
-11.1141 -13.0629 0.7473
-11.1001 -13.5748 0.8282
-11.1072 -13.3160 0.7874
-11.0942 -13.8413 0.8697
-11.0708 -14.6742 0.9981
-11.0866 -14.1122 0.9118
-11.0626 -14.9658 1.0423
-11.0788 -14.3898 0.9546
-11.0542 -15.2649 1.0874
-11.0367 -15.8872 1.1802
-11.0456 -15.5719 1.1333
-11.0276 -16.2111 1.2279
-11.0183 -16.5441 1.2767
-10.7541 -16.8558 1.3467
-11.0055 -16.8817 1.3261
-10.4622 -16.7592 1.3610
-9.6302 -16.4904 1.4004
-10.1779 -16.6662 1.3746
-9.3654 -16.4056 1.4123
-9.9007 -16.5766 1.3877
-9.1814 -16.4577 1.4355
-8.9298 -16.7756 1.4998
-9.1521 -16.7919 1.4832
-8.6812 -16.7037 1.5108
-7.9655 -16.5032 1.5414
-8.4378 -16.6344 1.5214
-7.7362 -16.4411 1.5508
-8.1512 -16.4705 1.5226
-7.5109 -16.3806 1.5599
-7.0713 -16.2635 1.5766
-7.2891 -16.3210 1.5684
-6.8573 -16.2080 1.5845
-6.2363 -16.0535 1.6065
-6.6469 -16.1546 1.5922
-6.0359 -16.0057 1.6132
-6.4399 -16.1031 1.5995
-5.8384 -15.9597 1.6197
-5.6439 -15.9154 1.6259
-5.4521 -15.8727 1.6319
-5.2629 -15.8317 1.6376
-4.6827 -15.6271 1.6437
-5.0762 -15.7922 1.6430
-4.5301 -15.6829 1.6581
-4.8919 -15.7543 1.6483
-4.3523 -15.6493 1.6626
-4.1765 -15.6172 1.6670
-4.0025 -15.5863 1.6711
-3.3237 -15.4759 1.6856
-3.8304 -15.5568 1.6750
-3.1578 -15.4515 1.6888
-3.6599 -15.5286 1.6788
-2.9932 -15.4282 1.6918
-3.4910 -15.5017 1.6823
-2.8299 -15.4061 1.6945
-2.6679 -15.3851 1.6972
-2.0302 -15.3124 1.7058
-2.5069 -15.3653 1.6996
-1.8731 -15.2970 1.7076
-2.3470 -15.3465 1.7018
-1.7167 -15.2826 1.7091
-2.1881 -15.3289 1.7039
-1.5611 -15.2692 1.7105
-1.4062 -15.2569 1.7118
-0.7918 -15.2178 1.7151
-0.6392 -15.2105 1.7156
-1.2518 -15.2456 1.7129
-0.4870 -15.2042 1.7159
-1.0980 -15.2353 1.7138
-0.3350 -15.1990 1.7160
-0.9447 -15.2261 1.7145
-0.1831 -15.1946 1.7160
-0.0314 -15.1913 1.7158
0.1203 -15.1889 1.7154
0.2719 -15.1876 1.7149
0.4236 -15.1871 1.7143
0.5754 -15.1877 1.7134
0.7274 -15.1892 1.7125
0.8796 -15.1917 1.7113
1.0321 -15.1952 1.7100
-11.4134 -2.9771 -0.6938
-11.4101 -3.0937 -0.6627
-11.4068 -3.2109 -0.6316
-11.4035 -3.3287 -0.6005
-11.3865 -3.9273 -0.4449
-11.4001 -3.4471 -0.5694
-11.3830 -4.0492 -0.4137
-11.3967 -3.5662 -0.5383
-11.3796 -4.1718 -0.3825
-11.3933 -3.6859 -0.5072
-11.3761 -4.2953 -0.3512
-11.3899 -3.8062 -0.4761
-11.3725 -4.4196 -0.3199
-11.3580 -4.9259 -0.1939
-11.3690 -4.5448 -0.2885
-11.3540 -5.0549 -0.1622
-11.3654 -4.6709 -0.2571
-11.3501 -5.1849 -0.1304
-11.3619 -4.7980 -0.2255
-11.3461 -5.3160 -0.0985
-11.3421 -5.4483 -0.0665
-11.3256 -5.9895 0.0627
-11.3380 -5.5817 -0.0344
-11.3339 -5.7164 -0.0022
-11.3214 -6.1281 0.0954
-11.3298 -5.8523 0.0302
-11.3171 -6.2681 0.1282
-11.3084 -6.5525 0.1944
-11.3128 -6.4096 0.1612
-11.3040 -6.6971 0.2278
-11.2905 -7.1405 0.3291
-11.2996 -6.8432 0.2613
-11.2859 -7.2918 0.3633
-11.2813 -7.4450 0.3978
-11.2951 -6.9910 0.2951
-11.2765 -7.6001 0.4325
-11.2695 -7.7556 0.4674
-11.2502 -8.4054 0.6101
-11.2452 -8.5736 0.6466
-11.2647 -7.9148 0.5026
-11.2402 -8.7442 0.6834
-11.2600 -8.0761 0.5381
-11.2350 -8.9174 0.7206
-11.2298 -9.0932 0.7582
-11.2551 -8.2396 0.5740
-11.2245 -9.2717 0.7961
-11.2192 -9.4531 0.8345
-11.2081 -9.8247 0.9125
-11.2137 -9.6373 0.8732
-11.2025 -10.0151 0.9521
-11.1850 -10.6067 1.0741
-11.1967 -10.2089 0.9923
-11.1766 -10.8087 1.1156
-11.1709 -11.0172 1.1580
-11.1909 -10.4060 1.0330
-11.1651 -11.2298 1.2009
-11.1592 -11.4465 1.2445
-11.1345 -12.3580 1.4256
-11.1279 -12.5980 1.4727
-11.1532 -11.6675 1.2887
-11.1213 -12.8433 1.5206
-11.1471 -11.8929 1.3336
-11.1145 -13.0940 1.5694
-11.1075 -13.3505 1.6191
-11.1408 -12.1230 1.3792
-11.1004 -13.6130 1.6697
-11.0926 -13.8812 1.7212
-10.8213 -14.1046 1.7851
-11.0849 -14.1561 1.7737
-10.5494 -14.0355 1.7937
-9.7745 -13.8423 1.8174
-10.2845 -13.9688 1.8019
-9.5289 -13.7824 1.8247
-10.0263 -13.9044 1.8098
-9.2899 -13.7259 1.8320
-9.2467 -13.9585 1.8776
-9.1767 -14.1563 1.9185
-8.2325 -13.8795 1.9335
-8.9452 -14.1043 1.9254
-8.0662 -13.9131 1.9505
-8.7186 -14.0540 1.9320
-7.8572 -13.8693 1.9562
-7.6521 -13.8268 1.9617
-8.4967 -14.0054 1.9384
-7.4508 -13.7858 1.9670
-7.2530 -13.7462 1.9721
-6.6799 -13.6349 1.9864
-7.0587 -13.7078 1.9771
-6.4951 -13.6002 1.9909
-6.8677 -13.6708 1.9818
-5.9577 -13.5030 2.0032
-6.3132 -13.5667 1.9951
-5.7838 -13.4728 2.0070
-6.1341 -13.5343 1.9992
-5.6123 -13.4435 2.0107
-5.4430 -13.4148 2.0141
-5.2759 -13.3868 2.0174
-4.6283 -13.2842 2.0293
-5.1109 -13.3598 2.0206
-4.4711 -13.2608 2.0320
-4.9481 -13.3337 2.0236
-4.3158 -13.2383 2.0345
-4.1621 -13.2166 2.0370
-4.0100 -13.1957 2.0393
-4.7608 -13.2351 2.0153
-3.8594 -13.1756 2.0415
-3.4162 -13.1199 2.0476
-3.7103 -13.1562 2.0436
-3.2711 -13.1028 2.0494
-3.5626 -13.1377 2.0457
-3.1272 -13.0864 2.0511
-2.8427 -13.0558 2.0543
-2.7021 -13.0415 2.0557
-2.9844 -13.0708 2.0527
-2.5624 -13.0279 2.0571
-2.2857 -13.0027 2.0595
-2.4236 -13.0150 2.0583
-2.1486 -12.9910 2.0606
-1.7417 -12.9598 2.0633
-2.0123 -12.9800 2.0616
-0.8492 -6.8420 1.0904
-1.8767 -12.9696 2.0625
-0.7793 -6.8437 1.0918
-0.7095 -6.8458 1.0931
-0.6398 -6.8483 1.0944
-0.3619 -6.8618 1.0992
-0.5702 -6.8511 1.0956
-0.2925 -6.8662 1.1003
-0.2231 -6.8709 1.1014
-0.5007 -6.8543 1.0968
-0.1536 -6.8759 1.1024
-0.4313 -6.8579 1.0980
-0.0841 -6.8814 1.1035
0.1953 -6.9070 1.1073
-0.0144 -6.8872 1.1045
0.0553 -6.8934 1.1054
0.2655 -6.9144 1.1082
0.1252 -6.9000 1.1064
0.3360 -6.9221 1.1090
0.4067 -6.9303 1.1098
0.4777 -6.9389 1.1106
-11.4173 -2.8219 -0.1649
-11.4140 -2.9383 -0.1326
-11.4107 -3.0552 -0.1004
-11.4074 -3.1727 -0.0680
-11.4040 -3.2907 -0.0356
-11.4007 -3.4094 -0.0031
-11.3973 -3.5287 0.0294
-11.3939 -3.6487 0.0620
-11.3905 -3.7694 0.0947
-11.3870 -3.8908 0.1275
-11.3835 -4.0130 0.1605
-11.3801 -4.1360 0.1935
-11.3765 -4.2598 0.2266
-11.3730 -4.3845 0.2599
-11.3694 -4.5101 0.2933
-11.3659 -4.6366 0.3268
-11.3620 -4.7640 0.3605
-11.3581 -4.8924 0.3944
-11.3541 -5.0218 0.4284
-11.3501 -5.1523 0.4626
-11.3461 -5.2839 0.4970
-11.3421 -5.4167 0.5316
-11.3380 -5.5506 0.5663
-11.3339 -5.6859 0.6013
-11.3297 -5.8224 0.6366
-11.3255 -5.9602 0.6720
-11.3212 -6.0994 0.7077
-11.3170 -6.2401 0.7437
-11.3126 -6.3822 0.7799
-11.3082 -6.5259 0.8164
-11.3038 -6.6711 0.8532
-11.2993 -6.8180 0.8903
-11.2948 -6.9666 0.9277
-11.2902 -7.1169 0.9655
-11.2856 -7.2691 1.0036
-11.2809 -7.4232 1.0420
-11.2761 -7.5792 1.0808
-11.2700 -7.7364 1.1199
-11.2653 -7.8966 1.1595
-11.2605 -8.0590 1.1996
-11.2556 -8.2236 1.2400
-11.2506 -8.3906 1.2810
-11.2456 -8.5600 1.3224
-11.2405 -8.7319 1.3643
-11.2353 -8.9064 1.4067
-11.2301 -9.0836 1.4496
-11.2248 -9.2635 1.4931
-11.2193 -9.4464 1.5371
-11.2138 -9.6322 1.5818
-11.2082 -9.8212 1.6271
-11.2025 -10.0134 1.6730
-11.1967 -10.2089 1.7196
-11.1908 -10.4080 1.7668
-11.1848 -10.6106 1.8149
-11.1775 -10.8158 1.8634
-11.1718 -11.0265 1.9131
-11.1660 -11.2414 1.9635
-11.1600 -11.4605 2.0149
-11.1540 -11.6840 2.0671
-11.0920 -11.8526 2.1097
-10.8317 -11.8074 2.1139
-10.5782 -11.7637 2.1181
-10.3313 -11.7216 2.1220
-10.0905 -11.6809 2.1259
-9.8557 -11.6415 2.1295
-9.6266 -11.6035 2.1331
-9.4035 -11.5675 2.1366
-9.3190 -11.7003 2.1712
-9.2980 -11.9162 2.2212
-9.1336 -11.9499 2.2371
-8.9219 -11.9181 2.2405
-8.6940 -11.8593 2.2385
-8.4021 -11.7052 2.2181
-8.2248 -11.7040 2.2264
-7.9997 -11.6300 2.2204
-7.7807 -11.5583 2.2146
-7.5674 -11.4887 2.2090
-7.3770 -11.4484 2.2086
-7.2066 -11.4348 2.2131
-7.0389 -11.4218 2.2176
-6.8737 -11.4095 2.2220
-6.7111 -11.3976 2.2262
-6.2370 -11.3654 2.2385
-6.5508 -11.3864 2.2304
-6.0833 -11.3557 2.2424
-6.3928 -11.3756 2.2345
-5.9316 -11.3465 2.2462
-5.6340 -11.3294 2.2536
-5.7819 -11.3377 2.2500
-5.4880 -11.3216 2.2573
-5.0575 -11.2959 2.2666
-5.3436 -11.3143 2.2608
-4.8941 -11.2348 2.2589
-5.2005 -11.3065 2.2641
-4.7765 -11.2760 2.2716
-4.5014 -11.2579 2.2763
-4.6382 -11.2667 2.2740
-4.3656 -11.2485 2.2784
-3.9652 -11.2201 2.2837
-4.2308 -11.2386 2.2802
-3.8342 -11.2115 2.2854
-4.0974 -11.2292 2.2820
-3.7044 -11.2033 2.2871
-3.4480 -11.1880 2.2902
-3.5757 -11.1955 2.2886
-3.3214 -11.1809 2.2917
-2.9463 -11.1589 2.2953
-3.1956 -11.1739 2.2931
-2.8230 -11.1519 2.2964
-3.0705 -11.1662 2.2942
-2.7004 -11.1452 2.2974
-2.4577 -11.1330 2.2993
-2.5787 -11.1389 2.2984
-2.3374 -11.1274 2.3002
-1.9803 -11.1125 2.3026
-2.2178 -11.1221 2.3010
-1.8625 -11.1082 2.3034
-2.0988 -11.1171 2.3018
-1.7451 -11.1042 2.3041
-0.7776 -5.7078 1.1858
-0.8369 -5.7058 1.1847
-0.7184 -5.7100 1.1868
-0.5414 -5.7174 1.1900
-0.6593 -5.7123 1.1879
-0.4826 -5.7203 1.1910
-0.6003 -5.7148 1.1889
-0.4238 -5.7232 1.1920
-0.3063 -5.7297 1.1940
-0.3650 -5.7264 1.1930
-0.2475 -5.7332 1.1949
-0.0711 -5.7447 1.1977
-0.1888 -5.7369 1.1959
-0.0122 -5.7489 1.1986
-0.1300 -5.7407 1.1968
0.0468 -5.7533 1.1995
0.1651 -5.7625 1.2013
0.1059 -5.7578 1.2004
0.2245 -5.7674 1.2021
0.2840 -5.7725 1.2030
0.3437 -5.7777 1.2038
0.4035 -5.7832 1.2046
-11.4212 -2.6678 0.3604
-11.4179 -2.7839 0.3938
-11.4146 -2.9005 0.4272
-11.4113 -3.0176 0.4608
-11.4080 -3.1354 0.4945
-11.4046 -3.2537 0.5283
-11.4012 -3.3726 0.5623
-11.3978 -3.4922 0.5964
-11.3944 -3.6125 0.6307
-11.3910 -3.7335 0.6651
-11.3875 -3.8553 0.6997
-11.3840 -3.9778 0.7344
-11.3805 -4.1012 0.7694
-11.3770 -4.2253 0.8045
-11.3735 -4.3504 0.8399
-11.3699 -4.4764 0.8754
-11.3663 -4.6033 0.9112
-11.3627 -4.7312 0.9472
-11.3581 -4.8598 0.9834
-11.3541 -4.9897 1.0199
-11.3501 -5.1206 1.0566
-11.3461 -5.2528 1.0937
-11.3420 -5.3860 1.1310
-11.3379 -5.5206 1.1686
-11.3338 -5.6563 1.2065
-11.3296 -5.7934 1.2447
-11.3254 -5.9318 1.2832
-11.3211 -6.0717 1.3221
-11.3168 -6.2130 1.3614
-11.3124 -6.3558 1.4010
-11.3080 -6.5002 1.4410
-11.3036 -6.6462 1.4814
-11.2991 -6.7938 1.5223
-11.2945 -6.9432 1.5635
-11.2899 -7.0944 1.6052
-11.2852 -7.2475 1.6474
-11.2805 -7.4025 1.6900
-11.2757 -7.5594 1.7332
-11.2708 -7.7185 1.7768
-11.2658 -7.8795 1.8210
-11.2609 -8.0430 1.8658
-11.2560 -8.2088 1.9111
-11.2510 -8.3770 1.9571
-11.2460 -8.5476 2.0037
-11.2408 -8.7208 2.0509
-11.2356 -8.8966 2.0988
-11.2303 -9.0752 2.1474
-11.2250 -9.2567 2.1967
-11.2195 -9.4411 2.2467
-11.2139 -9.6285 2.2976
-11.2083 -9.8192 2.3492
-11.0356 -9.8639 2.3659
-10.7945 -9.8438 2.3669
-10.5596 -9.8243 2.3678
-10.3305 -9.8054 2.3687
-10.1070 -9.7871 2.3695
-9.8889 -9.7694 2.3703
-9.6759 -9.7522 2.3711
-9.4684 -9.7362 2.3720
-9.3763 -9.8369 2.4012
-9.3578 -10.0168 2.4497
-9.2574 -10.1108 2.4773
-9.0599 -10.0969 2.4783
-8.8615 -10.0779 2.4779
-8.6497 -10.0388 2.4724
-8.3935 -9.9422 2.4526
-8.2377 -9.9596 2.4608
-8.0361 -9.9178 2.4542
-7.8394 -9.8772 2.4478
-7.6474 -9.8377 2.4415
-7.4598 -9.7991 2.4354
-7.2765 -9.7616 2.4294
-7.0951 -9.7222 2.4228
-6.9158 -9.6809 2.4156
-6.7406 -9.6407 2.4085
-6.5691 -9.6014 2.4016
-6.4014 -9.5631 2.3948
-6.2371 -9.5257 2.3882
-6.0969 -9.5213 2.3897
-5.9615 -9.5219 2.3924
-5.8279 -9.5226 2.3951
-5.6958 -9.5234 2.3977
-5.5653 -9.5243 2.4003
-5.4364 -9.5253 2.4028
-5.3088 -9.5264 2.4053
-5.1827 -9.5277 2.4078
-5.0579 -9.5290 2.4102
-4.9344 -9.5305 2.4126
-4.8121 -9.5320 2.4150
-4.6911 -9.5337 2.4173
-4.5712 -9.5354 2.4196
-4.4524 -9.5373 2.4219
-4.3347 -9.5392 2.4242
-4.2180 -9.5413 2.4264
-4.1023 -9.5434 2.4286
-3.9875 -9.5457 2.4307
-3.8737 -9.5480 2.4328
-3.7607 -9.5504 2.4349
-3.6485 -9.5530 2.4370
-3.5372 -9.5556 2.4391
-3.4266 -9.5583 2.4411
-3.3168 -9.5611 2.4431
-3.2077 -9.5640 2.4451
-3.0992 -9.5670 2.4471
-2.9914 -9.5701 2.4490
-2.8842 -9.5733 2.4510
-2.7776 -9.5766 2.4529
-2.6715 -9.5799 2.4548
-2.5660 -9.5834 2.4566
-2.4609 -9.5869 2.4585
-2.3556 -9.5877 2.4596
-2.2508 -9.5885 2.4606
-2.1465 -9.5893 2.4617
-2.0426 -9.5903 2.4627
-1.9391 -9.5914 2.4637
-1.8361 -9.5926 2.4647
-0.8806 -4.8736 1.2525
-0.8288 -4.8759 1.2535
-0.7772 -4.8782 1.2544
-0.7258 -4.8806 1.2553
-0.6744 -4.8831 1.2561
-0.6231 -4.8856 1.2570
-0.5719 -4.8882 1.2579
-0.5208 -4.8908 1.2588
-0.4697 -4.8934 1.2596
-0.4187 -4.8962 1.2605
-0.3677 -4.8989 1.2614
-0.3167 -4.9017 1.2622
-0.2657 -4.9046 1.2630
-0.2148 -4.9075 1.2639
-0.1638 -4.9105 1.2647
-0.1128 -4.9136 1.2656
-0.0617 -4.9167 1.2664
-0.0106 -4.9198 1.2672
0.0406 -4.9230 1.2680
0.0918 -4.9263 1.2689
0.1432 -4.9296 1.2697
0.1946 -4.9330 1.2705
0.2462 -4.9365 1.2713
0.2978 -4.9400 1.2721
0.3497 -4.9436 1.2729
-11.4251 -2.5141 0.8844
-11.4218 -2.6299 0.9188
-11.4185 -2.7462 0.9535
-11.4152 -2.8630 0.9883
-11.4119 -2.9804 1.0233
-11.4085 -3.0984 1.0585
-11.4051 -3.2170 1.0938
-11.4018 -3.3362 1.1294
-11.3983 -3.4561 1.1652
-11.3949 -3.5766 1.2013
-11.3915 -3.6980 1.2375
-11.3880 -3.8200 1.2740
-11.3845 -3.9429 1.3108
-11.3810 -4.0666 1.3478
-11.3775 -4.1911 1.3851
-11.3739 -4.3166 1.4226
-11.3703 -4.4429 1.4605
-11.3667 -4.5703 1.4986
-11.3631 -4.6986 1.5371
-11.3581 -4.8275 1.5758
-11.3542 -4.9578 1.6149
-11.3501 -5.0893 1.6543
-11.3461 -5.2219 1.6941
-11.3420 -5.3557 1.7343
-11.3379 -5.4907 1.7749
-11.3337 -5.6270 1.8159
-11.3295 -5.7647 1.8573
-11.3252 -5.9037 1.8991
-11.3210 -6.0442 1.9414
-11.3166 -6.1862 1.9842
-11.3122 -6.3297 2.0274
-11.3078 -6.4748 2.0711
-11.3033 -6.6215 2.1153
-11.2988 -6.7700 2.1601
-11.2942 -6.9202 2.2054
-11.2895 -7.0722 2.2513
-11.2848 -7.2262 2.2977
-11.2801 -7.3821 2.3448
-11.2752 -7.5400 2.3925
-11.2704 -7.7000 2.4409
-11.2663 -7.8628 2.4901
-11.2614 -8.0274 2.5399
-11.1697 -8.1312 2.5704
-10.9412 -8.1332 2.5688
-10.7185 -8.1350 2.5672
-10.5012 -8.1368 2.5657
-10.2891 -8.1385 2.5642
-10.0821 -8.1401 2.5628
-9.8798 -8.1417 2.5614
-9.6820 -8.1431 2.5600
-9.4895 -8.1452 2.5589
-9.4228 -8.2538 2.5913
-9.4063 -8.4080 2.6380
-9.3318 -8.5119 2.6689
-9.1476 -8.5143 2.6680
-8.9671 -8.5165 2.6671
-8.7403 -8.4705 2.6512
-8.5617 -8.4668 2.6485
-8.3930 -8.4694 2.6479
-8.2182 -8.4626 2.6444
-8.0371 -8.4456 2.6377
-7.8600 -8.4289 2.6312
-7.6868 -8.4125 2.6248
-7.5172 -8.3965 2.6186
-7.3510 -8.3808 2.6125
-7.1883 -8.3653 2.6065
-7.0274 -8.3484 2.6001
-6.8676 -8.3293 2.5931
-6.7110 -8.3106 2.5862
-6.5575 -8.2922 2.5794
-6.4069 -8.2741 2.5728
-6.2592 -8.2563 2.5663
-6.1143 -8.2388 2.5600
-5.9690 -8.2175 2.5524
-5.8264 -8.1965 2.5450
-5.6865 -8.1759 2.5378
-5.5491 -8.1557 2.5307
-5.4141 -8.1358 2.5237
-5.2856 -8.1224 2.5188
-5.1724 -8.1302 2.5205
-5.0604 -8.1380 2.5221
-4.9495 -8.1456 2.5238
-4.8397 -8.1531 2.5254
-4.7309 -8.1605 2.5270
-4.6231 -8.1678 2.5286
-4.5162 -8.1750 2.5302
-4.4104 -8.1821 2.5318
-4.3054 -8.1891 2.5334
-4.2013 -8.1961 2.5349
-4.0980 -8.2029 2.5365
-3.9955 -8.2097 2.5380
-3.8938 -8.2164 2.5396
-3.7929 -8.2230 2.5411
-3.6926 -8.2295 2.5426
-3.5931 -8.2359 2.5441
-3.4943 -8.2423 2.5456
-3.3961 -8.2486 2.5471
-3.2985 -8.2549 2.5486
-3.2015 -8.2610 2.5501
-3.1051 -8.2671 2.5516
-3.0092 -8.2732 2.5530
-2.9139 -8.2792 2.5545
-2.8191 -8.2851 2.5559
-2.7247 -8.2909 2.5574
-2.6308 -8.2967 2.5588
-2.5373 -8.3025 2.5603
-2.4442 -8.3082 2.5617
-2.3516 -8.3138 2.5631
-2.2593 -8.3194 2.5646
-2.1673 -8.3249 2.5660
-2.0757 -8.3304 2.5674
-1.9844 -8.3359 2.5688
-1.8935 -8.3413 2.5703
-1.8027 -8.3466 2.5717
-0.8687 -4.2372 1.3054
-0.8229 -4.2400 1.3062
-0.7773 -4.2427 1.3069
-0.7317 -4.2454 1.3077
-0.6863 -4.2481 1.3084
-0.6409 -4.2508 1.3091
-0.5956 -4.2535 1.3099
-0.5504 -4.2561 1.3106
-0.5052 -4.2587 1.3114
-0.4601 -4.2613 1.3121
-0.4150 -4.2639 1.3129
-0.3699 -4.2665 1.3136
-0.3249 -4.2691 1.3143
-0.2798 -4.2716 1.3151
-0.2348 -4.2741 1.3158
-0.1898 -4.2767 1.3166
-0.1447 -4.2792 1.3173
-0.0996 -4.2817 1.3181
-0.0545 -4.2841 1.3188
-0.0094 -4.2866 1.3196
0.0358 -4.2891 1.3204
0.0811 -4.2915 1.3211
0.1264 -4.2939 1.3219
0.1718 -4.2964 1.3226
0.2173 -4.2988 1.3234
0.2629 -4.3012 1.3242
0.3086 -4.3036 1.3250
-11.4290 -2.3601 1.4092
-11.4257 -2.4756 1.4448
-11.4224 -2.5917 1.4806
-11.4191 -2.7082 1.5167
-11.4158 -2.8252 1.5530
-11.4124 -2.9428 1.5895
-11.4091 -3.0610 1.6263
-11.4057 -3.1798 1.6634
-11.4023 -3.2993 1.7008
-11.3989 -3.4195 1.7384
-11.3954 -3.5403 1.7763
-11.3920 -3.6619 1.8145
-11.3885 -3.7843 1.8531
-11.3850 -3.9075 1.8920
-11.3815 -4.0315 1.9312
-11.3779 -4.1565 1.9708
-11.3744 -4.2823 2.0107
-11.3708 -4.4090 2.0511
-11.3671 -4.5368 2.0918
-11.3635 -4.6655 2.1329
-11.3582 -4.7947 2.1741
-11.3542 -4.9255 2.2160
-11.3501 -5.0574 2.2583
-11.3461 -5.1905 2.3011
-11.3420 -5.3248 2.3444
-11.3378 -5.4604 2.3882
-11.3336 -5.5973 2.4324
-11.3294 -5.7355 2.4772
-11.3251 -5.8752 2.5225
-11.3208 -6.0163 2.5684
-11.3164 -6.1589 2.6148
-11.3120 -6.3031 2.6618
-11.3076 -6.4489 2.7095
-11.2277 -6.5524 2.7394
-11.0130 -6.5751 2.7357
-10.8034 -6.5971 2.7322
-10.5988 -6.6184 2.7288
-10.3990 -6.6390 2.7255
-10.2037 -6.6590 2.7223
-10.0128 -6.6783 2.7191
-9.8261 -6.6971 2.7161
-9.6434 -6.7152 2.7131
-9.4824 -6.7455 2.7154
-9.4607 -6.8744 2.7574
-9.4457 -7.0098 2.8020
-9.3575 -7.0916 2.8252
-9.1864 -7.1088 2.8229
-9.0185 -7.1255 2.8206
-8.8230 -7.1170 2.8086
-8.6177 -7.0964 2.7921
-8.4135 -7.0723 2.7746
-8.2285 -7.0603 2.7621
-8.0790 -7.0755 2.7606
-7.9319 -7.0903 2.7590
-7.7873 -7.1046 2.7575
-7.6450 -7.1186 2.7560
-7.5049 -7.1322 2.7546
-7.3670 -7.1454 2.7531
-7.2313 -7.1583 2.7518
-7.0927 -7.1659 2.7486
-6.9471 -7.1638 2.7418
-6.8042 -7.1616 2.7352
-6.6639 -7.1593 2.7287
-6.5260 -7.1569 2.7223
-6.3906 -7.1544 2.7161
-6.2574 -7.1519 2.7099
-6.1263 -7.1490 2.7038
-5.9949 -7.1430 2.6968
-5.8657 -7.1371 2.6898
-5.7387 -7.1312 2.6830
-5.6137 -7.1252 2.6763
-5.4908 -7.1192 2.6698
-5.3698 -7.1131 2.6634
-5.2495 -7.1055 2.6564
-5.1299 -7.0963 2.6491
-5.0123 -7.0871 2.6418
-4.8964 -7.0779 2.6347
-4.7824 -7.0688 2.6277
-4.6700 -7.0597 2.6209
-4.5672 -7.0629 2.6187
-4.4710 -7.0746 2.6197
-4.3755 -7.0860 2.6207
-4.2809 -7.0972 2.6217
-4.1869 -7.1082 2.6228
-4.0937 -7.1190 2.6238
-4.0012 -7.1296 2.6248
-3.9093 -7.1399 2.6259
-3.8181 -7.1501 2.6269
-3.7275 -7.1601 2.6280
-3.6376 -7.1699 2.6290
-3.5482 -7.1795 2.6300
-3.4594 -7.1889 2.6311
-3.3711 -7.1982 2.6321
-3.2833 -7.2073 2.6332
-3.1961 -7.2162 2.6343
-3.1093 -7.2249 2.6353
-3.0230 -7.2335 2.6364
-2.9372 -7.2419 2.6375
-2.8517 -7.2502 2.6385
-2.7668 -7.2583 2.6396
-2.6822 -7.2662 2.6407
-2.5979 -7.2740 2.6418
-2.5141 -7.2816 2.6429
-2.4306 -7.2891 2.6440
-2.3474 -7.2964 2.6451
-2.2646 -7.3036 2.6462
-2.1820 -7.3107 2.6473
-2.0998 -7.3176 2.6484
-2.0178 -7.3243 2.6496
-1.9361 -7.3310 2.6507
-1.8546 -7.3375 2.6518
-0.9003 -3.7283 1.3468
-0.8592 -3.7315 1.3474
-0.8182 -3.7347 1.3480
-0.7772 -3.7378 1.3487
-0.7364 -3.7408 1.3493
-0.6956 -3.7438 1.3499
-0.6549 -3.7467 1.3505
-0.6143 -3.7495 1.3512
-0.5738 -3.7523 1.3518
-0.5333 -3.7551 1.3524
-0.4928 -3.7577 1.3531
-0.4524 -3.7603 1.3537
-0.4120 -3.7629 1.3543
-0.3716 -3.7654 1.3550
-0.3313 -3.7678 1.3557
-0.2909 -3.7702 1.3563
-0.2506 -3.7725 1.3570
-0.2103 -3.7748 1.3577
-0.1699 -3.7770 1.3583
-0.1296 -3.7791 1.3590
-0.0892 -3.7812 1.3597
-0.0488 -3.7833 1.3604
-0.0084 -3.7853 1.3611
0.0321 -3.7872 1.3618
0.0726 -3.7891 1.3625
0.1132 -3.7909 1.3632
0.1538 -3.7926 1.3639
0.1945 -3.7944 1.3646
0.2353 -3.7960 1.3654
0.2761 -3.7976 1.3661
-11.4329 -2.2052 1.9373
-11.4296 -2.3204 1.9740
-11.4263 -2.4361 2.0110
-11.4230 -2.5523 2.0483
-11.4197 -2.6690 2.0859
-11.4164 -2.7863 2.1239
-11.4130 -2.9041 2.1621
-11.4096 -3.0225 2.2007
-11.4063 -3.1416 2.2396
-11.4029 -3.2613 2.2788
-11.3994 -3.3818 2.3184
-11.3960 -3.5029 2.3584
-11.3925 -3.6248 2.3988
-11.3890 -3.7475 2.4396
-11.3855 -3.8710 2.4807
-11.3820 -3.9953 2.5223
-11.3784 -4.1206 2.5644
-11.3748 -4.2468 2.6069
-11.3712 -4.3739 2.6498
-11.3676 -4.5021 2.6933
-11.3639 -4.6312 2.7372
-11.3582 -4.7607 2.7811
-11.3542 -4.8919 2.8260
-11.3502 -5.0243 2.8714
-11.2024 -5.0926 2.8805
-11.0030 -5.1345 2.8754
-10.8082 -5.1752 2.8704
-10.6177 -5.2147 2.8656
-10.4315 -5.2529 2.8609
-10.2493 -5.2901 2.8564
-10.0710 -5.3261 2.8520
-9.8964 -5.3612 2.8477
-9.7255 -5.3952 2.8435
-9.5589 -5.4287 2.8397
-9.5050 -5.5249 2.8690
-9.4915 -5.6453 2.9109
-9.4779 -5.7670 2.9534
-9.3338 -5.8088 2.9552
-9.1759 -5.8395 2.9518
-9.0191 -5.8683 2.9480
-8.8432 -5.8818 2.9370
-8.6610 -5.8877 2.9227
-8.4832 -5.8932 2.9089
-8.3089 -5.8977 2.8951
-8.1271 -5.8935 2.8776
-7.9501 -5.8891 2.8606
-7.8074 -5.9072 2.8549
-7.6760 -5.9314 2.8527
-7.5465 -5.9551 2.8504
-7.4190 -5.9781 2.8482
-7.2933 -6.0006 2.8461
-7.1694 -6.0225 2.8440
-7.0472 -6.0438 2.8420
-6.9267 -6.0646 2.8400
-6.8079 -6.0849 2.8381
-6.6906 -6.1047 2.8362
-6.5749 -6.1240 2.8343
-6.4606 -6.1429 2.8325
-6.3478 -6.1612 2.8308
-6.2343 -6.1770 2.8280
-6.1135 -6.1836 2.8214
-5.9946 -6.1899 2.8149
-5.8775 -6.1959 2.8085
-5.7622 -6.2016 2.8022
-5.6485 -6.2070 2.7961
-5.5366 -6.2121 2.7900
-5.4262 -6.2170 2.7841
-5.3158 -6.2198 2.7775
-5.2064 -6.2218 2.7707
-5.0986 -6.2235 2.7640
-4.9923 -6.2251 2.7575
-4.8875 -6.2264 2.7510
-4.7841 -6.2275 2.7447
-4.6820 -6.2284 2.7385
-4.5795 -6.2267 2.7313
-4.4784 -6.2249 2.7242
-4.3787 -6.2229 2.7173
-4.2802 -6.2208 2.7104
-4.1830 -6.2185 2.7037
-4.0871 -6.2161 2.6971
-4.0023 -6.2290 2.6973
-3.9186 -6.2425 2.6979
-3.8356 -6.2558 2.6985
-3.7530 -6.2689 2.6991
-3.6710 -6.2816 2.6998
-3.5896 -6.2941 2.7004
-3.5085 -6.3063 2.7011
-3.4280 -6.3183 2.7018
-3.3480 -6.3300 2.7025
-3.2683 -6.3415 2.7032
-3.1892 -6.3528 2.7039
-3.1104 -6.3638 2.7046
-3.0320 -6.3745 2.7053
-2.9541 -6.3851 2.7061
-2.8765 -6.3954 2.7068
-2.7992 -6.4055 2.7076
-2.7223 -6.4153 2.7084
-2.6457 -6.4250 2.7091
-2.5695 -6.4344 2.7099
-2.4936 -6.4436 2.7107
-2.4179 -6.4527 2.7116
-2.3426 -6.4615 2.7124
-2.2675 -6.4701 2.7132
-2.1927 -6.4785 2.7141
-2.1181 -6.4867 2.7149
-2.0438 -6.4947 2.7158
-1.9696 -6.5025 2.7167
-1.8957 -6.5101 2.7176
-1.8220 -6.5175 2.7185
-0.9117 -3.4018 1.4178
-0.8723 -3.4011 1.4165
-0.8332 -3.4004 1.4152
-0.7942 -3.3996 1.4139
-0.7555 -3.3989 1.4127
-0.7169 -3.3982 1.4116
-0.6785 -3.3975 1.4105
-0.6403 -3.3968 1.4094
-0.6023 -3.3961 1.4084
-0.5643 -3.3954 1.4074
-0.5266 -3.3948 1.4065
-0.4889 -3.3941 1.4057
-0.4514 -3.3934 1.4049
-0.4140 -3.3928 1.4041
-0.3767 -3.3921 1.4034
-0.3395 -3.3914 1.4027
-0.3024 -3.3908 1.4020
-0.2653 -3.3902 1.4015
-0.2284 -3.3895 1.4009
-0.1915 -3.3889 1.4004
-0.1546 -3.3883 1.4000
-0.1178 -3.3877 1.3995
-0.0810 -3.3870 1.3992
-0.0443 -3.3864 1.3989
-0.0076 -3.3858 1.3986
0.0291 -3.3852 1.3983
0.0658 -3.3846 1.3981
0.1025 -3.3840 1.3980
0.1392 -3.3834 1.3979
0.1759 -3.3837 1.3982
0.2128 -3.3849 1.3989
0.2497 -3.3859 1.3996
-11.4368 -2.0487 2.4709
-11.4335 -2.1636 2.5088
-11.4303 -2.2790 2.5470
-11.4270 -2.3949 2.5856
-11.4237 -2.5112 2.6245
-11.4203 -2.6281 2.6638
-11.4170 -2.7456 2.7035
-11.4136 -2.8636 2.7436
-11.4103 -2.9822 2.7840
-11.4069 -3.1015 2.8249
-11.4035 -3.2215 2.8663
-11.4000 -3.3422 2.9080
-11.3966 -3.4636 2.9502
-11.3931 -3.5858 2.9929
-11.2732 -3.6708 3.0050
-11.0869 -3.7319 2.9988
-10.9048 -3.7911 2.9928
-10.7265 -3.8487 2.9869
-10.5520 -3.9046 2.9812
-10.3810 -3.9590 2.9756
-10.2136 -4.0119 2.9702
-10.0494 -4.0633 2.9649
-9.8885 -4.1133 2.9598
-9.7307 -4.1619 2.9547
-9.5770 -4.2097 2.9502
-9.5409 -4.3081 2.9816
-9.5286 -4.4178 3.0209
-9.5162 -4.5283 3.0607
-9.4065 -4.5923 3.0692
-9.2595 -4.6362 3.0651
-9.1151 -4.6790 3.0610
-8.9616 -4.7147 3.0532
-8.8001 -4.7434 3.0418
-8.5997 -4.7479 3.0158
-8.4873 -4.7982 3.0198
-8.3313 -4.8217 3.0076
-8.1734 -4.8413 2.9938
-8.0189 -4.8602 2.9803
-7.8617 -4.8746 2.9649
-7.7034 -4.8853 2.9480
-7.5601 -4.9029 2.9360
-7.4422 -4.9347 2.9332
-7.3259 -4.9658 2.9304
-7.2112 -4.9961 2.9276
-7.0980 -5.0257 2.9249
-6.9863 -5.0546 2.9223
-6.8760 -5.0828 2.9198
-6.7671 -5.1104 2.9173
-6.6596 -5.1373 2.9148
-6.5534 -5.1636 2.9124
-6.4484 -5.1893 2.9101
-6.3447 -5.2143 2.9078
-6.2422 -5.2388 2.9055
-6.1409 -5.2628 2.9033
-6.0407 -5.2862 2.9012
-5.9416 -5.3090 2.8991
-5.8436 -5.3313 2.8970
-5.7466 -5.3531 2.8950
-5.6507 -5.3744 2.8931
-5.5553 -5.3948 2.8909
-5.4527 -5.4066 2.8845
-5.3515 -5.4181 2.8782
-5.2517 -5.4291 2.8720
-5.1531 -5.4398 2.8660
-5.0557 -5.4501 2.8600
-4.9596 -5.4600 2.8541
-4.8646 -5.4696 2.8484
-4.7700 -5.4780 2.8423
-4.6757 -5.4850 2.8358
-4.5824 -5.4916 2.8293
-4.4904 -5.4980 2.8230
-4.3994 -5.5041 2.8167
-4.3094 -5.5098 2.8106
-4.2205 -5.5153 2.8046
-4.1318 -5.5195 2.7981
-4.0435 -5.5225 2.7913
-3.9562 -5.5252 2.7846
-3.8699 -5.5278 2.7780
-3.7845 -5.5300 2.7715
-3.7001 -5.5321 2.7651
-3.6191 -5.5377 2.7607
-3.5449 -5.5525 2.7610
-3.4710 -5.5669 2.7614
-3.3975 -5.5811 2.7617
-3.3244 -5.5949 2.7621
-3.2518 -5.6085 2.7625
-3.1794 -5.6217 2.7629
-3.1074 -5.6347 2.7633
-3.0358 -5.6474 2.7638
-2.9645 -5.6598 2.7642
-2.8935 -5.6719 2.7647
-2.8229 -5.6838 2.7652
-2.7525 -5.6954 2.7657
-2.6824 -5.7067 2.7662
-2.6126 -5.7178 2.7667
-2.5431 -5.7287 2.7673
-2.4738 -5.7392 2.7678
-2.4048 -5.7496 2.7684
-2.3360 -5.7596 2.7690
-2.2675 -5.7695 2.7696
-2.1991 -5.7791 2.7702
-2.1310 -5.7884 2.7708
-2.0631 -5.7975 2.7715
-1.9954 -5.8064 2.7722
-1.9279 -5.8151 2.7728
-1.8605 -5.8235 2.7735
-1.7934 -5.8317 2.7742
-1.7263 -5.8397 2.7750
-1.6595 -5.8474 2.7757
-1.5927 -5.8549 2.7765
-0.8898 -3.4181 1.6193
-0.8499 -3.4173 1.6174
-0.8101 -3.4165 1.6156
-0.7706 -3.4157 1.6139
-0.7312 -3.4150 1.6123
-0.6920 -3.4142 1.6107
-0.6530 -3.4135 1.6092
-0.6142 -3.4127 1.6078
-0.5755 -3.4120 1.6064
-0.5370 -3.4113 1.6051
-0.4986 -3.4106 1.6039
-0.4603 -3.4099 1.6028
-0.4221 -3.4092 1.6017
-0.3841 -3.4085 1.6007
-0.3462 -3.4078 1.5998
-0.3083 -3.4071 1.5989
-0.2705 -3.4064 1.5981
-0.2328 -3.4058 1.5974
-0.1952 -3.4051 1.5967
-0.1576 -3.4045 1.5961
-0.1201 -3.4038 1.5956
-0.0826 -3.4032 1.5951
-0.0452 -3.4026 1.5947
-0.0077 -3.4019 1.5944
0.0297 -3.4013 1.5941
0.0671 -3.4007 1.5939
0.1045 -3.4001 1.5937
0.1419 -3.3995 1.5937
0.1793 -3.3989 1.5937
0.2168 -3.3983 1.5937
0.2543 -3.3977 1.5938
-11.4408 -1.8898 3.0126
-11.4376 -2.0044 3.0516
-11.4343 -2.1195 3.0911
-11.3855 -2.2261 3.1184
-11.2123 -2.3067 3.1114
-11.0427 -2.3851 3.1046
-10.8764 -2.4614 3.0979
-10.7135 -2.5356 3.0914
-10.5536 -2.6078 3.0851
-10.3969 -2.6781 3.0789
-10.2430 -2.7466 3.0729
-10.0920 -2.8133 3.0671
-9.9437 -2.8782 3.0614
-9.7980 -2.9415 3.0558
-9.6557 -3.0034 3.0506
-9.5805 -3.0846 3.0663
-9.5693 -3.1863 3.1026
-9.5580 -3.2885 3.1393
-9.5372 -3.3878 3.1732
-9.3989 -3.4446 3.1680
-9.2628 -3.4999 3.1629
-9.1289 -3.5539 3.1579
-8.9871 -3.6027 3.1495
-8.8451 -3.6490 3.1404
-8.7056 -3.6940 3.1314
-8.5296 -3.7207 3.1085
-8.4294 -3.7783 3.1124
-8.2898 -3.8163 3.1013
-8.1528 -3.8533 3.0905
-8.0183 -3.8891 3.0798
-7.8784 -3.9200 3.0664
-7.7408 -3.9497 3.0530
-7.6042 -3.9776 3.0394
-7.4625 -4.0003 3.0228
-7.3249 -4.0227 3.0071
-7.2190 -4.0606 3.0037
-7.1145 -4.0977 3.0005
-7.0112 -4.1339 2.9973
-6.9091 -4.1693 2.9942
-6.8083 -4.2039 2.9911
-6.7087 -4.2378 2.9881
-6.6102 -4.2709 2.9852
-6.5128 -4.3033 2.9823
-6.4165 -4.3349 2.9795
-6.3212 -4.3659 2.9767
-6.2270 -4.3962 2.9740
-6.1338 -4.4259 2.9714
-6.0415 -4.4549 2.9688
-5.9502 -4.4833 2.9663
-5.8599 -4.5110 2.9638
-5.7704 -4.5382 2.9614
-5.6818 -4.5647 2.9590
-5.5940 -4.5907 2.9567
-5.5071 -4.6162 2.9544
-5.4210 -4.6410 2.9522
-5.3357 -4.6654 2.9500
-5.2512 -4.6892 2.9479
-5.1674 -4.7125 2.9458
-5.0843 -4.7352 2.9437
-5.0020 -4.7575 2.9417
-4.9140 -4.7732 2.9360
-4.8264 -4.7878 2.9299
-4.7398 -4.8020 2.9240
-4.6541 -4.8157 2.9182
-4.5693 -4.8290 2.9125
-4.4854 -4.8420 2.9068
-4.4024 -4.8545 2.9013
-4.3202 -4.8665 2.8958
-4.2375 -4.8767 2.8895
-4.1557 -4.8866 2.8833
-4.0748 -4.8961 2.8772
-3.9947 -4.9052 2.8712
-3.9154 -4.9140 2.8653
-3.8369 -4.9225 2.8595
-3.7591 -4.9307 2.8538
-3.6810 -4.9369 2.8473
-3.6035 -4.9429 2.8408
-3.5269 -4.9485 2.8345
-3.4510 -4.9539 2.8282
-3.3759 -4.9590 2.8221
-3.3015 -4.9638 2.8160
-3.2321 -4.9752 2.8139
-3.1658 -4.9902 2.8140
-3.0997 -5.0049 2.8142
-3.0339 -5.0193 2.8143
-2.9684 -5.0333 2.8145
-2.9032 -5.0471 2.8148
-2.8382 -5.0606 2.8150
-2.7735 -5.0737 2.8153
-2.7090 -5.0866 2.8155
-2.6448 -5.0992 2.8158
-2.5808 -5.1115 2.8161
-2.5171 -5.1235 2.8165
-2.4535 -5.1353 2.8168
-2.3902 -5.1467 2.8172
-2.3271 -5.1579 2.8176
-2.2642 -5.1689 2.8180
-2.2014 -5.1795 2.8184
-2.1389 -5.1899 2.8188
-2.0765 -5.2000 2.8193
-2.0143 -5.2099 2.8198
-1.9522 -5.2195 2.8203
-1.8903 -5.2289 2.8208
-1.8285 -5.2380 2.8213
-1.7669 -5.2468 2.8218
-1.7054 -5.2554 2.8224
-1.6441 -5.2638 2.8230
-1.5828 -5.2719 2.8236
-1.5217 -5.2798 2.8242
-1.4607 -5.2874 2.8248
-0.9084 -3.4360 1.8336
-0.8675 -3.4351 1.8311
-0.8269 -3.4343 1.8287
-0.7865 -3.4335 1.8264
-0.7463 -3.4326 1.8242
-0.7063 -3.4318 1.8221
-0.6664 -3.4310 1.8201
-0.6268 -3.4303 1.8182
-0.5873 -3.4295 1.8164
-0.5479 -3.4287 1.8147
-0.5087 -3.4280 1.8131
-0.4697 -3.4272 1.8116
-0.4307 -3.4265 1.8102
-0.3919 -3.4257 1.8089
-0.3532 -3.4250 1.8077
-0.3145 -3.4243 1.8066
-0.2760 -3.4236 1.8056
-0.2375 -3.4229 1.8046
-0.1991 -3.4222 1.8038
-0.1608 -3.4216 1.8030
-0.1225 -3.4209 1.8023
-0.0843 -3.4202 1.8018
-0.0461 -3.4196 1.8013
-0.0079 -3.4190 1.8009
0.0303 -3.4183 1.8006
0.0684 -3.4177 1.8004
0.1066 -3.4171 1.8002
0.1447 -3.4165 1.8002
0.1829 -3.4159 1.8002
0.2211 -3.4153 1.8004
0.2594 -3.4147 1.8006
-10.1502 -1.5323 3.1616
-10.0150 -1.6124 3.1556
-9.8820 -1.6906 3.1497
-9.7514 -1.7670 3.1440
-9.6313 -1.8431 3.1413
-9.6115 -1.9376 3.1712
-9.6010 -2.0341 3.2045
-9.5905 -2.1309 3.2382
-9.5522 -2.2215 3.2627
-9.4261 -2.2906 3.2571
-9.3018 -2.3581 3.2517
-9.1793 -2.4241 3.2464
-9.0544 -2.4874 3.2396
-8.9287 -2.5485 3.2321
-8.8050 -2.6081 3.2248
-8.6463 -2.6550 3.2040
-8.5582 -2.7215 3.2087
-8.4341 -2.7750 3.1996
-8.3120 -2.8272 3.1907
-8.1918 -2.8780 3.1820
-8.0726 -2.9273 3.1731
-7.9496 -2.9732 3.1621
-7.8286 -3.0179 3.1514
-7.7096 -3.0614 3.1409
-7.5879 -3.1018 3.1287
-7.4656 -3.1400 3.1156
-7.3454 -3.1771 3.1028
-7.2192 -3.2096 3.0868
-7.0953 -3.2408 3.0711
-6.9983 -3.2827 3.0665
-6.9044 -3.3246 3.0629
-6.8116 -3.3656 3.0593
-6.7198 -3.4057 3.0558
-6.6289 -3.4450 3.0524
-6.5390 -3.4835 3.0491
-6.4500 -3.5212 3.0458
-6.3619 -3.5581 3.0426
-6.2747 -3.5943 3.0394
-6.1883 -3.6297 3.0363
-6.1028 -3.6643 3.0333
-6.0181 -3.6983 3.0303
-5.9342 -3.7316 3.0274
-5.8511 -3.7642 3.0246
-5.7687 -3.7961 3.0218
-5.6871 -3.8274 3.0190
-5.6062 -3.8580 3.0163
-5.5260 -3.8880 3.0137
-5.4466 -3.9174 3.0111
-5.3677 -3.9462 3.0086
-5.2896 -3.9744 3.0061
-5.2121 -4.0020 3.0037
-5.1351 -4.0291 3.0013
-5.0589 -4.0556 2.9989
-4.9832 -4.0815 2.9966
-4.9081 -4.1070 2.9944
-4.8335 -4.1319 2.9922
-4.7596 -4.1563 2.9900
-4.6861 -4.1802 2.9879
-4.6132 -4.2036 2.9858
-4.5409 -4.2265 2.9838
-4.4646 -4.2448 2.9789
-4.3877 -4.2613 2.9731
-4.3116 -4.2774 2.9675
-4.2361 -4.2930 2.9619
-4.1614 -4.3082 2.9565
-4.0873 -4.3230 2.9511
-4.0139 -4.3374 2.9458
-3.9412 -4.3514 2.9405
-3.8682 -4.3640 2.9348
-3.7956 -4.3759 2.9289
-3.7237 -4.3875 2.9230
-3.6524 -4.3987 2.9173
-3.5817 -4.4095 2.9117
-3.5117 -4.4200 2.9061
-3.4422 -4.4301 2.9006
-3.3728 -4.4393 2.8948
-3.3035 -4.4474 2.8886
-3.2348 -4.4553 2.8826
-3.1668 -4.4628 2.8766
-3.0992 -4.4700 2.8707
-3.0323 -4.4769 2.8648
-2.9658 -4.4835 2.8591
-2.9055 -4.4983 2.8589
-2.8455 -4.5132 2.8589
-2.7858 -4.5278 2.8589
-2.7263 -4.5421 2.8590
-2.6671 -4.5560 2.8591
-2.6080 -4.5697 2.8592
-2.5491 -4.5830 2.8593
-2.4904 -4.5961 2.8595
-2.4319 -4.6088 2.8596
-2.3735 -4.6213 2.8598
-2.3154 -4.6334 2.8600
-2.2573 -4.6453 2.8602
-2.1995 -4.6569 2.8605
-2.1418 -4.6682 2.8608
-2.0842 -4.6793 2.8610
-2.0268 -4.6900 2.8613
-1.9695 -4.7005 2.8617
-1.9124 -4.7107 2.8620
-1.8554 -4.7207 2.8624
-1.7985 -4.7303 2.8627
-1.7417 -4.7398 2.8631
-1.6850 -4.7489 2.8636
-1.6284 -4.7578 2.8640
-1.5719 -4.7664 2.8645
-1.5156 -4.7748 2.8649
-1.4593 -4.7829 2.8654
-1.4031 -4.7908 2.8659
-1.3469 -4.7984 2.8665
-0.9281 -3.4551 2.0612
-0.8863 -3.4541 2.0580
-0.8447 -3.4532 2.0550
-0.8034 -3.4523 2.0521
-0.7623 -3.4514 2.0493
-0.7214 -3.4506 2.0466
-0.6807 -3.4497 2.0441
-0.6401 -3.4489 2.0417
-0.5998 -3.4480 2.0394
-0.5596 -3.4472 2.0373
-0.5195 -3.4464 2.0353
-0.4796 -3.4456 2.0334
-0.4398 -3.4448 2.0316
-0.4002 -3.4441 2.0300
-0.3606 -3.4433 2.0284
-0.3212 -3.4426 2.0270
-0.2818 -3.4418 2.0257
-0.2425 -3.4411 2.0246
-0.2033 -3.4404 2.0235
-0.1642 -3.4397 2.0226
-0.1251 -3.4390 2.0218
-0.0861 -3.4383 2.0211
-0.0470 -3.4377 2.0205
-0.0081 -3.4370 2.0200
0.0309 -3.4364 2.0197
0.0698 -3.4357 2.0194
0.1088 -3.4351 2.0193
0.1478 -3.4345 2.0193
0.1868 -3.4338 2.0194
0.2258 -3.4332 2.0197
0.2648 -3.4327 2.0200
-9.2291 -1.2590 3.3296
-9.1189 -1.3351 3.3237
-9.0083 -1.4094 3.3174
-8.8992 -1.4821 3.3112
-8.7901 -1.5530 3.3047
-8.6453 -1.6154 3.2841
-8.5693 -1.6888 3.2893
-8.4610 -1.7544 3.2819
-8.3542 -1.8186 3.2746
-8.2487 -1.8814 3.2674
-8.1431 -1.9424 3.2598
-8.0352 -2.0012 3.2508
-7.9287 -2.0586 3.2420
-7.8237 -2.1146 3.2334
-7.7201 -2.1694 3.2250
-7.6129 -2.2215 3.2146
-7.5066 -2.2721 3.2041
-7.4018 -2.3215 3.1938
-7.2948 -2.3685 3.1821
-7.1866 -2.4133 3.1694
-7.0800 -2.4569 3.1569
-6.9677 -2.4968 3.1414
-6.8591 -2.5362 3.1269
-6.7743 -2.5828 3.1229
-6.6903 -2.6286 3.1190
-6.6072 -2.6734 3.1151
-6.5248 -2.7174 3.1113
-6.4432 -2.7605 3.1076
-6.3623 -2.8027 3.1040
-6.2822 -2.8442 3.1004
-6.2028 -2.8848 3.0969
-6.1241 -2.9246 3.0935
-6.0460 -2.9637 3.0902
-5.9687 -3.0020 3.0868
-5.8919 -3.0396 3.0836
-5.8158 -3.0764 3.0804
-5.7404 -3.1125 3.0773
-5.6655 -3.1480 3.0742
-5.5913 -3.1827 3.0712
-5.5176 -3.2168 3.0683
-5.4445 -3.2502 3.0654
-5.3720 -3.2830 3.0625
-5.3000 -3.3151 3.0598
-5.2285 -3.3467 3.0570
-5.1576 -3.3776 3.0543
-5.0872 -3.4079 3.0517
-5.0173 -3.4377 3.0491
-4.9478 -3.4668 3.0466
-4.8789 -3.4955 3.0441
-4.8104 -3.5235 3.0416
-4.7424 -3.5510 3.0392
-4.6748 -3.5780 3.0369
-4.6077 -3.6044 3.0346
-4.5410 -3.6304 3.0323
-4.4747 -3.6558 3.0301
-4.4088 -3.6807 3.0279
-4.3434 -3.7051 3.0257
-4.2783 -3.7291 3.0236
-4.2136 -3.7526 3.0215
-4.1493 -3.7756 3.0195
-4.0825 -3.7954 3.0154
-4.0142 -3.8130 3.0099
-3.9467 -3.8303 3.0045
-3.8796 -3.8470 2.9992
-3.8130 -3.8634 2.9940
-3.7469 -3.8793 2.9889
-3.6814 -3.8948 2.9838
-3.6163 -3.9099 2.9788
-3.5514 -3.9242 2.9736
-3.4864 -3.9375 2.9680
-3.4219 -3.9504 2.9624
-3.3579 -3.9629 2.9570
-3.2944 -3.9750 2.9516
-3.2313 -3.9868 2.9463
-3.1688 -3.9983 2.9410
-3.1066 -4.0094 2.9358
-3.0441 -4.0191 2.9300
-2.9821 -4.0284 2.9242
-2.9205 -4.0374 2.9185
-2.8594 -4.0460 2.9128
-2.7987 -4.0544 2.9072
-2.7384 -4.0624 2.9018
-2.6799 -4.0722 2.8978
-2.6252 -4.0870 2.8977
-2.5707 -4.1016 2.8976
-2.5163 -4.1158 2.8976
-2.4621 -4.1297 2.8976
-2.4081 -4.1434 2.8976
-2.3541 -4.1567 2.8976
-2.3004 -4.1697 2.8976
-2.2467 -4.1824 2.8977
-2.1932 -4.1949 2.8978
-2.1398 -4.2070 2.8979
-2.0866 -4.2188 2.8980
-2.0334 -4.2304 2.8982
-1.9804 -4.2417 2.8984
-1.9274 -4.2527 2.8986
-1.8746 -4.2634 2.8988
-1.8219 -4.2738 2.8990
-1.7693 -4.2840 2.8993
-1.7167 -4.2939 2.8995
-1.6643 -4.3035 2.8998
-1.6119 -4.3129 2.9001
-1.5597 -4.3220 2.9005
-1.5075 -4.3308 2.9008
-1.4554 -4.3393 2.9012
-1.4033 -4.3476 2.9016
-1.3513 -4.3557 2.9020
-1.2994 -4.3634 2.9024
-1.2475 -4.3710 2.9029
-1.0308 -3.7744 2.5029
-0.9064 -3.4744 2.3007
-0.8638 -3.4735 2.2969
-0.8215 -3.4725 2.2933
-0.7794 -3.4715 2.2899
-0.7375 -3.4706 2.2866
-0.6959 -3.4697 2.2835
-0.6544 -3.4688 2.2805
-0.6131 -3.4679 2.2777
-0.5720 -3.4670 2.2751
-0.5310 -3.4661 2.2726
-0.4902 -3.4653 2.2702
-0.4495 -3.4645 2.2681
-0.4090 -3.4637 2.2660
-0.3686 -3.4629 2.2642
-0.3282 -3.4621 2.2625
-0.2880 -3.4613 2.2609
-0.2479 -3.4605 2.2595
-0.2078 -3.4598 2.2582
-0.1678 -3.4591 2.2571
-0.1278 -3.4584 2.2561
-0.0879 -3.4576 2.2553
-0.0481 -3.4570 2.2546
-0.0082 -3.4563 2.2540
0.0316 -3.4556 2.2536
0.0714 -3.4550 2.2534
0.1112 -3.4543 2.2533
0.1510 -3.4537 2.2533
0.1909 -3.4531 2.2535
0.2307 -3.4525 2.2538
0.2706 -3.4519 2.2543
-8.0987 -0.9836 3.3323
-8.0061 -1.0522 3.3249
-7.9146 -1.1193 3.3177
-7.8239 -1.1851 3.3107
-7.7341 -1.2495 3.3037
-7.6409 -1.3119 3.2950
-7.5488 -1.3729 3.2864
-7.4577 -1.4327 3.2780
-7.3677 -1.4912 3.2697
-7.2742 -1.5475 3.2596
-7.1813 -1.6024 3.2494
-7.0896 -1.6561 3.2394
-6.9945 -1.7075 3.2276
-6.8995 -1.7574 3.2153
-6.8032 -1.8054 3.2021
-6.7043 -1.8512 3.1872
-6.6183 -1.8990 3.1782
-6.5430 -1.9486 3.1739
-6.4684 -1.9974 3.1698
-6.3943 -2.0452 3.1657
-6.3208 -2.0922 3.1617
-6.2479 -2.1383 3.1578
-6.1756 -2.1835 3.1539
-6.1038 -2.2279 3.1501
-6.0326 -2.2715 3.1464
-5.9618 -2.3143 3.1428
-5.8917 -2.3564 3.1392
-5.8220 -2.3976 3.1357
-5.7528 -2.4381 3.1322
-5.6842 -2.4779 3.1288
-5.6159 -2.5170 3.1255
-5.5482 -2.5553 3.1222
-5.4810 -2.5930 3.1189
-5.4142 -2.6299 3.1158
-5.3478 -2.6662 3.1127
-5.2819 -2.7019 3.1096
-5.2164 -2.7369 3.1066
-5.1513 -2.7712 3.1036
-5.0866 -2.8049 3.1007
-5.0224 -2.8381 3.0979
-4.9585 -2.8706 3.0951
-4.8951 -2.9025 3.0923
-4.8320 -2.9338 3.0896
-4.7693 -2.9646 3.0870
-4.7069 -2.9948 3.0844
-4.6450 -3.0245 3.0818
-4.5833 -3.0536 3.0793
-4.5220 -3.0822 3.0768
-4.4611 -3.1103 3.0744
-4.4005 -3.1378 3.0720
-4.3402 -3.1648 3.0697
-4.2802 -3.1913 3.0674
-4.2206 -3.2174 3.0651
-4.1613 -3.2429 3.0629
-4.1022 -3.2680 3.0607
-4.0435 -3.2926 3.0586
-3.9851 -3.3167 3.0565
-3.9269 -3.3404 3.0544
-3.8690 -3.3637 3.0524
-3.8114 -3.3864 3.0504
-3.7522 -3.4071 3.0469
-3.6913 -3.4253 3.0417
-3.6306 -3.4431 3.0366
-3.5705 -3.4605 3.0316
-3.5107 -3.4775 3.0266
-3.4514 -3.4940 3.0217
-3.3924 -3.5102 3.0169
-3.3338 -3.5259 3.0121
-3.2756 -3.5413 3.0074
-3.2169 -3.5554 3.0021
-3.1587 -3.5691 2.9968
-3.1008 -3.5825 2.9916
-3.0433 -3.5954 2.9864
-2.9862 -3.6081 2.9814
-2.9294 -3.6204 2.9764
-2.8730 -3.6323 2.9714
-2.8167 -3.6435 2.9662
-2.7603 -3.6538 2.9607
-2.7043 -3.6638 2.9552
-2.6486 -3.6735 2.9498
-2.5933 -3.6828 2.9445
-2.5383 -3.6919 2.9393
-2.4836 -3.7006 2.9341
-2.4317 -3.7125 2.9318
-2.3816 -3.7269 2.9316
-2.3317 -3.7410 2.9315
-2.2818 -3.7547 2.9314
-2.2321 -3.7682 2.9313
-2.1825 -3.7813 2.9313
-2.1330 -3.7942 2.9313
-2.0836 -3.8068 2.9313
-2.0343 -3.8191 2.9313
-1.9851 -3.8310 2.9313
-1.9360 -3.8427 2.9314
-1.8869 -3.8542 2.9314
-1.8379 -3.8653 2.9316
-1.7891 -3.8761 2.9317
-1.7403 -3.8867 2.9318
-1.6915 -3.8970 2.9320
-1.6429 -3.9071 2.9322
-1.5943 -3.9168 2.9324
-1.5457 -3.9263 2.9326
-1.4973 -3.9355 2.9328
-1.4489 -3.9445 2.9331
-1.4005 -3.9531 2.9334
-1.3522 -3.9616 2.9337
-1.3040 -3.9697 2.9340
-1.2558 -3.9776 2.9344
-1.2076 -3.9852 2.9347
-1.1595 -3.9926 2.9351
-1.1114 -3.9997 2.9355
-0.9280 -3.4963 2.5620
-0.8843 -3.4952 2.5574
-0.8410 -3.4942 2.5530
-0.7978 -3.4931 2.5488
-0.7549 -3.4921 2.5448
-0.7123 -3.4911 2.5410
-0.6698 -3.4902 2.5374
-0.6275 -3.4892 2.5340
-0.5854 -3.4883 2.5308
-0.5434 -3.4874 2.5278
-0.5016 -3.4865 2.5250
-0.4600 -3.4856 2.5224
-0.4185 -3.4847 2.5199
-0.3771 -3.4839 2.5177
-0.2126 -3.4807 2.5105
-0.1717 -3.4799 2.5092
-0.3358 -3.4830 2.5156
-0.1308 -3.4791 2.5080
-0.2947 -3.4822 2.5137
-0.0900 -3.4784 2.5070
-0.2536 -3.4814 2.5120
-0.0492 -3.4777 2.5062
-0.0084 -3.4770 2.5056
0.0323 -3.4763 2.5052
0.0730 -3.4756 2.5049
0.1138 -3.4750 2.5048
0.1545 -3.4743 2.5049
0.1953 -3.4737 2.5052
0.2361 -3.4731 2.5056
0.2769 -3.4725 2.5062
-7.1678 -0.7598 3.3246
-7.0896 -0.8219 3.3164
-7.0107 -0.8826 3.3078
-6.9296 -0.9417 3.2979
-6.8493 -0.9996 3.2881
-6.7678 -1.0560 3.2775
-6.6841 -1.1107 3.2657
-6.6005 -1.1640 3.2535
-6.5130 -1.2153 3.2392
-6.4348 -1.2669 3.2291
-6.3680 -1.3196 3.2247
-6.3017 -1.3715 3.2203
-6.2358 -1.4224 3.2160
-6.1703 -1.4725 3.2118
-6.1053 -1.5217 3.2076
-6.0407 -1.5700 3.2035
-5.9764 -1.6175 3.1995
-5.9126 -1.6642 3.1955
-5.8491 -1.7101 3.1917
-5.7861 -1.7553 3.1878
-5.7234 -1.7996 3.1841
-5.6611 -1.8432 3.1804
-5.5991 -1.8860 3.1767
-5.5375 -1.9282 3.1732
-5.4763 -1.9696 3.1697
-5.4153 -2.0103 3.1662
-5.3548 -2.0502 3.1628
-5.2946 -2.0896 3.1594
-5.2347 -2.1282 3.1562
-5.1751 -2.1662 3.1529
-5.1159 -2.2035 3.1497
-5.0569 -2.2402 3.1466
-4.9983 -2.2763 3.1435
-4.9400 -2.3117 3.1405
-4.8820 -2.3466 3.1375
-4.8242 -2.3809 3.1346
-4.7668 -2.4145 3.1317
-4.7096 -2.4476 3.1289
-4.6528 -2.4801 3.1261
-4.5962 -2.5121 3.1234
-4.5399 -2.5435 3.1207
-4.4838 -2.5744 3.1181
-4.4280 -2.6047 3.1154
-4.3725 -2.6345 3.1129
-4.3172 -2.6638 3.1104
-4.2621 -2.6926 3.1079
-4.2074 -2.7208 3.1055
-4.1528 -2.7486 3.1031
-4.0985 -2.7759 3.1007
-4.0444 -2.8027 3.0984
-3.9906 -2.8291 3.0961
-3.9369 -2.8549 3.0939
-3.8835 -2.8803 3.0917
-3.8304 -2.9053 3.0896
-3.7774 -2.9298 3.0874
-3.7246 -2.9538 3.0853
-3.6721 -2.9775 3.0833
-3.6197 -3.0007 3.0813
-3.5676 -3.0234 3.0793
-3.5156 -3.0458 3.0774
-3.4628 -3.0668 3.0745
-3.4079 -3.0853 3.0696
-3.3533 -3.1033 3.0648
-3.2989 -3.1209 3.0600
-3.2450 -3.1382 3.0553
-3.1913 -3.1550 3.0506
-3.1379 -3.1715 3.0460
-3.0848 -3.1875 3.0415
-3.0320 -3.2032 3.0370
-2.9790 -3.2180 3.0322
-2.9261 -3.2322 3.0271
-2.8735 -3.2461 3.0222
-2.8212 -3.2596 3.0173
-2.7692 -3.2727 3.0124
-2.7174 -3.2855 3.0077
-2.6660 -3.2979 3.0030
-2.6148 -3.3100 2.9983
-2.5633 -3.3211 2.9931
-2.5121 -3.3318 2.9879
-2.4612 -3.3422 2.9828
-2.4105 -3.3522 2.9777
-2.3601 -3.3619 2.9727
-2.3100 -3.3713 2.9677
-2.2601 -3.3804 2.9629
-2.2134 -3.3936 2.9619
-2.1673 -3.4074 2.9617
-2.1213 -3.4209 2.9615
-2.0755 -3.4341 2.9614
-2.0296 -3.4470 2.9613
-1.9839 -3.4596 2.9612
-1.9382 -3.4719 2.9612
-1.8926 -3.4840 2.9611
-1.8471 -3.4957 2.9611
-1.8016 -3.5072 2.9611
-1.7562 -3.5184 2.9611
-1.7108 -3.5293 2.9612
-1.6655 -3.5400 2.9612
-1.6203 -3.5503 2.9613
-1.5751 -3.5604 2.9614
-1.5299 -3.5703 2.9616
-1.4848 -3.5798 2.9617
-1.4397 -3.5891 2.9619
-1.3947 -3.5981 2.9621
-1.3498 -3.6069 2.9623
-1.3049 -3.6154 2.9625
-1.2600 -3.6236 2.9628
-1.2151 -3.6316 2.9630
-1.1703 -3.6393 2.9633
-1.1255 -3.6467 2.9636
-1.0807 -3.6539 2.9640
-1.0360 -3.6609 2.9643
-0.9913 -3.6676 2.9647
-0.9465 -3.6740 2.9651
-0.9019 -3.6802 2.9655
-0.8572 -3.6861 2.9659
-0.8126 -3.6918 2.9664
-0.7680 -3.6972 2.9669
-0.7233 -3.7023 2.9674
-0.6787 -3.7073 2.9679
-0.6341 -3.7119 2.9684
-0.5895 -3.7163 2.9690
-0.5449 -3.7205 2.9695
-0.5003 -3.7244 2.9701
-0.4557 -3.7281 2.9707
-0.4111 -3.7315 2.9714
-0.3665 -3.7347 2.9720
-0.3219 -3.7377 2.9727
-0.2773 -3.7404 2.9734
-0.2327 -3.7428 2.9741
-0.1880 -3.7450 2.9748
-0.1434 -3.7470 2.9756
-0.0987 -3.7487 2.9764
-0.0540 -3.7501 2.9772
-0.0093 -3.7513 2.9780
0.0355 -3.7523 2.9788
0.0803 -3.7530 2.9797
0.1251 -3.7535 2.9805
0.1699 -3.7537 2.9814
0.2148 -3.7537 2.9823
0.2597 -3.7535 2.9833
0.3046 -3.7530 2.9842
-6.3599 -0.5721 3.2957
-6.2837 -0.6274 3.2820
-6.2228 -0.6830 3.2761
-6.1645 -0.7380 3.2715
-6.1064 -0.7922 3.2670
-6.0486 -0.8454 3.2625
-5.9910 -0.8978 3.2581
-5.9338 -0.9494 3.2538
-5.8767 -1.0001 3.2495
-5.8200 -1.0500 3.2453
-5.7635 -1.0991 3.2412
-5.7072 -1.1475 3.2371
-5.6512 -1.1950 3.2331
-5.5955 -1.2418 3.2291
-5.5400 -1.2879 3.2253
-5.4847 -1.3332 3.2214
-5.4297 -1.3778 3.2177
-5.3749 -1.4217 3.2140
-5.3203 -1.4648 3.2103
-5.2660 -1.5073 3.2067
-5.2119 -1.5491 3.2032
-5.1580 -1.5903 3.1997
-5.1043 -1.6308 3.1963
-5.0509 -1.6706 3.1929
-4.9977 -1.7098 3.1896
-4.9447 -1.7484 3.1864
-4.8919 -1.7863 3.1831
-4.8393 -1.8237 3.1800
-4.7870 -1.8604 3.1769
-4.7348 -1.8966 3.1738
-4.6829 -1.9321 3.1708
-4.6311 -1.9671 3.1678
-4.5796 -2.0016 3.1649
-4.5282 -2.0354 3.1620
-4.4770 -2.0688 3.1592
-4.4260 -2.1015 3.1564
-4.3752 -2.1338 3.1536
-4.3246 -2.1655 3.1509
-4.2742 -2.1967 3.1483
-4.2240 -2.2274 3.1456
-4.1739 -2.2576 3.1431
-4.1240 -2.2873 3.1405
-4.0743 -2.3165 3.1380
-4.0248 -2.3452 3.1356
-3.9754 -2.3735 3.1332
-3.9262 -2.4013 3.1308
-3.8771 -2.4286 3.1284
-3.8282 -2.4554 3.1261
-3.7795 -2.4818 3.1239
-3.7309 -2.5077 3.1217
-3.6825 -2.5333 3.1195
-3.6343 -2.5583 3.1173
-3.5862 -2.5830 3.1152
-3.5382 -2.6072 3.1131
-3.4904 -2.6310 3.1110
-3.4427 -2.6543 3.1090
-3.3952 -2.6773 3.1070
-3.3478 -2.6999 3.1051
-3.3005 -2.7220 3.1032
-3.2534 -2.7438 3.1013
-3.2061 -2.7649 3.0991
-3.1563 -2.7833 3.0944
-3.1068 -2.8013 3.0898
-3.0575 -2.8190 3.0853
-3.0085 -2.8362 3.0808
-2.9597 -2.8531 3.0764
-2.9111 -2.8696 3.0720
-2.8147 -2.9015 3.0634
-2.8628 -2.8858 3.0677
-2.7666 -2.9168 3.0590
-2.6224 -2.9590 3.0449
-2.7183 -2.9312 3.0543
-2.5748 -2.9724 3.0403
-2.5275 -2.9855 3.0357
-2.6703 -2.9453 3.0495
-2.4803 -2.9982 3.0312
-2.4334 -3.0106 3.0268
-2.2461 -3.0548 3.0075
-2.3865 -3.0225 3.0223
-2.1997 -3.0650 3.0028
-2.3395 -3.0336 3.0173
-2.1536 -3.0748 2.9980
-2.2927 -3.0444 3.0124
-2.0621 -3.0939 2.9891
-2.1076 -3.0844 2.9934
-2.0195 -3.1074 2.9888
-1.8920 -3.1460 2.9883
-1.9770 -3.1205 2.9886
-1.8496 -3.1583 2.9882
-1.9344 -3.1334 2.9885
-1.5541 -3.2368 2.9879
-1.8073 -3.1704 2.9881
-1.7227 -3.1936 2.9879
-1.5120 -3.2469 2.9879
-1.7650 -3.1821 2.9880
-1.4700 -3.2567 2.9880
-1.6805 -3.2048 2.9879
-1.4280 -3.2663 2.9881
-1.3860 -3.2756 2.9882
-1.6383 -3.2157 2.9879
-1.2184 -3.3103 2.9888
-1.3441 -3.2847 2.9883
-1.5962 -3.2264 2.9879
-1.1766 -3.3183 2.9890
-1.1348 -3.3260 2.9893
-1.3022 -3.2935 2.9885
-1.0512 -3.3408 2.9898
-1.0930 -3.3335 2.9895
-1.2603 -3.3020 2.9886
-1.0095 -3.3478 2.9901
-0.8843 -3.3672 2.9910
-0.9677 -3.3545 2.9904
-0.8426 -3.3732 2.9914
-0.7176 -3.3897 2.9926
-0.8009 -3.3790 2.9918
-0.9260 -3.3610 2.9907
-0.6759 -3.3947 2.9931
-0.7592 -3.3844 2.9922
-0.5509 -3.4081 2.9945
-0.6342 -3.3994 2.9936
-0.3842 -3.4227 2.9968
-0.5093 -3.4121 2.9951
-0.3426 -3.4257 2.9974
-0.5926 -3.4039 2.9940
-0.3009 -3.4285 2.9980
-0.4676 -3.4159 2.9956
-0.2174 -3.4333 2.9993
-0.2592 -3.4310 2.9986
-0.4259 -3.4194 2.9962
-0.1757 -3.4353 3.0000
-0.0504 -3.4400 3.0022
0.1169 -3.4428 3.0054
-0.0086 -3.4411 3.0029
-0.1340 -3.4371 3.0007
0.1588 -3.4429 3.0062
0.0332 -3.4419 3.0037
-0.0922 -3.4387 3.0014
0.0750 -3.4424 3.0045
0.2007 -3.4427 3.0071
0.2426 -3.4423 3.0080
0.2846 -3.4417 3.0089
-5.7333 -0.4197 3.2964
-5.6837 -0.4720 3.2920
-5.6344 -0.5236 3.2877
-5.5851 -0.5744 3.2834
-5.5360 -0.6245 3.2792
-5.4870 -0.6738 3.2751
-5.4381 -0.7224 3.2710
-5.3894 -0.7703 3.2670
-5.3408 -0.8174 3.2631
-5.2923 -0.8639 3.2592
-5.2439 -0.9096 3.2553
-5.1957 -0.9547 3.2515
-5.1476 -0.9991 3.2478
-5.0996 -1.0429 3.2441
-4.9564 -1.1703 3.2334
-5.0517 -1.0860 3.2405
-4.9089 -1.2115 3.2300
-5.0040 -1.1284 3.2369
-4.8615 -1.2520 3.2265
-4.7672 -1.3314 3.2199
-4.7202 -1.3702 3.2166
-4.6733 -1.4084 3.2134
-4.6266 -1.4460 3.2102
-4.5800 -1.4831 3.2071
-4.5335 -1.5196 3.2040
-4.4871 -1.5555 3.2009
-4.4408 -1.5909 3.1980
-4.3947 -1.6258 3.1950
-4.3487 -1.6601 3.1921
-4.3028 -1.6939 3.1892
-4.2570 -1.7272 3.1864
-4.2113 -1.7600 3.1836
-4.1657 -1.7922 3.1809
-4.1203 -1.8240 3.1782
-4.0750 -1.8553 3.1756
-4.0297 -1.8861 3.1729
-3.9846 -1.9164 3.1704
-3.9396 -1.9463 3.1678
-3.6719 -2.1158 3.1534
-3.8500 -2.0046 3.1629
-3.8948 -1.9757 3.1653
-3.6277 -2.1425 3.1511
-4.8143 -1.2920 3.2232
-3.8053 -2.0330 3.1604
-3.4956 -2.2200 3.1445
-3.5835 -2.1687 3.1489
-3.3207 -2.3176 3.1361
-3.5395 -2.1946 3.1467
-3.7607 -2.0611 3.1581
-3.4517 -2.2450 3.1424
-3.1475 -2.4088 3.1283
-3.2773 -2.3410 3.1341
-3.4079 -2.2696 3.1402
-3.7163 -2.0886 3.1557
-3.1044 -2.4307 3.1264
-3.2339 -2.3640 3.1321
-3.0614 -2.4521 3.1246
-3.3643 -2.2938 3.1382
-2.9757 -2.4940 3.1209
-3.0185 -2.4732 3.1227
-3.1907 -2.3866 3.1302
-2.7959 -2.5647 3.1037
-2.9305 -2.5123 3.1166
-2.6187 -2.6296 3.0872
-2.4428 -2.6874 3.0698
-2.5749 -2.6449 3.0832
-2.7513 -2.5815 3.0995
-2.8855 -2.5301 3.1123
-2.5307 -2.6595 3.0788
-2.3991 -2.7009 3.0654
-2.7070 -2.5979 3.0954
-2.8406 -2.5476 3.1080
-2.4867 -2.6736 3.0743
-2.3556 -2.7141 3.0611
-2.0968 -2.7849 3.0346
-2.6628 -2.6139 3.0913
-2.2691 -2.7394 3.0526
-2.0541 -2.7953 3.0301
-2.3123 -2.7269 3.0568
-2.2261 -2.7516 3.0484
-1.9267 -2.8247 3.0167
-2.0114 -2.8054 3.0256
-1.7670 -2.8726 3.0129
-2.1829 -2.7631 3.0439
-1.9690 -2.8152 3.0211
-1.8853 -2.8350 3.0135
-1.7276 -2.8845 3.0127
-1.6096 -2.9188 3.0124
-2.1398 -2.7741 3.0393
-1.8458 -2.8478 3.0133
-1.5703 -2.9297 3.0123
-1.6882 -2.8962 3.0126
-1.4526 -2.9607 3.0122
-1.8064 -2.8603 3.0131
-1.5311 -2.9403 3.0122
-1.6489 -2.9076 3.0125
-1.4134 -2.9706 3.0122
-1.4918 -2.9507 3.0122
-1.2960 -2.9985 3.0123
-1.1397 -3.0321 3.0128
-1.3743 -2.9802 3.0122
-0.9835 -3.0617 3.0136
-1.2569 -3.0073 3.0124
-1.1006 -3.0399 3.0130
-0.9445 -3.0685 3.0139
-1.3351 -2.9895 3.0123
-1.2178 -3.0158 3.0125
-0.9055 -3.0750 3.0141
-1.0616 -3.0474 3.0132
-0.8275 -3.0873 3.0147
-0.8665 -3.0813 3.0144
-1.1787 -3.0241 3.0127
-1.0225 -3.0547 3.0134
-0.6716 -3.1090 3.0162
-0.7885 -3.0931 3.0151
-0.5157 -3.1267 3.0179
-0.3597 -3.1406 3.0200
-0.6326 -3.1138 3.0166
-0.7496 -3.0987 3.0154
-0.4767 -3.1306 3.0184
-0.3207 -3.1435 3.0205
-0.5936 -3.1184 3.0170
-0.7106 -3.1040 3.0158
-0.5547 -3.1227 3.0174
-0.4377 -3.1342 3.0189
-0.2816 -3.1461 3.0211
-0.2036 -3.1506 3.0223
-0.0472 -3.1568 3.0250
-0.2426 -3.1485 3.0217
-0.3987 -3.1375 3.0194
-0.0081 -3.1577 3.0258
-0.1645 -3.1525 3.0230
0.0311 -3.1584 3.0265
0.1094 -3.1591 3.0280
-0.1254 -3.1542 3.0236
0.0702 -3.1589 3.0273
0.1486 -3.1591 3.0288
-0.0863 -3.1556 3.0243
0.1878 -3.1588 3.0297
0.2271 -3.1583 3.0305
0.2664 -3.1575 3.0314
-5.2098 -0.2898 3.3057
-5.1678 -0.3381 3.3016
-5.1258 -0.3858 3.2976
