ply
format ascii 1.0
element vertex 2038
property float32 x
property float32 y
property float32 z
end_header
-11.2990 -7.0340 -0.3344
-11.3257 -6.0359 -0.5442
-11.3145 -6.4546 -0.4548
-11.2796 -7.6387 -0.2122
-11.2951 -7.1830 -0.3041
-11.2756 -7.7952 -0.1813
-11.3107 -6.5970 -0.4249
-11.2876 -7.3315 -0.2735
-11.2714 -7.9538 -0.1503
-11.3069 -6.7411 -0.3948
-11.2673 -8.1145 -0.1191
-11.2836 -7.4842 -0.2429
-11.2588 -8.4424 -0.0561
-11.2631 -8.2773 -0.0877
-11.2365 -9.3048 0.1049
-11.2545 -8.6099 -0.0244
-11.2123 -10.2373 0.2722
-11.2318 -9.4853 0.1378
-11.2038 -10.4302 0.3065
-11.2501 -8.7798 0.0076
-11.1991 -10.6301 0.3412
-11.2270 -9.6687 0.1709
-11.2456 -8.9522 0.0398
-11.1943 -10.8336 0.3762
-11.2411 -9.1272 0.0722
-11.2222 -9.8551 0.2044
-11.1895 -11.0410 0.4117
-11.1582 -12.3730 0.6331
-11.1845 -11.2522 0.4475
-11.2173 -10.0446 0.2381
-11.1526 -12.6113 0.6717
-11.1794 -11.4676 0.4837
-11.1469 -12.8547 0.7108
-11.1302 -13.6200 0.8317
-11.1743 -11.6871 0.5204
-11.1410 -13.1036 0.7505
-11.1238 -13.8862 0.8733
-11.1690 -11.9111 0.5575
-11.1366 -13.3599 0.7909
-11.0962 -15.0178 1.0465
-11.1637 -12.1397 0.5951
-11.1171 -14.1588 0.9155
-11.0889 -15.3189 1.0917
-11.1103 -14.4381 0.9584
-11.0538 -16.6016 1.2814
-11.0814 -15.6280 1.1378
-11.0737 -15.9455 1.1849
-11.1034 -14.7243 1.0020
-10.9295 -16.7687 1.3174
-11.0629 -16.2675 1.2325
-10.6341 -16.6705 1.3321
-9.7930 -16.3972 1.3728
-8.8405 -16.6049 1.4844
-10.3465 -16.5759 1.3462
-9.5265 -16.3127 1.3853
-10.0662 -16.4849 1.3597
-8.5952 -16.5346 1.4953
-9.2670 -16.2327 1.3974
-8.3056 -16.3693 1.4970
-7.6624 -16.2773 1.5351
-9.2095 -16.5067 1.4397
-8.1196 -16.4012 1.5160
-7.4402 -16.2186 1.5441
-7.8888 -16.3381 1.5257
-9.0911 -16.6780 1.4731
-7.2221 -16.1620 1.5528
-6.5898 -16.0041 1.5770
-7.0077 -16.1074 1.5612
-6.3860 -15.9552 1.5844
-6.7970 -16.0548 1.5692
-6.1853 -15.9079 1.5916
-5.5996 -15.7725 1.6109
-5.9871 -15.8610 1.5983
-5.7919 -15.8159 1.6047
-5.4099 -15.7307 1.6169
-5.2229 -15.6905 1.6226
-5.0382 -15.6518 1.6280
-4.8277 -15.5237 1.6238
-4.6760 -15.5789 1.6383
-4.4981 -15.5447 1.6431
-4.3223 -15.5118 1.6476
-4.1483 -15.4803 1.6520
-12.1274 4.2088 -2.9966
-11.9965 4.0313 -2.9183
-11.9206 3.8756 -2.8548
-11.8461 3.7229 -2.7927
-11.7731 3.5732 -2.7319
-11.7122 3.4294 -2.6749
-11.6907 3.2989 -2.6277
-11.6695 3.1697 -2.5811
-11.6485 3.0417 -2.5351
-11.6276 2.9150 -2.4898
-11.6089 2.7899 -2.4454
-11.6024 2.6686 -2.4041
-11.5960 2.5481 -2.3632
-11.5897 2.4284 -2.3227
-11.5833 2.3093 -2.2826
-11.5759 2.1908 -2.2427
-11.5635 2.0720 -2.2022
-11.5513 1.9539 -2.1622
-11.5390 1.8366 -2.1225
-11.5269 1.7199 -2.0833
-11.5172 1.6043 -2.0448
-11.5144 1.4901 -2.0079
-11.5117 1.3763 -1.9713
-11.5090 1.2629 -1.9350
-11.5063 1.1498 -1.8989
-11.5036 1.0371 -1.8631
-11.5009 0.9247 -1.8276
-11.4983 0.8126 -1.7923
-11.4956 0.7007 -1.7573
-11.4929 0.5891 -1.7225
-11.4903 0.4777 -1.6879
-11.4876 0.3665 -1.6535
-11.4850 0.2555 -1.6194
-11.4823 0.1445 -1.5854
-11.4797 0.0338 -1.5516
-11.4770 -0.0769 -1.5181
-11.4744 -0.1875 -1.4847
-11.4718 -0.2981 -1.4514
-11.4691 -0.4086 -1.4184
-11.4665 -0.5191 -1.3855
-11.4639 -0.6296 -1.3527
-11.4612 -0.7401 -1.3201
-11.4586 -0.8507 -1.2876
-11.4559 -0.9614 -1.2553
-11.4533 -1.0722 -1.2231
-11.4507 -1.1831 -1.1910
-11.4448 -1.2939 -1.1587
-11.4421 -1.4051 -1.1268
-11.4394 -1.5164 -1.0951
-11.4366 -1.6280 -1.0634
-11.4339 -1.7398 -1.0318
-11.4311 -1.8519 -1.0003
-11.4283 -1.9643 -0.9689
-11.4256 -2.0770 -0.9375
-11.4228 -2.1900 -0.9062
-11.4200 -2.3033 -0.8750
-11.4172 -2.4170 -0.8438
-11.4144 -2.5312 -0.8127
-11.4115 -2.6457 -0.7816
-11.4087 -2.7608 -0.7505
-11.4059 -2.8763 -0.7195
-11.4030 -2.9923 -0.6885
-11.4001 -3.1088 -0.6575
-11.3973 -3.2259 -0.6265
-11.3914 -3.4619 -0.5645
-11.3944 -3.3436 -0.5955
-11.3885 -3.5809 -0.5335
-11.3766 -4.0637 -0.4093
-11.3736 -4.1863 -0.3781
-11.3856 -3.7005 -0.5025
-11.3706 -4.3098 -0.3469
-11.3826 -3.8208 -0.4714
-11.3675 -4.4341 -0.3157
-11.3641 -4.5592 -0.2844
-11.3796 -3.9419 -0.4404
-11.3608 -4.6852 -0.2530
-11.3435 -5.3304 -0.0948
-11.3574 -4.8122 -0.2215
-11.3540 -4.9401 -0.1900
-11.3400 -5.4628 -0.0629
-11.3505 -5.0692 -0.1584
-11.3364 -5.5963 -0.0308
-11.3470 -5.1992 -0.1266
-11.3328 -5.7311 0.0014
-11.3255 -6.0045 0.0662
-11.3218 -6.1433 0.0988
-11.3292 -5.8672 0.0337
-11.3181 -6.2835 0.1316
-11.3066 -6.7130 0.2311
-11.3143 -6.4251 0.1646
-11.3105 -6.5683 0.1978
-11.3027 -6.8594 0.2646
-11.2842 -7.4608 0.4009
-11.2987 -7.0075 0.2984
-11.2802 -7.6163 0.4356
-11.2761 -7.7738 0.4706
-11.2947 -7.1573 0.3324
-11.2720 -7.9334 0.5059
-11.2882 -7.3073 0.3665
-11.2678 -8.0951 0.5414
-11.2414 -9.1151 0.7616
-11.2635 -8.2590 0.5772
-11.2367 -9.2942 0.7996
-11.2320 -9.4762 0.8380
-11.2592 -8.4253 0.6134
-11.2272 -9.6611 0.8768
-11.2549 -8.5939 0.6499
-11.2224 -9.8491 0.9161
-11.2504 -8.7651 0.6868
-11.2174 -10.0402 0.9558
-11.2124 -10.2347 0.9960
-11.2459 -8.9388 0.7240
-11.2049 -10.4304 1.0366
-11.1905 -11.0473 1.1622
-11.2002 -10.6323 1.0779
-11.1954 -10.8379 1.1197
-11.1855 -11.2609 1.2052
-11.1644 -12.1584 1.3840
-11.1803 -11.4785 1.2489
-11.1589 -12.3945 1.4305
-11.1532 -12.6358 1.4778
-11.1751 -11.7006 1.2933
-11.1475 -12.8824 1.5259
-11.1698 -11.9271 1.3383
-11.1416 -13.1346 1.5749
-11.1354 -13.3923 1.6247
-10.4438 -13.9011 1.7769
-10.1824 -13.8357 1.7851
-11.1289 -13.6560 1.6755
-9.9277 -13.7727 1.7929
-11.1224 -13.9260 1.7272
-9.6792 -13.7119 1.8005
-10.9877 -14.0391 1.7595
-9.4369 -13.6534 1.8079
-9.2912 -13.7312 1.8329
-10.7121 -13.9688 1.7684
-9.2678 -13.9934 1.8824
-8.3739 -13.8037 1.9105
-9.0938 -14.0307 1.9016
-8.8651 -13.9797 1.9085
-8.2071 -13.8368 1.9276
-8.6412 -13.9304 1.9151
-7.9965 -13.7923 1.9335
-7.3881 -13.6676 1.9500
-7.7899 -13.7493 1.9392
-7.1926 -13.6287 1.9552
-7.5872 -13.7077 1.9447
-7.0005 -13.5911 1.9601
-6.8117 -13.5548 1.9649
-6.4432 -13.4857 1.9739
-6.6260 -13.5196 1.9695
-5.5700 -13.3321 1.9938
-6.2633 -13.4528 1.9782
-5.4027 -13.3045 1.9974
-6.0862 -13.4211 1.9823
-5.2376 -13.2777 2.0008
-5.0746 -13.2519 2.0040
-5.9116 -13.3904 1.9863
-4.8856 -13.1516 1.9957
-5.7396 -13.3608 1.9901
-4.7546 -13.2030 2.0102
-4.5975 -13.1798 2.0131
-4.4422 -13.1575 2.0159
-4.2885 -13.1360 2.0185
-4.1365 -13.1152 2.0211
-3.9861 -13.0953 2.0235
-3.8371 -13.0761 2.0259
-3.6895 -13.0576 2.0281
-3.5434 -13.0399 2.0302
-12.3888 4.4774 -2.4583
-12.1864 4.2695 -2.3739
-12.0198 4.0791 -2.2982
-11.9438 3.9231 -2.2412
-11.8692 3.7702 -2.1853
-11.7961 3.6202 -2.1307
-11.7243 3.4731 -2.0772
-11.6976 3.3411 -2.0324
-11.6764 3.2120 -1.9891
-11.6554 3.0841 -1.9463
-11.6346 2.9574 -1.9039
-11.6140 2.8319 -1.8621
-11.6046 2.7101 -1.8225
-11.5982 2.5898 -1.7837
-11.5919 2.4701 -1.7453
-11.5855 2.3512 -1.7072
-11.5793 2.2329 -1.6694
-11.5680 2.1144 -1.6312
-11.5557 1.9964 -1.5931
-11.5435 1.8791 -1.5554
-11.5313 1.7624 -1.5181
-11.5179 1.6463 -1.4808
-11.5151 1.5322 -1.4452
-11.5124 1.4184 -1.4098
-11.5097 1.3051 -1.3747
-11.5070 1.1921 -1.3397
-11.5043 1.0794 -1.3050
-11.5017 0.9670 -1.2704
-11.4990 0.8549 -1.2361
-11.4963 0.7431 -1.2019
-11.4937 0.6315 -1.1678
-11.4910 0.5201 -1.1340
-11.4883 0.4089 -1.1003
-11.4857 0.2978 -1.0667
-11.4830 0.1869 -1.0333
-11.4804 0.0761 -1.0000
-11.4778 -0.0346 -0.9669
-11.4751 -0.1453 -0.9338
-11.4725 -0.2558 -0.9009
-11.4698 -0.3664 -0.8681
-11.4672 -0.4770 -0.8354
-11.4646 -0.5875 -0.8028
-11.4619 -0.6982 -0.7702
-11.4593 -0.8088 -0.7378
-11.4566 -0.9196 -0.7054
-11.4540 -1.0305 -0.6731
-11.4514 -1.1415 -0.6408
-11.4487 -1.2527 -0.6086
-11.4426 -1.3637 -0.5763
-11.4399 -1.4751 -0.5442
-11.4371 -1.5869 -0.5121
-11.4344 -1.6988 -0.4801
-11.4316 -1.8110 -0.4480
-11.4288 -1.9236 -0.4160
-11.4261 -2.0364 -0.3840
-11.4233 -2.1496 -0.3520
-11.4205 -2.2631 -0.3200
-11.4177 -2.3770 -0.2880
-11.4149 -2.4913 -0.2560
-11.4120 -2.6061 -0.2240
-11.4092 -2.7213 -0.1919
-11.4063 -2.8371 -0.1598
-11.4035 -2.9533 -0.1277
-11.4006 -3.0701 -0.0954
-11.3977 -3.1874 -0.0632
-11.3948 -3.3054 -0.0309
-11.3919 -3.4240 0.0015
-11.3889 -3.5432 0.0340
-11.3860 -3.6631 0.0665
-11.3830 -3.7838 0.0992
-11.3800 -3.9051 0.1319
-11.3770 -4.0273 0.1648
-11.3740 -4.1503 0.1977
-11.3709 -4.2741 0.2308
-11.3675 -4.3986 0.2640
-11.3642 -4.5241 0.2974
-11.3608 -4.6505 0.3309
-11.3574 -4.7779 0.3645
-11.3539 -4.9064 0.3983
-11.3505 -5.0358 0.4323
-11.3470 -5.1664 0.4665
-11.3434 -5.2981 0.5008
-11.3399 -5.4309 0.5354
-11.3363 -5.5650 0.5701
-11.3327 -5.7003 0.6051
-11.3290 -5.8370 0.6403
-11.3253 -5.9749 0.6758
-11.3216 -6.1143 0.7115
-11.3178 -6.2551 0.7474
-11.3140 -6.3975 0.7836
-11.3102 -6.5413 0.8202
-11.3063 -6.6868 0.8570
-11.2888 -7.2850 1.0073
-11.3024 -6.8340 0.8941
-11.2848 -7.4394 1.0457
-11.2984 -6.9828 0.9315
-11.2807 -7.5958 1.0846
-11.2944 -7.1335 0.9693
-11.2766 -7.7543 1.1239
-11.2682 -8.0777 1.2036
-11.2724 -7.9149 1.1635
-11.2640 -8.2428 1.2441
-11.2462 -8.9274 1.4110
-11.2596 -8.4102 1.2851
-11.2416 -9.1052 1.4540
-11.2552 -8.5800 1.3266
-11.2369 -9.2857 1.4976
-11.2508 -8.7524 1.3685
-11.2322 -9.4692 1.5418
-11.2224 -9.8453 1.6319
-11.2274 -9.6557 1.5865
-11.2175 -10.0382 1.6779
-11.1963 -10.8447 1.8691
-11.2124 -10.2345 1.7246
-11.1914 -11.0564 1.9189
-11.1863 -11.2722 1.9695
-11.2060 -10.4331 1.7719
-11.1812 -11.4923 2.0210
-11.2012 -10.6370 1.8201
-11.1760 -11.7169 2.0735
-10.9932 -11.7564 2.0930
-9.7739 -11.5520 2.1135
-10.7371 -11.7133 2.0976
-9.5474 -11.5147 2.1171
-10.4877 -11.6716 2.1019
-9.3567 -11.5162 2.1274
-10.2438 -11.6305 2.1059
-9.3338 -11.7248 2.1760
-10.0059 -11.5906 2.1098
-9.2722 -11.8888 2.2163
-9.0589 -11.8574 2.2200
-7.9187 -11.5150 2.1986
-8.8450 -11.8202 2.2223
-7.7200 -11.4705 2.1979
-8.6035 -11.7401 2.2162
-7.5445 -11.4559 2.2027
-8.3149 -11.5875 2.1960
-7.3719 -11.4420 2.2074
-8.1407 -11.5876 2.2043
-7.2020 -11.4286 2.2120
-6.2354 -11.3604 2.2374
-7.0349 -11.4159 2.2165
-6.0821 -11.3508 2.2414
-6.8702 -11.4037 2.2208
-5.9292 -11.3387 2.2446
-6.7081 -11.3921 2.2251
-5.7777 -11.3258 2.2475
-6.5483 -11.3810 2.2293
-5.6283 -11.3134 2.2504
-6.3907 -11.3704 2.2334
-5.4807 -11.3016 2.2532
-4.7652 -11.2411 2.2644
-5.3345 -11.2894 2.2557
-4.6270 -11.2302 2.2665
-5.1896 -11.2766 2.2580
-5.0465 -11.2643 2.2602
-4.4901 -11.2197 2.2684
-4.3547 -11.2094 2.2703
-4.8817 -11.1988 2.2516
-4.2201 -11.1984 2.2719
-4.0869 -11.1878 2.2734
-3.9550 -11.1776 2.2749
-3.8243 -11.1679 2.2764
-3.6948 -11.1585 2.2778
-3.5665 -11.1495 2.2791
-3.4392 -11.1409 2.2804
-3.3130 -11.1327 2.2817
-3.1877 -11.1248 2.2829
-3.0633 -11.1173 2.2841
-12.7776 4.8001 -1.9183
-12.4473 4.5376 -1.8259
-12.2436 4.3282 -1.7543
-12.0479 4.1271 -1.6856
-11.9661 3.9690 -1.6340
-11.8914 3.8158 -1.5843
-11.8182 3.6656 -1.5356
-11.7463 3.5182 -1.4879
-11.7043 3.3818 -1.4446
-11.6831 3.2528 -1.4043
-11.6621 3.1250 -1.3645
-11.6413 2.9984 -1.3251
-11.6207 2.8730 -1.2860
-11.6068 2.7501 -1.2481
-11.6004 2.6299 -1.2113
-11.5940 2.5104 -1.1747
-11.5877 2.3916 -1.1384
-11.5814 2.2735 -1.1024
-11.5722 2.1554 -1.0663
-11.5599 2.0374 -1.0301
-11.5477 1.9202 -0.9942
-11.5356 1.8036 -0.9586
-11.5185 1.6869 -0.9228
-11.5158 1.5729 -0.8884
-11.5131 1.4592 -0.8541
-11.5104 1.3459 -0.8200
-11.5077 1.2330 -0.7860
-11.5050 1.1204 -0.7522
-11.5023 1.0081 -0.7185
-11.4997 0.8960 -0.6849
-11.4970 0.7842 -0.6514
-11.4943 0.6726 -0.6181
-11.4917 0.5612 -0.5848
-11.4890 0.4500 -0.5517
-11.4864 0.3389 -0.5186
-11.4837 0.2280 -0.4856
-11.4811 0.1172 -0.4527
-11.4784 0.0065 -0.4199
-11.4758 -0.1042 -0.3871
-11.4732 -0.2148 -0.3543
-11.4705 -0.3254 -0.3217
-11.4679 -0.4360 -0.2890
-11.4652 -0.5467 -0.2564
-11.4626 -0.6573 -0.2238
-11.4600 -0.7681 -0.1913
-11.4573 -0.8789 -0.1587
-11.4547 -0.9899 -0.1262
-11.4520 -1.1010 -0.0937
-11.4494 -1.2123 -0.0611
-11.4432 -1.3233 -0.0286
-11.4404 -1.4349 0.0040
-11.4376 -1.5468 0.0365
-11.4349 -1.6589 0.0692
-11.4321 -1.7712 0.1018
-11.4293 -1.8839 0.1345
-11.4265 -1.9969 0.1672
-11.4238 -2.1102 0.2000
-11.4210 -2.2239 0.2329
-11.4181 -2.3380 0.2658
-11.4153 -2.4525 0.2989
-11.4125 -2.5675 0.3320
-11.4096 -2.6829 0.3652
-11.4068 -2.7989 0.3985
-11.4039 -2.9153 0.4319
-11.4010 -3.0324 0.4654
-11.3981 -3.1500 0.4990
-11.3952 -3.2682 0.5328
-11.3923 -3.3870 0.5667
-11.3893 -3.5065 0.6008
-11.3864 -3.6267 0.6350
-11.3834 -3.7477 0.6694
-11.3804 -3.8694 0.7039
-11.3774 -3.9919 0.7386
-11.3743 -4.1152 0.7735
-11.3713 -4.2394 0.8087
-11.3675 -4.3642 0.8439
-11.3641 -4.4900 0.8795
-11.3607 -4.6169 0.9152
-11.3573 -4.7447 0.9512
-11.3539 -4.8735 0.9874
-11.3504 -5.0035 1.0239
-11.3469 -5.1345 1.0606
-11.3433 -5.2667 1.0976
-11.3398 -5.4000 1.1349
-11.3361 -5.5347 1.1725
-11.3325 -5.6705 1.2104
-11.3288 -5.8077 1.2487
-11.3251 -5.9463 1.2873
-11.3214 -6.0863 1.3262
-11.3176 -6.2278 1.3655
-11.3137 -6.3708 1.4051
-11.3099 -6.5154 1.4452
-11.3060 -6.6616 1.4856
-11.3020 -6.8095 1.5265
-11.2980 -6.9592 1.5678
-11.2939 -7.1107 1.6096
-11.2898 -7.2640 1.6518
-11.2853 -7.4190 1.6944
-11.2812 -7.5764 1.7377
-11.2771 -7.7359 1.7814
-11.2729 -7.8976 1.8257
-11.2686 -8.0615 1.8706
-11.2643 -8.2276 1.9160
-11.2600 -8.3963 1.9621
-11.2555 -8.5674 2.0088
-11.2510 -8.7411 2.0561
-11.2465 -8.9174 2.1041
-11.2418 -9.0966 2.1528
-11.2371 -9.2786 2.2023
-11.2323 -9.4636 2.2525
-11.2275 -9.6517 2.3035
-11.1926 -9.8168 2.3490
-10.9479 -9.7965 2.3501
-10.7096 -9.7769 2.3511
-10.4773 -9.7579 2.3521
-10.2508 -9.7395 2.3530
-10.0298 -9.7217 2.3539
-9.8141 -9.7044 2.3548
-9.6034 -9.6877 2.3556
-9.4109 -9.6853 2.3598
-9.3855 -9.8545 2.4057
-9.3676 -10.0350 2.4544
-9.1931 -10.0480 2.4621
-8.9975 -10.0344 2.4631
-8.7917 -10.0051 2.4601
-8.5770 -9.9607 2.4533
-8.3676 -9.9173 2.4466
-8.1634 -9.8752 2.4401
-7.9643 -9.8342 2.4336
-7.7700 -9.7944 2.4274
-7.5802 -9.7556 2.4212
-7.3914 -9.7132 2.4141
-7.2060 -9.6706 2.4068
-7.0248 -9.6290 2.3996
-6.8478 -9.5886 2.3926
-6.6748 -9.5491 2.3857
-6.5089 -9.5154 2.3801
-6.3685 -9.5157 2.3830
-6.2301 -9.5162 2.3858
-6.0934 -9.5168 2.3886
-5.9584 -9.5175 2.3913
-5.8252 -9.5183 2.3940
-5.6935 -9.5192 2.3967
-5.5634 -9.5202 2.3993
-5.4348 -9.5213 2.4018
-5.3076 -9.5226 2.4044
-5.1818 -9.5239 2.4068
-5.0574 -9.5254 2.4093
-4.9342 -9.5269 2.4117
-4.8123 -9.5286 2.4141
-4.6915 -9.5303 2.4165
-4.5719 -9.5322 2.4188
-4.4534 -9.5341 2.4211
-4.3360 -9.5362 2.4233
-4.2195 -9.5383 2.4256
-4.1041 -9.5406 2.4278
-3.9896 -9.5429 2.4300
-3.8760 -9.5453 2.4321
-3.7633 -9.5478 2.4342
-3.6515 -9.5505 2.4363
-3.5404 -9.5532 2.4384
-3.4300 -9.5560 2.4405
-3.3205 -9.5589 2.4425
-3.2116 -9.5619 2.4445
-3.1030 -9.5638 2.4462
-2.9945 -9.5640 2.4474
-2.8866 -9.5642 2.4486
-2.7794 -9.5646 2.4498
-2.6729 -9.5651 2.4509
-13.6973 5.3402 -1.3970
-12.8967 4.8839 -1.2735
-12.5051 4.5969 -1.1945
-12.3000 4.3862 -1.1356
-12.1030 4.1837 -1.0789
-11.9881 4.0140 -1.0309
-11.9133 3.8607 -0.9871
-11.8400 3.7103 -0.9441
-11.7680 3.5626 -0.9020
-11.7109 3.4217 -0.8615
-11.6897 3.2928 -0.8242
-11.6687 3.1651 -0.7872
-11.6479 3.0386 -0.7505
-11.6273 2.9133 -0.7142
-11.6089 2.7895 -0.6782
-11.6025 2.6694 -0.6432
-11.5961 2.5501 -0.6084
-11.5898 2.4314 -0.5738
-11.5835 2.3133 -0.5393
-11.5764 2.1958 -0.5050
-11.5642 2.0779 -0.4706
-11.5520 1.9606 -0.4364
-11.5398 1.8441 -0.4024
-11.5277 1.7282 -0.3686
-11.5165 1.6130 -0.3349
-11.5138 1.4994 -0.3016
-11.5110 1.3862 -0.2684
-11.5084 1.2733 -0.2353
-11.5057 1.1608 -0.2023
-11.5030 1.0485 -0.1693
-11.5003 0.9365 -0.1364
-11.4977 0.8247 -0.1036
-11.4950 0.7132 -0.0708
-11.4923 0.6018 -0.0380
-11.4897 0.4906 -0.0053
-11.4870 0.3796 0.0274
-11.4844 0.2686 0.0601
-11.4818 0.1578 0.0927
-11.4791 0.0471 0.1254
-11.4765 -0.0636 0.1580
-11.4738 -0.1743 0.1907
-11.4712 -0.2849 0.2233
-11.4685 -0.3955 0.2560
-11.4659 -0.5062 0.2887
-11.4633 -0.6170 0.3214
-11.4606 -0.7278 0.3542
-11.4580 -0.8387 0.3870
-11.4553 -0.9497 0.4199
-11.4527 -1.0609 0.4528
-11.4500 -1.1723 0.4858
-11.4474 -1.2838 0.5188
-11.4409 -1.3952 0.5518
-11.4381 -1.5071 0.5850
-11.4354 -1.6193 0.6182
-11.4326 -1.7318 0.6516
-11.4298 -1.8446 0.6851
-11.4270 -1.9577 0.7187
-11.4242 -2.0712 0.7525
-11.4214 -2.1851 0.7863
-11.4186 -2.2994 0.8203
-11.4158 -2.4141 0.8544
-11.4129 -2.5292 0.8887
-11.4101 -2.6448 0.9232
-11.4072 -2.7610 0.9578
-11.4043 -2.8777 0.9925
-11.4015 -2.9949 1.0275
-11.3986 -3.1128 1.0627
-11.3956 -3.2312 1.0980
-11.3927 -3.3503 1.1336
-11.3897 -3.4702 1.1693
-11.3868 -3.5907 1.2054
-11.3838 -3.7119 1.2416
-11.3808 -3.8339 1.2781
-11.3777 -3.9567 1.3148
-11.3747 -4.0804 1.3518
-11.3716 -4.2049 1.3891
-11.3675 -4.3299 1.4266
-11.3641 -4.4562 1.4644
-11.3607 -4.5834 1.5025
-11.3572 -4.7117 1.5410
-11.3538 -4.8410 1.5798
-11.3503 -4.9714 1.6189
-11.3467 -5.1029 1.6584
-11.3432 -5.2355 1.6982
-11.3396 -5.3694 1.7384
-11.3360 -5.5046 1.7791
-11.3323 -5.6410 1.8201
-11.3286 -5.7788 1.8615
-11.3249 -5.9180 1.9034
-11.3211 -6.0586 1.9457
-11.3173 -6.2007 1.9885
-11.3135 -6.3444 2.0318
-11.3096 -6.4897 2.0756
-11.3056 -6.6367 2.1199
-11.3016 -6.7854 2.1648
-11.2976 -6.9358 2.2102
-11.2935 -7.0882 2.2561
-11.2894 -7.2424 2.3027
-11.2858 -7.3990 2.3500
-11.2817 -7.5574 2.3978
-11.2775 -7.7179 2.4463
-11.2733 -7.8806 2.4955
-11.2690 -8.0456 2.5454
-11.0901 -8.0856 2.5558
-10.8641 -8.0878 2.5543
-10.6437 -8.0898 2.5528
-10.4287 -8.0918 2.5514
-10.2188 -8.0937 2.5500
-10.0138 -8.0955 2.5486
-9.8136 -8.0972 2.5473
-9.6178 -8.0989 2.5460
-9.4485 -8.1195 2.5507
-9.4271 -8.2669 2.5953
-9.4112 -8.4215 2.6421
-9.2744 -8.4684 2.6552
-9.0919 -8.4709 2.6543
-8.8969 -8.4581 2.6488
-8.7165 -8.4553 2.6464
-8.4761 -8.3895 2.6243
-8.3372 -8.4203 2.6325
-8.1540 -8.4033 2.6258
-7.9749 -8.3867 2.6193
-7.7997 -8.3704 2.6129
-7.6283 -8.3544 2.6066
-7.4605 -8.3387 2.6005
-7.2923 -8.3190 2.5932
-7.1276 -8.2996 2.5860
-6.9664 -8.2806 2.5790
-6.8084 -8.2619 2.5721
-6.6536 -8.2435 2.5653
-6.5018 -8.2255 2.5587
-6.3511 -8.2053 2.5514
-6.2018 -8.1836 2.5437
-6.0555 -8.1624 2.5362
-5.9120 -8.1414 2.5288
-5.7712 -8.1210 2.5216
-5.6330 -8.1008 2.5145
-5.5121 -8.1028 2.5143
-5.3969 -8.1109 2.5160
-5.2828 -8.1189 2.5177
-5.1700 -8.1268 2.5194
-5.0583 -8.1346 2.5211
-4.9477 -8.1423 2.5228
-4.8382 -8.1498 2.5244
-4.7297 -8.1573 2.5260
-4.6221 -8.1647 2.5277
-4.5156 -8.1720 2.5293
-4.4100 -8.1791 2.5309
-4.3053 -8.1862 2.5325
-4.2014 -8.1932 2.5341
-4.0984 -8.2001 2.5357
-3.9962 -8.2070 2.5372
-3.8947 -8.2137 2.5388
-3.7940 -8.2204 2.5403
-3.6941 -8.2270 2.5419
-3.5948 -8.2335 2.5434
-3.4962 -8.2399 2.5449
-3.3982 -8.2463 2.5464
-3.3008 -8.2526 2.5479
-3.2040 -8.2588 2.5494
-3.1079 -8.2650 2.5509
-3.0122 -8.2711 2.5524
-2.9171 -8.2771 2.5539
-2.8224 -8.2831 2.5554
-2.7282 -8.2890 2.5568
-2.6346 -8.2949 2.5583
-2.5413 -8.3007 2.5597
-2.4484 -8.3065 2.5612
-2.3559 -8.3122 2.5627
-13.0177 4.9691 -0.6211
-12.5858 4.6650 -0.5624
-12.3568 4.4446 -0.5151
-12.1586 4.2408 -0.4705
-12.0101 4.0591 -0.4290
-11.9352 3.9056 -0.3910
-11.8618 3.7550 -0.3537
-11.7897 3.6071 -0.3170
-11.7189 3.4620 -0.2808
-11.6963 3.3328 -0.2462
-11.6753 3.2053 -0.2119
-11.6546 3.0789 -0.1779
-11.6340 2.9536 -0.1440
-11.6136 2.8294 -0.1104
-11.6046 2.7089 -0.0771
-11.5982 2.5897 -0.0439
-11.5919 2.4711 -0.0108
-11.5857 2.3532 0.0222
-11.5794 2.2359 0.0550
-11.5684 2.1183 0.0878
-11.5562 2.0012 0.1204
-11.5440 1.8847 0.1529
-11.5320 1.7688 0.1853
-11.5171 1.6531 0.2176
-11.5144 1.5396 0.2500
-11.5117 1.4265 0.2824
-11.5090 1.3137 0.3148
-11.5063 1.2012 0.3471
-11.5037 1.0890 0.3795
-11.5010 0.9771 0.4118
-11.4983 0.8654 0.4442
-11.4957 0.7538 0.4765
-11.4930 0.6425 0.5089
-11.4904 0.5313 0.5413
-11.4877 0.4203 0.5737
-11.4851 0.3094 0.6062
-11.4824 0.1986 0.6387
-11.4798 0.0878 0.6712
-11.4771 -0.0229 0.7039
-11.4745 -0.1335 0.7365
-11.4719 -0.2442 0.7693
-11.4692 -0.3549 0.8021
-11.4666 -0.4656 0.8350
-11.4639 -0.5764 0.8680
-11.4613 -0.6873 0.9011
-11.4586 -0.7982 0.9343
-11.4560 -0.9093 0.9676
-11.4533 -1.0206 1.0010
-11.4507 -1.1320 1.0345
-11.4480 -1.2437 1.0682
-11.4414 -1.3551 1.1016
-11.4386 -1.4672 1.1355
-11.4359 -1.5795 1.1696
-11.4331 -1.6921 1.2039
-11.4303 -1.8050 1.2383
-11.4275 -1.9183 1.2729
-11.4247 -2.0319 1.3076
-11.4219 -2.1459 1.3426
-11.4191 -2.2604 1.3778
-11.4162 -2.3752 1.4131
-11.4134 -2.4906 1.4487
-11.4105 -2.6064 1.4845
-11.4077 -2.7228 1.5206
-11.4048 -2.8397 1.5569
-11.4019 -2.9571 1.5934
-11.3990 -3.0752 1.6302
-11.3960 -3.1939 1.6673
-11.3931 -3.3133 1.7046
-11.3901 -3.4334 1.7422
-11.3872 -3.5541 1.7802
-11.3842 -3.6757 1.8184
-11.3811 -3.7980 1.8570
-11.3781 -3.9211 1.8959
-11.3750 -4.0451 1.9352
-11.3720 -4.1700 1.9748
-11.3675 -4.2953 2.0145
-11.3641 -4.4219 2.0548
-11.3606 -4.5496 2.0955
-11.3572 -4.6782 2.1366
-11.3537 -4.8079 2.1781
-11.3502 -4.9388 2.2201
-11.3466 -5.0707 2.2625
-11.3431 -5.2039 2.3053
-11.3395 -5.3383 2.3486
-11.3358 -5.4740 2.3925
-11.3321 -5.6110 2.4368
-11.3284 -5.7493 2.4816
-11.3247 -5.8891 2.5270
-11.3209 -6.0304 2.5730
-11.3170 -6.1732 2.6195
-11.3132 -6.3176 2.6666
-11.3092 -6.4636 2.7144
-11.1583 -6.5253 2.7268
-10.9456 -6.5480 2.7233
-10.7381 -6.5700 2.7199
-10.5355 -6.5912 2.7166
-10.3375 -6.6118 2.7134
-10.1440 -6.6317 2.7102
-9.9549 -6.6510 2.7072
-9.7698 -6.6698 2.7042
-9.5892 -6.6882 2.7015
-9.4751 -6.7508 2.7168
-9.4609 -6.8848 2.7609
-9.4464 -7.0205 2.8056
-9.3084 -7.0642 2.8137
-9.1386 -7.0815 2.8114
-8.9659 -7.0933 2.8073
-8.7545 -7.0707 2.7898
-8.4936 -7.0028 2.7548
-8.3636 -7.0387 2.7610
-8.2122 -7.0543 2.7594
-8.0633 -7.0695 2.7578
-7.9169 -7.0843 2.7563
-7.7729 -7.0987 2.7548
-7.6312 -7.1127 2.7534
-7.4884 -7.1231 2.7508
-7.3358 -7.1215 2.7437
-7.1861 -7.1198 2.7367
-7.0393 -7.1179 2.7299
-6.8952 -7.1160 2.7232
-6.7538 -7.1139 2.7167
-6.6149 -7.1118 2.7103
-6.4785 -7.1095 2.7041
-6.3415 -7.1040 2.6967
-6.2069 -7.0983 2.6895
-6.0746 -7.0926 2.6824
-5.9447 -7.0869 2.6755
-5.8169 -7.0812 2.6687
-5.6913 -7.0754 2.6620
-5.5667 -7.0684 2.6549
-5.4426 -7.0593 2.6473
-5.3206 -7.0503 2.6398
-5.2005 -7.0413 2.6324
-5.0825 -7.0324 2.6252
-4.9662 -7.0234 2.6181
-4.8581 -7.0238 2.6145
-4.7596 -7.0361 2.6156
-4.6620 -7.0483 2.6166
-4.5652 -7.0602 2.6176
-4.4692 -7.0719 2.6187
-4.3740 -7.0833 2.6197
-4.2796 -7.0946 2.6208
-4.1860 -7.1056 2.6218
-4.0930 -7.1164 2.6229
-4.0007 -7.1270 2.6239
-3.9090 -7.1374 2.6250
-3.8181 -7.1477 2.6260
-3.7277 -7.1577 2.6271
-3.6380 -7.1675 2.6282
-3.5488 -7.1772 2.6292
-3.4602 -7.1867 2.6303
-3.3721 -7.1960 2.6314
-3.2846 -7.2051 2.6325
-3.1975 -7.2140 2.6335
-3.1110 -7.2228 2.6346
-3.0249 -7.2314 2.6357
-2.9392 -7.2399 2.6368
-2.8540 -7.2482 2.6379
-2.7692 -7.2563 2.6390
-2.6848 -7.2643 2.6401
-2.6008 -7.2721 2.6412
-2.5171 -7.2798 2.6423
-2.4338 -7.2873 2.6434
-2.3508 -7.2947 2.6446
-2.2681 -7.3020 2.6457
-2.1858 -7.3091 2.6468
-2.1037 -7.3160 2.6479
-13.1433 5.0575 0.0421
-12.7043 4.7485 0.0767
-12.4152 4.5046 0.1099
-12.2156 4.2994 0.1425
-12.0325 4.1052 0.1741
-11.9576 3.9515 0.2064
-11.8840 3.8006 0.2383
-11.8119 3.6526 0.2697
-11.7410 3.5073 0.3007
-11.7030 3.3736 0.3322
-11.6820 3.2462 0.3639
-11.6613 3.1199 0.3955
-11.6407 2.9947 0.4269
-11.6203 2.8706 0.4582
-11.6067 2.7491 0.4897
-11.6004 2.6300 0.5214
-11.5941 2.5116 0.5530
-11.5878 2.3939 0.5846
-11.5816 2.2767 0.6162
-11.5727 2.1596 0.6476
-11.5605 2.0425 0.6787
-11.5483 1.9260 0.7099
-11.5363 1.8102 0.7410
-11.5178 1.6940 0.7716
-11.5151 1.5806 0.8033
-11.5124 1.4676 0.8350
-11.5097 1.3549 0.8667
-11.5070 1.2425 0.8985
-11.5043 1.1304 0.9303
-11.5017 1.0185 0.9622
-11.4990 0.9068 0.9942
-11.4964 0.7953 1.0262
-11.4937 0.6840 1.0583
-11.4911 0.5729 1.0905
-11.4884 0.4619 1.1227
-11.4858 0.3510 1.1551
-11.4831 0.2402 1.1876
-11.4805 0.1295 1.2201
-11.4778 0.0188 1.2528
-11.4752 -0.0919 1.2856
-11.4726 -0.2026 1.3186
-11.4699 -0.3133 1.3517
-11.4673 -0.4241 1.3849
-11.4646 -0.5349 1.4182
-11.4620 -0.6458 1.4518
-11.4593 -0.7568 1.4854
-11.4567 -0.8680 1.5193
-11.4540 -0.9793 1.5533
-11.4514 -1.0908 1.5875
-11.4487 -1.2025 1.6219
-11.4419 -1.3141 1.6560
-11.4391 -1.4262 1.6907
-11.4364 -1.5386 1.7257
-11.4336 -1.6514 1.7610
-11.4308 -1.7644 1.7964
-11.4280 -1.8778 1.8321
-11.4252 -1.9916 1.8681
-11.4224 -2.1057 1.9043
-11.4196 -2.2203 1.9407
-11.4167 -2.3354 1.9775
-11.4139 -2.4509 2.0145
-11.4110 -2.5669 2.0518
-11.4081 -2.6834 2.0894
-11.4052 -2.8005 2.1273
-11.4023 -2.9182 2.1656
-11.3994 -3.0365 2.2042
-11.3965 -3.1555 2.2431
-11.3935 -3.2751 2.2824
-11.3906 -3.3954 2.3220
-11.3876 -3.5165 2.3621
-11.3846 -3.6383 2.4025
-11.3815 -3.7609 2.4433
-11.3785 -3.8844 2.4845
-11.3754 -4.0087 2.5262
-11.3723 -4.1339 2.5683
-11.3692 -4.2601 2.6108
-11.3640 -4.3865 2.6534
-11.3606 -4.5145 2.6968
-11.3571 -4.6435 2.7407
-11.3536 -4.7737 2.7852
-11.3501 -4.9049 2.8301
-11.3465 -5.0374 2.8756
-11.1450 -5.0808 2.8707
-10.9473 -5.1225 2.8657
-10.7542 -5.1630 2.8608
-10.5653 -5.2022 2.8561
-10.3807 -5.2403 2.8515
-10.2000 -5.2772 2.8471
-10.0231 -5.3131 2.8428
-9.8500 -5.3479 2.8385
-9.6804 -5.3818 2.8344
-9.5234 -5.4199 2.8332
-9.5011 -5.5339 2.8719
-9.4881 -5.6544 2.9139
-9.4539 -5.7634 2.9499
-9.2941 -5.7948 2.9465
-9.1372 -5.8253 2.9431
-8.9711 -5.8473 2.9360
-8.7861 -5.8536 2.9216
-8.5582 -5.8273 2.8915
-8.4254 -5.8622 2.8925
-8.2409 -5.8584 2.8747
-8.0613 -5.8543 2.8575
-7.9244 -5.8785 2.8545
-7.7916 -5.9033 2.8522
-7.6607 -5.9275 2.8499
-7.5319 -5.9511 2.8477
-7.4049 -5.9741 2.8456
-7.2797 -5.9966 2.8435
-7.1563 -6.0184 2.8414
-7.0347 -6.0398 2.8395
-6.9147 -6.0606 2.8375
-6.7963 -6.0809 2.8356
-6.6795 -6.1006 2.8337
-6.5592 -6.1152 2.8297
-6.4337 -6.1228 2.8228
-6.3102 -6.1300 2.8160
-6.1887 -6.1370 2.8093
-6.0691 -6.1436 2.8028
-5.9514 -6.1499 2.7964
-5.8355 -6.1560 2.7901
-5.7213 -6.1617 2.7839
-5.6065 -6.1647 2.7768
-5.4934 -6.1674 2.7697
-5.3820 -6.1699 2.7628
-5.2722 -6.1722 2.7560
-5.1641 -6.1742 2.7493
-5.0574 -6.1760 2.7428
-4.9518 -6.1771 2.7361
-4.8461 -6.1760 2.7286
-4.7419 -6.1747 2.7213
-4.6392 -6.1733 2.7141
-4.5379 -6.1717 2.7071
-4.4380 -6.1700 2.7001
-4.3403 -6.1695 2.6939
-4.2545 -6.1842 2.6945
-4.1694 -6.1987 2.6951
-4.0848 -6.2128 2.6957
-4.0008 -6.2267 2.6963
-3.9174 -6.2403 2.6969
-3.8345 -6.2536 2.6976
-3.7522 -6.2667 2.6982
-3.6704 -6.2794 2.6989
-3.5892 -6.2920 2.6996
-3.5084 -6.3042 2.7003
-3.4280 -6.3162 2.7009
-3.3482 -6.3280 2.7017
-3.2688 -6.3395 2.7024
-3.1898 -6.3507 2.7031
-3.1112 -6.3618 2.7038
-3.0330 -6.3726 2.7046
-2.9552 -6.3831 2.7053
-2.8778 -6.3935 2.7061
-2.8007 -6.4036 2.7069
-2.7240 -6.4135 2.7077
-2.6476 -6.4232 2.7085
-2.5715 -6.4327 2.7093
-2.4957 -6.4419 2.7101
-2.4203 -6.4509 2.7109
-2.3451 -6.4598 2.7118
-2.2702 -6.4684 2.7126
-2.1955 -6.4769 2.7135
-2.1211 -6.4851 2.7144
-2.0469 -6.4931 2.7153
-1.9730 -6.5010 2.7162
-1.8992 -6.5086 2.7171
-13.4723 5.2272 0.7305
-12.8298 4.8368 0.7297
-12.4764 4.5674 0.7426
-12.2753 4.3608 0.7631
-12.0820 4.1621 0.7830
-11.9809 3.9992 0.8081
-11.9072 3.8482 0.8346
-11.8349 3.6999 0.8608
-11.7639 3.5543 0.8867
-11.7099 3.4159 0.9136
-11.6890 3.2886 0.9429
-11.6683 3.1624 0.9721
-11.6477 3.0373 1.0013
-11.6273 2.9133 1.0304
-11.6089 2.7907 1.0596
-11.6026 2.6718 1.0899
-11.5963 2.5536 1.1202
-11.5901 2.4359 1.1505
-11.5838 2.3189 1.1809
-11.5771 2.2023 1.2113
-11.5649 2.0853 1.2411
-11.5528 1.9689 1.2709
-11.5407 1.8531 1.3008
-11.5287 1.7379 1.3307
-11.5158 1.6231 1.3606
-11.5131 1.5102 1.3917
-11.5104 1.3976 1.4229
-11.5077 1.2852 1.4542
-11.5051 1.1732 1.4856
-11.5024 1.0613 1.5172
-11.4997 0.9497 1.5489
-11.4971 0.8383 1.5806
-11.4944 0.7271 1.6126
-11.4918 0.6160 1.6447
-11.4891 0.5050 1.6769
-11.4865 0.3941 1.7093
-11.4838 0.2834 1.7418
-11.4812 0.1726 1.7745
-11.4786 0.0619 1.8074
-11.4759 -0.0487 1.8405
-11.4733 -0.1594 1.8737
-11.4706 -0.2702 1.9072
-11.4680 -0.3809 1.9408
-11.4654 -0.4918 1.9747
-11.4627 -0.6027 2.0087
-11.4601 -0.7138 2.0430
-11.4574 -0.8250 2.0775
-11.4547 -0.9364 2.1123
-11.4521 -1.0480 2.1473
-11.4494 -1.1598 2.1826
-11.4467 -1.2718 2.2181
-11.4397 -1.3836 2.2531
-11.4369 -1.4961 2.2891
-11.4341 -1.6089 2.3254
-11.4313 -1.7221 2.3621
-11.4285 -1.8356 2.3990
-11.4257 -1.9495 2.4362
-11.4229 -2.0638 2.4738
-11.4201 -2.1785 2.5117
-11.4172 -2.2937 2.5500
-11.4144 -2.4094 2.5886
-11.4115 -2.5256 2.6275
-11.4086 -2.6423 2.6669
-11.4057 -2.7596 2.7066
-11.4028 -2.8775 2.7467
-11.3999 -2.9960 2.7872
-11.3970 -3.1152 2.8282
-11.3940 -3.2351 2.8695
-11.3910 -3.3556 2.9114
-11.3880 -3.4770 2.9536
-11.3850 -3.5991 2.9964
-11.2279 -3.6716 2.9985
-11.0431 -3.7322 2.9924
-10.8623 -3.7911 2.9864
-10.6853 -3.8484 2.9806
-10.5121 -3.9040 2.9750
-10.3424 -3.9580 2.9695
-10.1761 -4.0106 2.9642
-10.0131 -4.0617 2.9590
-9.8533 -4.1114 2.9539
-9.7075 -4.1645 2.9523
-9.5541 -4.2119 2.9477
-9.5334 -4.3168 2.9838
-9.5214 -4.4264 3.0232
-9.5092 -4.5369 3.0629
-9.3708 -4.5865 3.0620
-9.2236 -4.6296 3.0575
-9.0790 -4.6715 3.0531
-8.9178 -4.7024 3.0424
-8.7577 -4.7310 3.0311
-8.5547 -4.7332 3.0039
-8.4385 -4.7805 3.0062
-8.2785 -4.8008 2.9923
-8.1220 -4.8203 2.9786
-7.9589 -4.8329 2.9616
-7.7985 -4.8442 2.9445
-7.6633 -4.8685 2.9361
-7.5442 -4.9010 2.9332
-7.4269 -4.9327 2.9304
-7.3111 -4.9636 2.9276
-7.1969 -4.9939 2.9249
-7.0842 -5.0234 2.9223
-6.9729 -5.0522 2.9197
-6.8631 -5.0804 2.9171
-6.7547 -5.1079 2.9147
-6.6476 -5.1347 2.9123
-6.5418 -5.1609 2.9099
-6.4373 -5.1866 2.9076
-6.3340 -5.2116 2.9054
-6.2319 -5.2361 2.9031
-6.1309 -5.2600 2.9010
-6.0311 -5.2833 2.8989
-5.9324 -5.3061 2.8968
-5.8288 -5.3229 2.8918
-5.7230 -5.3360 2.8852
-5.6186 -5.3486 2.8786
-5.5157 -5.3608 2.8722
-5.4141 -5.3726 2.8659
-5.3139 -5.3840 2.8597
-5.2150 -5.3951 2.8536
-5.1173 -5.4057 2.8476
-5.0190 -5.4140 2.8407
-4.9220 -5.4220 2.8340
-4.8263 -5.4296 2.8273
-4.7317 -5.4369 2.8207
-4.6383 -5.4439 2.8143
-4.5461 -5.4505 2.8079
-4.4549 -5.4568 2.8017
-4.3632 -5.4609 2.7945
-4.2727 -5.4647 2.7874
-4.1832 -5.4682 2.7805
-4.0949 -5.4715 2.7737
-4.0075 -5.4745 2.7670
-3.9212 -5.4773 2.7604
-3.8427 -5.4897 2.7588
-3.7673 -5.5054 2.7591
-3.6924 -5.5208 2.7594
-3.6179 -5.5358 2.7598
-3.5438 -5.5506 2.7601
-3.4701 -5.5650 2.7605
-3.3968 -5.5792 2.7608
-3.3239 -5.5930 2.7612
-3.2514 -5.6066 2.7616
-3.1793 -5.6199 2.7621
-3.1075 -5.6329 2.7625
-3.0360 -5.6456 2.7630
-2.9649 -5.6580 2.7634
-2.8941 -5.6701 2.7639
-2.8236 -5.6820 2.7644
-2.7534 -5.6937 2.7649
-2.6835 -5.7050 2.7655
-2.6138 -5.7161 2.7660
-2.5444 -5.7270 2.7666
-2.4753 -5.7376 2.7672
-2.4065 -5.7479 2.7677
-2.3378 -5.7580 2.7684
-2.2694 -5.7679 2.7690
-2.2013 -5.7775 2.7696
-2.1333 -5.7869 2.7703
-2.0656 -5.7960 2.7709
-1.9980 -5.8049 2.7716
-1.9306 -5.8136 2.7723
-1.8634 -5.8221 2.7730
-1.7964 -5.8303 2.7737
-1.7295 -5.8383 2.7745
-38.6055 17.2754 3.5985
-38.8684 16.9497 3.7190
-37.8901 16.0945 3.7190
-36.9591 15.2844 3.7190
-36.0718 14.5159 3.7190
-35.2252 13.7863 3.7190
-12.9652 4.9321 1.4010
-12.5432 4.6351 1.3866
-12.3391 4.4263 1.3947
-12.1442 4.2261 1.4030
-12.0055 4.0498 1.4170
-11.9318 3.8985 1.4382
-11.8593 3.7500 1.4592
-11.7882 3.6041 1.4801
-11.7183 3.4608 1.5009
-11.6964 3.3333 1.5277
-11.6756 3.2072 1.5547
-11.6551 3.0822 1.5816
-11.6347 2.9582 1.6086
-11.6145 2.8353 1.6357
-11.6049 2.7158 1.6642
-11.5987 2.5977 1.6933
-11.5924 2.4802 1.7225
-11.5862 2.3633 1.7518
-11.5800 2.2469 1.7812
-11.5696 2.1303 1.8100
-11.5575 2.0140 1.8387
-11.5455 1.8982 1.8675
-11.5335 1.7831 1.8963
-11.5166 1.6678 1.9245
-11.5139 1.5549 1.9551
-11.5112 1.4424 1.9859
-11.5085 1.3302 2.0169
-11.5058 1.2182 2.0480
-11.5032 1.1064 2.0793
-11.5005 0.9949 2.1108
-11.4979 0.8836 2.1425
-11.4952 0.7724 2.1744
-11.4926 0.6613 2.2064
-11.4899 0.5504 2.2387
-11.4873 0.4396 2.2712
-11.4846 0.3288 2.3040
-11.4820 0.2181 2.3369
-11.4793 0.1074 2.3701
-11.4767 -0.0033 2.4035
-11.4741 -0.1140 2.4372
-11.4714 -0.2247 2.4711
-11.4688 -0.3355 2.5053
-11.4661 -0.4463 2.5398
-11.4635 -0.5573 2.5746
-11.4608 -0.6684 2.6096
-11.4582 -0.7797 2.6449
-11.4555 -0.8911 2.6805
-11.4528 -1.0027 2.7165
-11.4502 -1.1146 2.7527
-11.4475 -1.2267 2.7893
-11.4403 -1.3386 2.8251
-11.4375 -1.4512 2.8623
-11.4347 -1.5641 2.8999
-11.4319 -1.6773 2.9378
-11.4291 -1.7909 2.9761
-11.4263 -1.9050 3.0148
-11.4235 -2.0194 3.0539
-11.4207 -2.1342 3.0934
-11.3530 -2.2368 3.1155
-11.1810 -2.3169 3.1086
-11.0124 -2.3948 3.1019
-10.8472 -2.4707 3.0953
-10.6853 -2.5444 3.0889
-10.5264 -2.6162 3.0826
-10.3705 -2.6862 3.0766
-10.2176 -2.7543 3.0706
-10.0674 -2.8206 3.0649
-9.9199 -2.8852 3.0592
-9.7746 -2.9480 3.0536
-9.6314 -3.0091 3.0479
-9.5691 -3.0940 3.0675
-9.5581 -3.1955 3.1038
-9.5471 -3.2975 3.1406
-9.5049 -3.3890 3.1673
-9.3674 -3.4454 3.1622
-9.2322 -3.5005 3.1571
-9.0991 -3.5542 3.1522
-8.9561 -3.6018 3.1432
-8.8150 -3.6478 3.1342
-8.6316 -3.6735 3.1092
-8.5303 -3.7318 3.1130
-8.3891 -3.7707 3.1018
-8.2506 -3.8085 3.0908
-8.1103 -3.8432 3.0784
-7.9684 -3.8746 3.0646
-7.8293 -3.9050 3.0511
-7.6868 -3.9314 3.0355
-7.5436 -3.9548 3.0188
-7.4158 -3.9840 3.0075
-7.3091 -4.0226 3.0042
-7.2037 -4.0603 3.0009
-7.0996 -4.0972 2.9976
-6.9968 -4.1333 2.9945
-6.8952 -4.1686 2.9914
-6.7948 -4.2031 2.9884
-6.6956 -4.2368 2.9854
-6.5975 -4.2699 2.9825
-6.5005 -4.3021 2.9797
-6.4046 -4.3337 2.9769
-6.3097 -4.3646 2.9742
-6.2159 -4.3948 2.9716
-6.1230 -4.4244 2.9690
-6.0311 -4.4533 2.9664
-5.9402 -4.4816 2.9639
-5.8502 -4.5093 2.9615
-5.7610 -4.5364 2.9591
-5.6728 -4.5629 2.9567
-5.5853 -4.5888 2.9544
-5.4988 -4.6142 2.9522
-5.4130 -4.6390 2.9500
-5.3280 -4.6633 2.9478
-5.2372 -4.6813 2.9421
-5.1463 -4.6976 2.9358
-5.0565 -4.7135 2.9295
-4.9677 -4.7289 2.9234
-4.8799 -4.7439 2.9173
-4.7931 -4.7584 2.9114
-4.7072 -4.7725 2.9056
-4.6223 -4.7862 2.8998
-4.5369 -4.7979 2.8932
-4.4523 -4.8092 2.8868
-4.3687 -4.8201 2.8804
-4.2860 -4.8306 2.8741
-4.2042 -4.8408 2.8679
-4.1232 -4.8506 2.8618
-4.0431 -4.8600 2.8558
-3.9627 -4.8678 2.8491
-3.8829 -4.8750 2.8424
-3.8040 -4.8818 2.8357
-3.7259 -4.8884 2.8292
-3.6486 -4.8946 2.8228
-3.5721 -4.9006 2.8164
-3.4992 -4.9103 2.8125
-3.4317 -4.9266 2.8126
-3.3645 -4.9426 2.8127
-3.2977 -4.9582 2.8128
-3.2312 -4.9736 2.8129
-3.1650 -4.9886 2.8131
-3.0991 -5.0033 2.8133
-3.0335 -5.0177 2.8135
-2.9681 -5.0317 2.8137
-2.9031 -5.0455 2.8139
-2.8383 -5.0590 2.8142
-2.7737 -5.0721 2.8145
-2.7094 -5.0850 2.8148
-2.6453 -5.0976 2.8151
-2.5815 -5.1099 2.8154
-2.5179 -5.1220 2.8158
-2.4545 -5.1337 2.8161
-2.3913 -5.1452 2.8165
-2.3284 -5.1564 2.8169
-2.2656 -5.1674 2.8173
-2.2030 -5.1780 2.8178
-2.1406 -5.1884 2.8182
-2.0783 -5.1986 2.8187
-2.0162 -5.2085 2.8192
-1.9543 -5.2181 2.8197
-1.8925 -5.2275 2.8202
-1.8309 -5.2366 2.8207
-1.7694 -5.2455 2.8213
-1.7081 -5.2541 2.8219
-1.6468 -5.2625 2.8225
-1.5857 -5.2706 2.8231
-25.8665 11.9609 3.7190
-25.4648 11.4832 3.7190
-25.0740 11.0219 3.7190
-24.6937 10.5763 3.7190
-24.3233 10.1456 3.7190
-23.9625 9.7293 3.7190
-23.6108 9.3265 3.7190
-13.1138 5.0367 2.0960
-12.6834 4.7338 2.0568
-12.4081 4.4973 2.0413
-12.2116 4.2954 2.0377
-12.0321 4.1042 2.0362
-11.9582 3.9527 2.0521
-11.8856 3.8038 2.0680
-11.8143 3.6576 2.0840
-11.7443 3.5140 2.1000
-11.7042 3.3812 2.1213
-11.6835 3.2552 2.1460
-11.6630 3.1302 2.1709
-11.6426 3.0063 2.1959
-11.6224 2.8835 2.2210
-11.6074 2.7627 2.2471
-11.6012 2.6448 2.2751
-11.5949 2.5274 2.3033
-11.5887 2.4107 2.3316
-11.5825 2.2944 2.3600
-11.5746 2.1784 2.3883
-11.5625 2.0621 2.4159
-11.5505 1.9464 2.4437
-11.5385 1.8313 2.4716
-11.5265 1.7167 2.4997
-11.5147 1.6027 2.5280
-11.5120 1.4903 2.5584
-11.5093 1.3781 2.5892
-11.5067 1.2662 2.6201
-11.5040 1.1545 2.6513
-11.5013 1.0431 2.6827
-11.4987 0.9318 2.7144
-11.4960 0.8207 2.7463
-11.4934 0.7097 2.7785
-11.4907 0.5988 2.8110
-11.4881 0.4880 2.8437
-11.4855 0.3773 2.8767
-11.4828 0.2666 2.9101
-11.4802 0.1559 2.9437
-11.4775 0.0453 2.9776
-11.4749 -0.0654 3.0118
-11.4723 -0.1761 3.0464
-11.4696 -0.2869 3.0812
-11.4670 -0.3978 3.1164
-11.4643 -0.5088 3.1520
-11.4617 -0.6199 3.1879
-11.4583 -0.7312 3.2239
-11.3009 -0.8313 3.2165
-11.1464 -0.9288 3.2093
-10.9947 -1.0238 3.2022
-10.8457 -1.1164 3.1953
-10.6993 -1.2067 3.1886
-10.5554 -1.2947 3.1821
-10.4139 -1.3805 3.1757
-10.2748 -1.4643 3.1694
-10.1363 -1.5458 3.1628
-9.9994 -1.6251 3.1561
-9.8646 -1.7025 3.1495
-9.7324 -1.7781 3.1432
-9.6148 -1.8542 3.1412
-9.5962 -1.9486 3.1714
-9.5861 -2.0449 3.2047
-9.5760 -2.1415 3.2385
-9.5307 -2.2302 3.2606
-9.4053 -2.2989 3.2551
-9.2816 -2.3661 3.2497
-9.1597 -2.4317 3.2444
-9.0350 -2.4946 3.2376
-8.9100 -2.5554 3.2302
-8.7819 -2.6132 3.2211
-8.6167 -2.6575 3.1976
-8.5292 -2.7238 3.2025
-8.4060 -2.7770 3.1935
-8.2846 -2.8288 3.1846
-8.1587 -2.8771 3.1735
-8.0346 -2.9239 3.1624
-7.9124 -2.9695 3.1516
-7.7901 -3.0130 3.1401
-7.6644 -3.0532 3.1266
-7.5410 -3.0922 3.1134
-7.4153 -3.1282 3.0986
-7.2877 -3.1612 3.0823
-7.1732 -3.1979 3.0710
-7.0777 -3.2414 3.0672
-6.9832 -3.2840 3.0636
-6.8897 -3.3257 3.0600
-6.7973 -3.3666 3.0564
-6.7059 -3.4066 3.0530
-6.6154 -3.4457 3.0496
-6.5259 -3.4841 3.0463
-6.4372 -3.5216 3.0431
-6.3495 -3.5584 3.0399
-6.2626 -3.5944 3.0368
-6.1767 -3.6297 3.0337
-6.0915 -3.6642 3.0307
-6.0071 -3.6981 3.0278
-5.9235 -3.7312 3.0249
-5.8408 -3.7637 3.0221
-5.7587 -3.7955 3.0194
-5.6774 -3.8267 3.0166
-5.5968 -3.8572 3.0140
-5.5169 -3.8872 3.0114
-5.4377 -3.9165 3.0088
-5.3592 -3.9452 3.0063
-5.2813 -3.9733 3.0039
-5.2040 -4.0008 3.0015
-5.1274 -4.0278 2.9991
-5.0514 -4.0543 2.9968
-4.9760 -4.0802 2.9945
-4.9011 -4.1055 2.9923
-4.8266 -4.1301 2.9900
-4.7465 -4.1489 2.9838
-4.6672 -4.1672 2.9778
-4.5887 -4.1850 2.9719
-4.5111 -4.2023 2.9660
-4.4341 -4.2192 2.9603
-4.3579 -4.2356 2.9546
-4.2825 -4.2516 2.9490
-4.2077 -4.2671 2.9436
-4.1324 -4.2810 2.9373
-4.0578 -4.2944 2.9311
-3.9839 -4.3074 2.9250
-3.9107 -4.3201 2.9190
-3.8382 -4.3323 2.9131
-3.7663 -4.3442 2.9073
-3.6951 -4.3556 2.9016
-3.6238 -4.3659 2.8953
-3.5528 -4.3753 2.8889
-3.4824 -4.3844 2.8826
-3.4126 -4.3932 2.8763
-3.3435 -4.4016 2.8702
-3.2750 -4.4098 2.8641
-3.2070 -4.4176 2.8581
-3.1461 -4.4341 2.8581
-3.0854 -4.4503 2.8580
-3.0250 -4.4662 2.8580
-2.9648 -4.4817 2.8580
-2.9048 -4.4969 2.8580
-2.8450 -4.5118 2.8580
-2.7855 -4.5264 2.8581
-2.7261 -4.5406 2.8582
-2.6670 -4.5546 2.8583
-2.6081 -4.5682 2.8584
-2.5493 -4.5816 2.8586
-2.4908 -4.5946 2.8587
-2.4324 -4.6074 2.8589
-2.3742 -4.6199 2.8591
-2.3161 -4.6320 2.8593
-2.2582 -4.6439 2.8596
-2.2005 -4.6555 2.8598
-2.1429 -4.6668 2.8601
-2.0855 -4.6779 2.8604
-2.0282 -4.6887 2.8607
-1.9711 -4.6992 2.8610
-1.9141 -4.7094 2.8614
-1.8572 -4.7194 2.8618
-1.8004 -4.7290 2.8622
-1.7437 -4.7385 2.8626
-1.6872 -4.7476 2.8630
-1.6307 -4.7565 2.8635
-1.5744 -4.7652 2.8639
-1.5181 -4.7736 2.8644
-1.4619 -4.7817 2.8649
-19.0201 9.0856 3.7190
-18.8217 8.7738 3.7190
-18.6259 8.4698 3.7190
-18.4329 8.1731 3.7190
-18.2422 7.8836 3.7190
-18.0543 7.6010 3.7190
-17.1365 7.0251 3.5666
-16.9609 6.7668 3.5666
-13.4811 5.2316 2.8641
-12.8395 4.8436 2.7559
-12.4841 4.5754 2.7072
-12.2857 4.3715 2.6914
-12.0947 4.1752 2.6767
-11.9869 4.0116 2.6799
-11.9142 3.8624 2.6908
-11.8427 3.7159 2.7018
-11.7725 3.5719 2.7130
-11.7128 3.4331 2.7266
-11.6921 3.3071 2.7492
-11.6715 3.1823 2.7721
-11.6512 3.0584 2.7952
-11.6310 2.9356 2.8184
-11.6110 2.8137 2.8418
-11.6039 2.6957 2.8685
-11.5976 2.5785 2.8957
-11.5914 2.4619 2.9232
-11.5853 2.3458 2.9508
-11.5791 2.2302 2.9787
-11.5679 2.1141 3.0056
-11.5559 1.9985 3.0324
-11.5439 1.8834 3.0595
-11.5320 1.7688 3.0868
-11.5156 1.6542 3.1131
-11.5129 1.5419 3.1434
-11.5102 1.4298 3.1739
-11.5076 1.3180 3.2048
-11.5049 1.2064 3.2360
-11.5023 1.0951 3.2674
-11.4996 0.9838 3.2992
-11.4674 0.8705 3.3228
-11.3286 0.7508 3.3153
-11.1920 0.6340 3.3079
-11.0575 0.5200 3.3008
-10.9250 0.4086 3.2938
-10.7945 0.2998 3.2870
-10.6659 0.1935 3.2803
-10.5391 0.0897 3.2737
-10.4142 -0.0118 3.2674
-10.2890 -0.1109 3.2604
-10.1646 -0.2078 3.2534
-10.0420 -0.3024 3.2465
-9.9213 -0.3949 3.2397
-9.8022 -0.4852 3.2331
-9.6857 -0.5737 3.2270
-9.6333 -0.6644 3.2420
-9.6242 -0.7578 3.2718
-9.6150 -0.8512 3.3019
-9.6058 -0.9447 3.3323
-9.5541 -1.0338 3.3482
-9.4414 -1.1148 3.3426
-9.3302 -1.1942 3.3370
-9.2203 -1.2719 3.3316
-9.1107 -1.3478 3.3259
-8.9973 -1.4212 3.3185
-8.8836 -1.4927 3.3105
-8.7715 -1.5626 3.3026
-8.6272 -1.6246 3.2822
-8.5517 -1.6978 3.2874
-8.4439 -1.7631 3.2800
-8.3352 -1.8264 3.2719
-8.2249 -1.8876 3.2626
-8.1161 -1.9474 3.2536
-8.0089 -2.0058 3.2447
-7.9031 -2.0628 3.2360
-7.7938 -2.1172 3.2255
-7.6851 -2.1700 3.2147
-7.5779 -2.2215 3.2041
-7.4700 -2.2710 3.1927
-7.3593 -2.3179 3.1796
-7.2504 -2.3636 3.1668
-7.1379 -2.4063 3.1520
-7.0248 -2.4469 3.1363
-6.9292 -2.4919 3.1279
-6.8439 -2.5393 3.1239
-6.7596 -2.5857 3.1199
-6.6760 -2.6313 3.1160
-6.5932 -2.6759 3.1122
-6.5111 -2.7197 3.1085
-6.4299 -2.7626 3.1048
-6.3494 -2.8047 3.1012
-6.2695 -2.8460 3.0977
-6.1905 -2.8864 3.0942
-6.1121 -2.9261 3.0908
-6.0343 -2.9650 3.0875
-5.9572 -3.0031 3.0842
-5.8808 -3.0406 3.0810
-5.8051 -3.0773 3.0779
-5.7299 -3.1133 3.0748
-5.6553 -3.1486 3.0718
-5.5813 -3.1832 3.0688
-5.5080 -3.2172 3.0659
-5.4351 -3.2505 3.0630
-5.3628 -3.2831 3.0602
-5.2911 -3.3152 3.0574
-5.2199 -3.3466 3.0547
-5.1492 -3.3774 3.0521
-5.0791 -3.4077 3.0495
-5.0094 -3.4373 3.0469
-4.9402 -3.4664 3.0444
-4.8715 -3.4949 3.0419
-4.8032 -3.5229 3.0395
-4.7355 -3.5503 3.0371
-4.6681 -3.5772 3.0348
-4.6012 -3.6036 3.0325
-4.5347 -3.6294 3.0303
-4.4687 -3.6548 3.0281
-4.4016 -3.6785 3.0249
-4.3311 -3.6983 3.0191
-4.2612 -3.7177 3.0134
-4.1919 -3.7366 3.0078
-4.1232 -3.7550 3.0022
-4.0550 -3.7730 2.9968
-3.9874 -3.7905 2.9914
-3.9204 -3.8076 2.9861
-3.8539 -3.8242 2.9809
-3.7868 -3.8394 2.9749
-3.7204 -3.8542 2.9690
-3.6544 -3.8685 2.9632
-3.5890 -3.8825 2.9575
-3.5241 -3.8961 2.9519
-3.4598 -3.9092 2.9464
-3.3959 -3.9220 2.9409
-3.3321 -3.9340 2.9351
-3.2683 -3.9449 2.9290
-3.2050 -3.9556 2.9229
-3.1422 -3.9658 2.9170
-3.0799 -3.9757 2.9111
-3.0181 -3.9853 2.9053
-2.9567 -3.9946 2.8996
-2.8992 -4.0083 2.8974
-2.8440 -4.0244 2.8972
-2.7889 -4.0403 2.8971
-2.7341 -4.0558 2.8970
-2.6793 -4.0709 2.8969
-2.6248 -4.0858 2.8968
-2.5704 -4.1003 2.8968
-2.5162 -4.1146 2.8968
-2.4621 -4.1285 2.8968
-2.4082 -4.1421 2.8968
-2.3544 -4.1554 2.8968
-2.3007 -4.1684 2.8969
-2.2472 -4.1811 2.8970
-2.1938 -4.1936 2.8971
-2.1405 -4.2057 2.8972
-2.0874 -4.2176 2.8974
-2.0344 -4.2291 2.8975
-1.9814 -4.2404 2.8977
-1.9286 -4.2514 2.8979
-1.8759 -4.2621 2.8981
-1.8233 -4.2726 2.8984
-1.7708 -4.2828 2.8987
-1.7184 -4.2927 2.8989
-1.6661 -4.3023 2.8993
-1.6138 -4.3117 2.8996
-1.5617 -4.3208 2.8999
-1.5096 -4.3296 2.9003
-1.4576 -4.3382 2.9007
-1.4056 -4.3465 2.9011
-1.3538 -4.3545 2.9015
-14.3383 7.0744 3.5666
-14.2359 6.8589 3.5675
-14.1326 6.6468 3.5680
-14.0295 6.4385 3.5686
-13.9267 6.2340 3.5691
-13.8241 6.0332 3.5696
-13.7217 5.8359 3.5701
-13.6196 5.6423 3.5705
-13.5177 5.4521 3.5709
-13.4150 5.2648 3.5710
-13.0156 4.9676 3.4914
-12.5966 4.6726 3.4051
-12.3681 4.4562 3.3693
-12.1751 4.2578 3.3426
-12.0186 4.0767 3.3254
-11.9457 3.9270 3.3312
-11.8740 3.7800 3.3373
-11.8036 3.6356 3.3437
-11.7343 3.4936 3.3504
-11.7014 3.3641 3.3676
-11.6809 3.2393 3.3885
-11.6606 3.1155 3.4097
-11.6404 2.9927 3.4312
-11.5209 2.8463 3.4233
-11.4041 2.7033 3.4160
-11.2883 2.5634 3.4088
-11.1739 2.4265 3.4017
-11.0608 2.2925 3.3948
-10.9490 2.1614 3.3880
-10.8384 2.0330 3.3814
-10.7290 1.9073 3.3748
-10.6208 1.7842 3.3685
-10.5138 1.6637 3.3622
-10.4079 1.5457 3.3561
-10.3031 1.4301 3.3501
-10.1965 1.3165 3.3432
-10.0906 1.2051 3.3364
-9.9858 1.0961 3.3296
-9.8823 0.9894 3.3230
-9.7804 0.8849 3.3167
-9.6853 0.7831 3.3125
-9.6669 0.6885 3.3346
-9.6587 0.5950 3.3604
-9.6504 0.5017 3.3865
-9.6421 0.4085 3.4129
-9.6235 0.3152 3.4359
-9.5246 0.2203 3.4303
-9.4267 0.1273 3.4247
-9.3297 0.0360 3.4193
-9.2327 -0.0534 3.4136
-9.1340 -0.1410 3.4071
-9.0350 -0.2268 3.4001
-8.9371 -0.3109 3.3933
-8.8402 -0.3933 3.3866
-8.7143 -0.4724 3.3685
-8.6197 -0.5513 3.3621
-8.5555 -0.6307 3.3673
-8.4618 -0.7067 3.3609
-8.3655 -0.7808 3.3531
-8.2703 -0.8533 3.3454
-8.1761 -0.9244 3.3379
-8.0829 -0.9940 3.3305
-7.9907 -1.0622 3.3232
-7.8979 -1.1288 3.3154
-7.8030 -1.1935 3.3064
-7.7093 -1.2568 3.2976
-7.6166 -1.3188 3.2890
-7.5250 -1.3795 3.2805
-7.4293 -1.4379 3.2699
-7.3347 -1.4949 3.2594
-7.2413 -1.5507 3.2492
-7.1450 -1.6043 3.2372
-7.0481 -1.6562 3.2246
-6.9514 -1.7066 3.2118
-6.8504 -1.7543 3.1965
-6.7555 -1.8019 3.1837
-6.6793 -1.8532 3.1793
-6.6037 -1.9036 3.1751
-6.5288 -1.9530 3.1709
-6.4544 -2.0015 3.1668
-6.3807 -2.0491 3.1628
-6.3075 -2.0959 3.1588
-6.2349 -2.1418 3.1549
-6.1629 -2.1868 3.1511
-6.0914 -2.2310 3.1473
-6.0204 -2.2744 3.1437
-5.9500 -2.3171 3.1400
-5.8801 -2.3589 3.1365
-5.8107 -2.4000 3.1330
-5.7418 -2.4404 3.1296
-5.6734 -2.4800 3.1262
-5.6054 -2.5189 3.1229
-5.5380 -2.5571 3.1197
-5.4710 -2.5946 3.1165
-5.4044 -2.6314 3.1133
-5.3383 -2.6675 3.1102
-5.2726 -2.7030 3.1072
-5.2074 -2.7379 3.1042
-5.1425 -2.7721 3.1013
-5.0781 -2.8058 3.0984
-5.0141 -2.8388 3.0956
-4.9504 -2.8712 3.0929
-4.8872 -2.9030 3.0901
-4.8243 -2.9342 3.0875
-4.7618 -2.9649 3.0848
-4.6997 -2.9950 3.0822
-4.6379 -3.0246 3.0797
-4.5765 -3.0536 3.0772
-4.5154 -3.0821 3.0748
-4.4546 -3.1101 3.0724
-4.3943 -3.1375 3.0700
-4.3342 -3.1645 3.0677
-4.2744 -3.1909 3.0654
-4.2149 -3.2169 3.0632
-4.1558 -3.2424 3.0610
-4.0970 -3.2674 3.0588
-4.0362 -3.2901 3.0550
-3.9735 -3.3104 3.0495
-3.9113 -3.3303 3.0441
-3.8495 -3.3498 3.0388
-3.7882 -3.3687 3.0335
-3.7273 -3.3873 3.0283
-3.6668 -3.4054 3.0232
-3.6068 -3.4231 3.0182
-3.5472 -3.4403 3.0132
-3.4870 -3.4563 3.0076
-3.4273 -3.4718 3.0020
-3.3680 -3.4870 2.9965
-3.3092 -3.5018 2.9910
-3.2507 -3.5161 2.9857
-3.1926 -3.5301 2.9804
-3.1349 -3.5438 2.9752
-3.0774 -3.5568 2.9699
-3.0197 -3.5688 2.9640
-2.9055 -3.5917 2.9526
-2.9624 -3.5804 2.9583
-2.8489 -3.6026 2.9470
-2.6322 -3.6509 2.9317
-2.7928 -3.6132 2.9415
-2.7370 -3.6234 2.9360
-2.5817 -3.6665 2.9314
-2.6827 -3.6349 2.9319
-2.5315 -3.6818 2.9313
-2.3813 -3.7258 2.9308
-2.3315 -3.7398 2.9307
-2.4813 -3.6968 2.9311
-2.2818 -3.7536 2.9306
-2.4312 -3.7114 2.9309
-2.2322 -3.7670 2.9306
-2.1333 -3.7930 2.9305
-2.1827 -3.7802 2.9305
-1.8878 -3.8530 2.9308
-2.0840 -3.8056 2.9305
-1.8389 -3.8641 2.9309
-2.0348 -3.8179 2.9306
-1.7902 -3.8750 2.9310
-1.7415 -3.8856 2.9312
-1.9857 -3.8299 2.9306
-1.6928 -3.8959 2.9314
-1.9367 -3.8416 2.9307
-1.6443 -3.9059 2.9316
-1.5958 -3.9157 2.9318
-1.5474 -3.9252 2.9320
-1.4990 -3.9344 2.9323
-1.4507 -3.9433 2.9326
-1.4025 -3.9520 2.9329
-1.3543 -3.9605 2.9332
-1.3061 -3.9686 2.9335
-1.2580 -3.9765 2.9339
-11.7095 5.9674 3.5566
-11.6405 5.7966 3.5546
-11.5713 5.6285 3.5526
-11.5011 5.4626 3.5505
-11.4278 5.2981 3.5475
-11.3499 5.1342 3.5432
-11.2749 4.9743 3.5398
-11.1888 4.8123 3.5330
-11.1030 4.6532 3.5262
-11.0136 4.4955 3.5184
-10.9159 4.3373 3.5079
-10.8260 4.1850 3.4998
-10.7249 4.0313 3.4880
-10.6339 3.8841 3.4796
-10.5354 3.7369 3.4685
-10.4463 3.5957 3.4605
-10.3516 3.4551 3.4507
-10.2645 3.3196 3.4432
-10.1741 3.1854 3.4346
-10.0891 3.0553 3.4278
-10.0047 2.9276 3.4211
-9.9222 2.8026 3.4150
-9.8397 2.6798 3.4089
-9.7579 2.5593 3.4029
-9.7169 2.4511 3.4112
-9.7084 2.3520 3.4312
-9.7011 2.2538 3.4518
-9.6938 2.1560 3.4727
-9.6865 2.0587 3.4939
-9.6791 1.9618 3.5154
-9.6278 1.8569 3.5211
-9.5461 1.7477 3.5157
-9.4649 1.6405 3.5104
-9.3841 1.5351 3.5052
-9.3037 1.4315 3.5000
-9.2213 1.3294 3.4940
-9.1386 1.2290 3.4878
-9.0566 1.1305 3.4817
-8.9751 1.0337 3.4757
-8.8941 0.9386 3.4698
-8.8137 0.8453 3.4640
-8.7075 0.7513 3.4479
-8.6545 0.6635 3.4528
-8.5757 0.5751 3.4473
-8.4968 0.4881 3.4416
-8.4156 0.4026 3.4349
-8.3350 0.3186 3.4283
-8.2551 0.2362 3.4218
-8.1757 0.1553 3.4154
-8.0970 0.0758 3.4092
-8.0188 -0.0022 3.4030
-7.9412 -0.0788 3.3969
-7.8605 -0.1540 3.3894
-7.7805 -0.2277 3.3820
-7.7012 -0.3001 3.3747
-7.6225 -0.3711 3.3676
-7.5444 -0.4407 3.3605
-7.4645 -0.5090 3.3524
-7.3838 -0.5757 3.3438
-7.3038 -0.6412 3.3353
-7.2245 -0.7054 3.3270
-7.1434 -0.7680 3.3176
-7.0611 -0.8292 3.3074
-6.9797 -0.8891 3.2974
-6.8966 -0.9474 3.2864
-6.8117 -1.0041 3.2742
-6.7273 -1.0594 3.2621
-6.6383 -1.1126 3.2473
-6.5548 -1.1653 3.2350
-6.4875 -1.2197 3.2305
-6.4206 -1.2731 3.2260
-6.3541 -1.3256 3.2216
-6.2881 -1.3772 3.2172
-6.2225 -1.4279 3.2130
-6.1573 -1.4777 3.2088
-6.0925 -1.5267 3.2047
-6.0281 -1.5748 3.2006
-5.9642 -1.6221 3.1966
-5.9006 -1.6686 3.1927
-5.8374 -1.7143 3.1889
-5.7745 -1.7592 3.1851
-5.7121 -1.8034 3.1813
-5.6500 -1.8468 3.1777
-5.5883 -1.8894 3.1741
-5.5269 -1.9314 3.1705
-5.4659 -1.9726 3.1671
-5.4052 -2.0131 3.1636
-5.3449 -2.0529 3.1603
-5.2849 -2.0921 3.1569
-5.2252 -2.1306 3.1537
-5.1658 -2.1684 3.1505
-5.1068 -2.2056 3.1473
-5.0481 -2.2421 3.1442
-4.9897 -2.2781 3.1412
-4.9315 -2.3134 3.1382
-4.8737 -2.3481 3.1352
-4.8162 -2.3823 3.1323
-4.7589 -2.4158 3.1295
-4.7020 -2.4488 3.1267
-4.6453 -2.4812 3.1239
-4.5889 -2.5130 3.1212
-4.5327 -2.5443 3.1186
-4.4769 -2.5751 3.1159
-4.4213 -2.6053 3.1134
-4.3659 -2.6350 3.1108
-4.3108 -2.6642 3.1083
