ply
format ascii 1.0
element vertex 1222
property float32 x
property float32 y
property float32 z
end_header
-4.8111 19.1842 -9.6463
-13.3008 5.0160 -4.1622
-12.7778 4.6745 -3.9445
-12.4532 4.4163 -3.7923
-12.2505 4.2084 -3.6801
-3.4589 19.3199 -8.5515
-3.7117 19.5097 -8.6406
-3.8112 18.9134 -8.3818
-5.0560 19.5564 -8.6990
-4.1732 19.6097 -8.6962
-4.3907 19.5866 -8.6921
-4.4878 19.0509 -8.4606
-4.7879 19.3826 -8.6146
-20.5615 19.4152 -9.7096
-20.9613 19.3884 -9.7374
-21.8613 19.0052 -9.6738
-13.6792 5.2056 -3.5405
-12.9106 4.7678 -3.2904
-12.5183 4.4831 -3.1415
-3.0565 19.7890 -7.6593
-3.2719 19.7777 -7.6577
-3.4385 19.4875 -7.5483
-3.4906 18.6166 -7.2140
-3.7642 18.9546 -7.3482
-4.1191 19.6407 -7.6178
-4.3192 19.5524 -7.5873
-4.4971 19.3727 -7.5215
-4.6963 19.2936 -7.4949
-4.7812 18.7685 -7.2952
-5.1608 19.3915 -7.5419
-5.1576 18.5800 -7.2308
-21.3113 19.3116 -8.2375
-20.5360 19.3856 -8.2166
-21.5660 19.1466 -8.1943
-20.8384 19.2732 -8.1946
-21.4419 18.6502 -8.0092
-22.2184 18.9329 -8.1592
-38.8317 19.0081 -9.3627
-38.8947 18.5640 -9.2178
-37.8355 18.9873 -9.2804
-13.0379 4.8572 -2.6348
-3.2123 19.6952 -6.5776
-3.3322 19.1552 -6.3985
-3.6020 19.4866 -6.5105
-3.6312 18.5477 -6.1981
-3.8935 18.8322 -6.2946
-4.2479 19.5068 -6.5217
-4.4310 19.3643 -6.4756
-4.6188 19.2500 -6.4391
-4.8225 19.2054 -6.4260
-4.9301 18.7946 -6.2904
-5.0152 18.3313 -6.1372
-5.4360 19.0787 -6.3894
-20.1346 19.3867 -6.7684
-20.5068 19.3496 -6.7661
-20.7978 19.2311 -6.7355
-21.1752 19.1876 -6.7315
-21.4087 19.0099 -6.6805
-21.7474 18.9225 -6.6616
-21.7779 18.5675 -6.5485
-21.6084 18.0511 -6.3783
-21.5668 17.6518 -6.2492
-37.9518 19.6186 -7.3680
-37.7199 19.0301 -7.1761
-38.3399 18.8717 -7.1465
-38.7479 18.6013 -7.0752
-37.8439 17.7117 -6.7678
-38.6833 17.6435 -6.7741
-2.7869 18.5576 -5.2409
-3.0589 19.0177 -5.3705
-3.3082 19.2850 -5.4456
-3.6098 19.8038 -5.5916
-3.5764 18.5258 -5.2303
-3.9914 19.5788 -5.5272
-4.1871 19.5005 -5.5046
-4.4019 19.5105 -5.5068
-4.5147 19.0845 -5.3861
-4.9036 19.8073 -5.5894
-4.8791 18.8665 -5.3234
-5.0042 18.5533 -5.2344
-5.2493 18.6887 -5.2719
-20.5185 20.1423 -5.5896
-20.2219 19.4574 -5.3962
-20.6201 19.4470 -5.3897
-20.3771 18.8364 -5.2170
-21.1357 19.1497 -5.3001
-21.3868 18.9919 -5.2527
-21.4588 18.6765 -5.1616
-21.5075 18.3454 -5.0662
-21.3433 17.8412 -4.9231
-22.1049 18.1073 -4.9925
-30.4508 16.5842 -4.4707
-37.5021 19.9504 -5.3689
-37.8227 19.6480 -5.2781
-37.6562 19.0957 -5.1201
-37.8064 18.7091 -5.0067
-38.6257 18.6466 -4.9797
-38.5060 18.1271 -4.8306
-37.9585 17.4186 -4.6313
-2.7221 19.7773 -4.5953
-2.7413 18.5071 -4.2986
-2.9749 18.7522 -4.3538
-3.2541 19.2334 -4.4636
-3.5283 19.6261 -4.5526
-3.7373 19.6292 -4.5511
-3.9350 19.5720 -4.5355
-4.0801 19.2683 -4.4627
-4.1795 18.7846 -4.3482
-4.5204 19.3771 -4.4826
-4.6133 18.8975 -4.3689
-4.8452 19.0001 -4.3897
-5.0576 19.0169 -4.3905
-5.2092 18.8092 -4.3394
-5.3583 18.6050 -4.2890
-5.6304 18.8230 -4.3358
-12.4902 19.2689 -4.2712
-25.1748 37.9939 -8.4042
-25.5151 37.6783 -8.3164
-25.8545 37.3644 -8.2287
-26.1929 37.0521 -8.1411
-27.4259 37.9811 -8.3255
-27.7598 37.6417 -8.2309
-19.8016 19.4221 -4.0332
-20.1576 19.3828 -4.0082
-20.5027 19.3273 -3.9793
-20.8526 19.2708 -3.9498
-21.0042 19.0289 -3.8821
-21.2797 18.8989 -3.8370
-21.3364 18.5753 -3.7524
-21.9088 18.6965 -3.7574
-21.3478 17.8567 -3.5693
-22.2542 18.2449 -3.6266
-36.9135 19.2691 -3.1556
-37.2952 19.0089 -3.0659
-37.9078 18.8591 -2.9930
-38.1842 18.5359 -2.8917
-37.8624 17.9274 -2.7461
-39.5364 18.2523 -2.7420
-2.6889 19.8044 -3.6314
-2.6938 18.4363 -3.3777
-2.9170 18.6400 -3.4120
-3.1457 18.8488 -3.4469
-3.3963 19.1530 -3.4990
-3.6232 19.2930 -3.5208
-3.8609 19.4693 -3.5488
-4.0620 19.4487 -3.5408
-4.2731 19.4721 -3.5405
-4.4699 19.4276 -3.5276
-4.6078 19.1384 -3.4702
-4.7644 18.9447 -3.4299
-4.9186 18.7540 -3.3901
-5.1966 19.0279 -3.4340
-5.3622 18.8811 -3.4017
-5.7581 19.5227 -3.5110
-5.9618 19.4857 -3.4979
-24.5295 40.1953 -6.6802
-24.9628 40.0027 -6.6174
-25.0863 39.3224 -6.4738
-24.6639 37.8240 -6.1964
-25.1749 37.7804 -6.1576
-25.7113 37.7657 -6.1227
-25.9439 37.3045 -6.0150
-26.7753 37.6953 -6.0437
-27.7756 38.2923 -6.1036
-19.7297 20.1131 -2.8501
-19.5885 19.5803 -2.7458
-20.0047 19.6072 -2.7198
-20.0461 19.2654 -2.6424
-20.3950 19.2192 -2.6052
-20.7492 19.1722 -2.5670
-21.5564 19.5298 -2.5816
-21.1977 18.8300 -2.4560
-21.4884 18.7150 -2.4070
-21.9789 18.7671 -2.3786
-22.3762 18.7311 -2.3379
-22.2185 18.2327 -2.2394
-23.0935 18.5762 -2.2434
-36.9157 19.8233 -1.2820
-37.1531 19.4903 -1.1782
-37.6957 19.3126 -1.0825
-37.5113 18.7628 -0.9655
-38.2821 18.6883 -0.8720
-37.6026 17.9091 -0.7459
-38.5037 17.8844 -0.6511
-38.8240 17.5798 -0.5435
-38.7639 17.1041 -0.4303
4.5226 19.5567 -2.5923
-2.4684 19.9438 -2.7007
-2.6733 19.9583 -2.6987
-2.8625 19.8587 -2.6810
-3.0305 19.6310 -2.6457
-3.0801 18.7088 -2.5168
-3.3381 19.0835 -2.5622
-3.6243 19.5645 -2.6213
-3.7189 19.0121 -2.5417
-3.9612 19.2286 -2.5646
-4.2226 19.5088 -2.5956
-4.3576 19.2024 -2.5482
-4.5252 19.0570 -2.5219
-4.7218 19.0371 -2.5120
-4.9564 19.1623 -2.5209
-5.1295 19.0456 -2.4976
-5.2848 18.8704 -2.4665
-5.6310 19.3606 -2.5218
-5.8083 19.2522 -2.4986
-24.2168 39.4225 -4.3347
-25.1168 39.9984 -4.3536
-25.3903 38.7192 -4.1246
-24.9958 37.3117 -3.9296
-25.5545 37.3460 -3.8868
-26.2396 37.5499 -3.8601
-26.5637 37.2293 -3.7783
-27.3131 37.4953 -3.7547
-27.7181 37.2770 -3.6811
-27.8790 36.7353 -3.5752
-30.4473 39.3130 -3.7685
-30.8843 39.0802 -3.6872
-29.8301 36.9956 -3.4332
-30.3021 36.8373 -3.3598
-19.8479 20.2153 -1.5092
-19.9345 19.9119 -1.4444
-20.0029 19.5951 -1.3788
-20.0884 19.2996 -1.3147
-20.4450 19.2635 -1.2678
-20.8072 19.2266 -1.2196
-21.3892 19.3827 -1.1820
-21.3888 19.0075 -1.1111
-21.4286 18.6739 -1.0429
-22.0319 18.8269 -1.0009
-22.2384 18.6335 -0.9390
-21.7841 17.8966 -0.8507
-21.7385 17.5092 -0.7807
-38.0377 19.1330 1.0445
-38.2240 18.7691 1.1531
-38.2996 18.3523 1.2587
-38.2572 17.8827 1.3603
4.4673 19.5860 -1.6507
-2.6235 19.8548 -1.7411
-2.8241 19.8604 -1.7361
-3.0101 19.7664 -1.7221
-2.9778 18.3359 -1.5917
-3.4207 19.8242 -1.7142
-3.6542 19.9980 -1.7221
-3.7549 19.4610 -1.6685
-3.9936 19.6537 -1.6771
-4.0551 18.9943 -1.6129
-4.2956 19.1920 -1.6212
-4.5473 19.4164 -1.6311
-4.7446 19.3959 -1.6199
-4.9423 19.3751 -1.6083
-4.7681 17.9518 -1.4806
-5.3360 19.3208 -1.5828
-5.5046 19.1930 -1.5612
-5.6732 19.0705 -1.5397
-5.8405 18.9485 -1.5180
-6.0066 18.8273 -1.4961
-23.3812 38.6650 -2.1433
-23.8972 38.6623 -2.0884
-24.3799 38.5977 -2.0287
-12.4639 19.3134 -0.9862
-25.9901 39.4256 -1.9526
-26.0268 38.6577 -1.8535
-26.2231 38.1435 -1.7668
-27.0110 38.4829 -1.7183
-26.5773 37.0935 -1.5926
-27.9078 38.1623 -1.5711
-27.9537 37.4567 -1.4741
-27.9197 36.6637 -1.3746
-29.0045 37.3317 -1.3281
-20.1208 19.3297 0.0118
-20.5281 19.3445 0.0700
-20.6355 19.0741 0.1281
-21.1353 19.1623 0.1899
-21.4188 19.0473 0.2514
-21.0325 18.3447 0.3043
-21.5304 18.4178 0.3699
-21.5050 18.0412 0.4274
-21.4799 17.6716 0.4843
-30.6093 18.9508 1.7923
-44.5133 21.9931 3.7103
-41.4588 19.9943 3.5579
-40.3013 18.9646 3.5579
-39.2067 17.9950 3.5579
4.5332 47.7557 -1.9847
4.0654 47.7732 -1.9959
3.5978 47.7882 -2.0059
3.1303 47.8009 -2.0146
2.6631 47.8111 -2.0221
2.1960 47.8189 -2.0284
1.7291 47.8243 -2.0334
1.2624 47.8272 -2.0371
0.7958 47.8277 -2.0397
0.3292 47.8258 -2.0410
-0.1371 47.8215 -2.0410
-0.6035 47.8147 -2.0398
-1.0697 47.8056 -2.0374
-1.5359 47.7940 -2.0337
-2.0020 47.7800 -2.0288
-2.4681 47.7636 -2.0227
-2.9342 47.7447 -2.0153
-3.4003 47.7235 -2.0067
-3.8663 47.6998 -1.9968
-4.3324 47.6737 -1.9858
-4.7985 47.6451 -1.9734
-5.2647 47.6141 -1.9598
-5.7309 47.5807 -1.9450
-2.5818 19.8072 -0.8036
-2.7842 19.8495 -0.7987
-2.9881 19.8921 -0.7933
-3.1934 19.9349 -0.7874
-3.3049 19.4179 -0.7591
-3.4975 19.4055 -0.7502
-3.6906 19.3929 -0.7409
-3.8840 19.3800 -0.7310
-4.1177 19.5566 -0.7277
-4.2708 19.3478 -0.7095
-4.4492 19.2637 -0.6956
-4.6268 19.1796 -0.6813
-4.8036 19.0959 -0.6665
-5.1029 19.4832 -0.6675
-5.2289 19.2005 -0.6449
-5.3993 19.0924 -0.6279
-5.5687 18.9849 -0.6105
-5.7344 18.8693 -0.5925
-24.8380 39.1101 0.1431
-12.4904 19.2556 0.1061
-25.2278 38.0846 0.2825
-25.7546 38.0794 0.3569
-26.3217 38.1232 0.4340
-26.9204 38.2001 0.5138
-27.5821 38.3515 0.5973
-29.1335 39.6991 0.7049
-29.1311 38.9074 0.7780
-27.6309 33.4365 1.0757
-28.0827 33.3283 1.1602
-28.6220 33.3157 1.2502
-29.1695 33.3030 1.3427
-29.7256 33.2901 1.4377
-30.2907 33.2770 1.5354
-30.8650 33.2636 1.6357
-31.3676 33.1642 1.7343
-32.0390 33.2324 1.8445
-32.6431 33.2184 1.9534
-33.2579 33.2041 2.0654
-33.8839 33.1895 2.1806
-34.5213 33.1747 2.2991
-35.1708 33.1596 2.4209
-35.8327 33.1442 2.5463
-21.3499 19.3739 1.5646
-37.2020 33.1181 2.8086
-21.0805 18.4095 1.6381
-38.9575 29.1132 3.7103
-38.0848 27.9011 3.7103
-37.2504 26.7499 3.7103
-36.4519 25.6554 3.7103
-35.6867 24.6135 3.7103
-34.9528 23.6209 3.7103
-34.2480 22.6742 3.7103
-33.5707 21.7704 3.7103
-31.5667 20.0481 3.5579
-30.5839 19.0192 3.5141
-30.3849 18.4982 3.5579
-29.8254 17.7721 3.5579
-29.7435 17.3433 3.6136
-29.9953 17.1112 3.7103
-29.4692 16.4427 3.7103
-28.9600 15.8006 3.7103
-28.4670 15.1833 3.7103
-27.9894 14.5895 3.7103
-27.5263 14.0181 3.7103
-27.0771 13.4677 3.7103
-26.6410 12.9374 3.7103
-26.2175 12.4261 3.7103
4.5346 19.5533 0.2315
4.0660 48.4399 0.2393
3.5968 48.4354 0.2282
3.1285 48.4308 0.2185
2.6607 48.4263 0.2101
2.1935 48.4218 0.2031
1.7268 48.4173 0.1974
1.2605 48.4129 0.1931
0.7945 48.4082 0.1901
0.3287 48.4035 0.1885
-0.1369 48.3988 0.1882
-0.6025 48.3942 0.1893
-1.0681 48.3895 0.1916
-1.5337 48.3848 0.1954
-1.9996 48.3801 0.2004
-2.4657 48.3754 0.2069
-2.9322 48.3707 0.2146
-3.3991 48.3660 0.2237
-3.8666 48.3613 0.2342
-4.3346 48.3566 0.2460
-4.8033 48.3518 0.2592
-5.2727 48.3471 0.2738
-5.7431 48.3424 0.2897
-6.2143 48.3376 0.3070
-6.6866 48.3329 0.3258
-2.9070 19.6214 0.1404
-3.1026 19.6381 0.1493
-3.2991 19.6546 0.1588
-3.4912 19.6411 0.1686
-3.6410 19.4002 0.1769
-3.7525 18.9868 0.1839
-4.0550 19.5295 0.2007
-4.2744 19.6366 0.2141
-4.4089 19.3586 0.2238
-4.5795 19.2524 0.2358
-4.4889 18.0979 0.2347
-4.9173 19.0414 0.2613
-5.1132 19.0434 0.2763
-5.2701 18.9018 0.2897
-5.6320 19.4762 0.3150
-15.2265 33.6375 1.1183
-15.5707 33.5415 1.1638
-15.9969 33.6154 1.2167
-16.3879 33.6064 1.2682
-16.7821 33.5972 1.3211
-17.1798 33.5880 1.3756
-17.5811 33.5787 1.4316
-17.9860 33.5693 1.4892
-18.3948 33.5598 1.5484
-18.8075 33.5502 1.6092
-19.2242 33.5405 1.6718
-19.6452 33.5307 1.7360
-20.0705 33.5208 1.8021
-20.4840 33.4843 1.8684
-20.8790 33.4118 1.9344
-21.3698 33.4842 2.0107
-12.5502 19.2586 1.1990
-22.2631 33.4634 2.1596
-22.7176 33.4529 2.2371
-23.1775 33.4422 2.3166
-23.6431 33.4314 2.3983
-24.1146 33.4204 2.4822
-24.5921 33.4093 2.5683
-25.0758 33.3981 2.6567
-25.5660 33.3867 2.7475
-25.9977 33.2916 2.8336
-26.5657 33.3622 2.9363
-27.0766 33.3503 3.0346
-27.5949 33.3383 3.1355
-28.1209 33.3261 3.2392
-28.6549 33.3137 3.3457
-30.0693 34.2960 3.5583
-29.6679 33.1991 3.5579
-29.2785 32.1460 3.5579
-29.0674 31.3142 3.5789
-29.5918 31.2806 3.6911
-29.3636 30.4575 3.7103
-28.9897 29.5064 3.7103
-28.6231 28.5880 3.7103
-28.2638 27.7008 3.7103
-27.9115 26.8434 3.7103
-27.5659 26.0146 3.7103
-27.2270 25.2132 3.7103
-21.0466 19.1241 2.9035
-21.2907 18.9823 2.9733
-26.2481 22.9615 3.7103
-25.9337 22.2583 3.7103
-24.5726 20.6909 3.5579
-24.2820 20.0580 3.5579
-23.9965 19.4447 3.5579
-23.7161 18.8500 3.5579
-23.4406 18.2733 3.5579
-23.1698 17.7138 3.5579
-23.3396 17.4977 3.6256
-23.6119 17.3569 3.7103
-23.3437 16.8234 3.7103
-23.0799 16.3053 3.7103
-22.8204 15.8020 3.7103
-22.5651 15.3130 3.7103
-22.3140 14.8378 3.7103
-22.0669 14.3757 3.7103
-21.8237 13.9265 3.7103
-21.5843 13.4895 3.7103
-21.3485 13.0645 3.7103
-21.1164 12.6508 3.7103
-20.8878 12.2482 3.7103
-20.6627 11.8563 3.7103
-20.4409 11.4747 3.7103
-20.2223 11.1031 3.7103
-20.0070 10.7410 3.7103
-19.7948 10.3883 3.7103
-19.5856 10.0446 3.7103
-19.3794 9.7095 3.7103
-19.1760 9.3829 3.7103
9.5428 34.2008 2.1853
9.1927 34.1927 2.1524
8.8445 34.1847 2.1209
8.4981 34.1767 2.0906
8.1534 34.1687 2.0616
4.4719 19.5590 1.1645
7.4689 34.1529 2.0073
7.1290 34.1451 1.9819
6.7905 34.1373 1.9578
6.4534 34.1295 1.9349
6.1176 34.1217 1.9132
5.7831 34.1140 1.8927
5.4360 34.0202 1.8686
5.1049 34.0145 1.8505
4.7861 34.0890 1.8379
4.4560 34.0814 1.8220
4.1268 34.0738 1.8072
3.7984 34.0662 1.7935
3.4709 34.0586 1.7809
3.1441 34.0511 1.7695
2.8181 34.0435 1.7591
2.4926 34.0360 1.7499
2.1678 34.0285 1.7417
1.8434 34.0210 1.7346
1.5196 34.0135 1.7286
1.1961 34.0061 1.7237
0.8730 33.9986 1.7199
0.5502 33.9911 1.7172
0.2270 33.8998 1.7113
-0.0946 33.8924 1.7107
-0.4172 33.9806 1.7160
-0.7395 33.9732 1.7175
-1.0619 33.9657 1.7201
-1.3842 33.9583 1.7238
-1.7067 33.9508 1.7286
-2.0293 33.9433 1.7345
-2.3521 33.9359 1.7414
-2.6752 33.9284 1.7494
-2.9986 33.9209 1.7585
-3.3224 33.9134 1.7687
-3.6466 33.9059 1.7799
-3.9713 33.8984 1.7923
-4.2966 33.8908 1.8058
-4.6225 33.8833 1.8203
-4.9349 33.7793 1.8308
-5.2633 33.7846 1.8482
-5.6022 33.8476 1.8700
-5.9309 33.8400 1.8891
-3.5558 19.2157 1.0844
-3.7472 19.2297 1.0976
-4.0130 19.6025 1.1321
-4.1748 19.4532 1.1374
-4.1877 18.6505 1.1044
-4.4356 18.9147 1.1349
-4.6190 18.8904 1.1489
-4.9027 19.2586 1.1878
-8.9382 33.7703 2.1131
-9.2789 33.7624 2.1440
-9.6211 33.7545 2.1762
-9.9650 33.7465 2.2096
-10.2851 33.6552 2.2388
-10.6316 33.6472 2.2747
-11.0110 33.7342 2.3185
-11.3623 33.7261 2.3572
-11.7155 33.7179 2.3973
-12.0708 33.7097 2.4387
-12.4283 33.7014 2.4816
-12.7880 33.6930 2.5258
-13.1501 33.6846 2.5715
-13.5146 33.6761 2.6186
-13.8816 33.6676 2.6672
-14.2511 33.6590 2.7174
-14.6234 33.6504 2.7690
-14.9985 33.6417 2.8223
-15.3366 33.5459 2.8696
-15.7185 33.5412 2.9263
-16.1394 33.6110 2.9912
-16.5265 33.6020 3.0510
-16.9170 33.5930 3.1125
-17.3109 33.5838 3.1757
-17.7083 33.5746 3.2407
-18.1093 33.5653 3.3075
-18.5141 33.5558 3.3762
-18.9229 33.5463 3.4468
-19.5484 33.9057 3.5580
-19.5554 33.1924 3.5579
-19.5560 32.4910 3.5579
-19.5500 31.8005 3.5579
-19.7980 31.5356 3.6053
-20.1983 31.5117 3.6816
-20.3304 31.0714 3.7103
-20.2996 30.3974 3.7103
-20.2635 29.7349 3.7103
-20.2222 29.0839 3.7103
-20.1761 28.4442 3.7103
-20.1254 27.8159 3.7103
-20.0703 27.1987 3.7103
-20.0110 26.5928 3.7103
-19.9479 25.9978 3.7103
-19.8810 25.4138 3.7103
-19.8106 24.8407 3.7103
-19.7372 24.2781 3.7103
-19.6604 23.7262 3.7103
-19.5809 23.1847 3.7103
-19.4985 22.6534 3.7103
-19.4136 22.1322 3.7103
-18.5325 20.7329 3.5579
-18.4466 20.2521 3.5579
-18.3587 19.7806 3.5579
-18.2688 19.3182 3.5579
-18.1773 18.8647 3.5579
-18.0840 18.4201 3.5579
-17.9893 17.9841 3.5579
-17.9754 17.6373 3.5743
-18.2924 17.6157 3.6572
-18.4551 17.4429 3.7103
-18.3510 17.0227 3.7103
-18.2459 16.6107 3.7103
-18.1398 16.2068 3.7103
-18.0328 15.8108 3.7103
-17.9250 15.4225 3.7103
-17.8165 15.0418 3.7103
-17.7073 14.6686 3.7103
-17.5975 14.3027 3.7103
-17.4872 13.9439 3.7103
-17.3765 13.5922 3.7103
-17.2653 13.2473 3.7103
-17.1538 12.9091 3.7103
-17.0420 12.5775 3.7103
-16.9300 12.2524 3.7103
-16.8177 11.9335 3.7103
-16.7054 11.6209 3.7103
-16.5929 11.3142 3.7103
-16.4804 11.0135 3.7103
-16.3678 10.7186 3.7103
-16.2552 10.4294 3.7103
-16.1427 10.1457 3.7103
-16.0303 9.8675 3.7103
-15.9179 9.5945 3.7103
-15.8057 9.3268 3.7103
-15.6937 9.0642 3.7103
-15.5819 8.8065 3.7103
-15.4702 8.5537 3.7103
-15.3588 8.3057 3.7103
-15.2477 8.0624 3.7103
-15.1370 7.8236 3.7103
-15.0262 7.5893 3.7103
8.8629 32.2330 3.6196
8.5396 32.2314 3.5854
8.2305 32.2792 3.5579
7.9809 32.5673 3.5579
7.7253 32.8482 3.5579
7.4639 33.1215 3.5579
7.1966 33.3868 3.5579
6.9238 33.6439 3.5579
6.6454 33.8923 3.5579
6.3618 34.1317 3.5579
6.0729 34.3618 3.5579
5.7793 34.5832 3.5580
5.4808 34.7946 3.5581
5.0443 34.0940 3.4666
4.7180 34.0864 3.4472
4.3926 34.0789 3.4290
4.0682 34.0714 3.4122
3.7446 34.0639 3.3965
3.4218 34.0565 3.3822
3.0997 34.0490 3.3691
2.7783 34.0416 3.3572
2.4574 34.0342 3.3465
2.1372 34.0268 3.3371
1.8175 34.0194 3.3289
1.4982 34.0120 3.3219
1.1793 34.0047 3.3161
0.8607 33.9973 3.3115
0.5424 33.9899 3.3082
0.2238 33.8988 3.2979
-0.0932 33.8914 3.2969
-0.4114 33.9798 3.3064
-0.7292 33.9724 3.3079
-1.0469 33.9650 3.3105
-1.3648 33.9577 3.3144
-1.6827 33.9503 3.3194
-2.0007 33.9430 3.3257
-2.3190 33.9356 3.3331
-2.6375 33.9282 3.3418
-2.9564 33.9209 3.3517
-3.2756 33.9135 3.3628
-3.5952 33.9061 3.3751
-3.9153 33.8987 3.3886
-4.2359 33.8912 3.4034
-4.5571 33.8838 3.4194
-4.8650 33.7799 3.4269
-5.1867 33.7724 3.4453
-5.6572 34.6729 3.5582
-5.9528 34.4556 3.5581
-6.2436 34.2285 3.5580
-6.5292 33.9918 3.5579
-6.8098 33.7473 3.5579
-4.1064 19.4129 2.0622
-7.3544 33.2317 3.5579
-7.6183 32.9617 3.5579
-7.8764 32.6839 3.5579
-8.1285 32.3987 3.5579
-8.3746 32.1066 3.5579
-8.6199 31.8276 3.5601
-8.9329 31.8035 3.5918
-9.2499 31.7894 3.6260
-9.5682 31.7751 3.6615
-9.8879 31.7604 3.6983
-10.1375 31.5232 3.7103
-10.3485 31.1785 3.7103
-10.5529 30.8296 3.7103
-10.7506 30.4768 3.7103
-10.9417 30.1206 3.7103
-11.1263 29.7612 3.7103
-11.3042 29.3990 3.7103
-11.4757 29.0343 3.7103
-11.6406 28.6675 3.7103
-11.7992 28.2989 3.7103
-11.9513 27.9287 3.7103
-12.0972 27.5573 3.7103
-12.2368 27.1850 3.7103
-12.3703 26.8120 3.7103
-12.4977 26.4386 3.7103
-12.6192 26.0650 3.7103
-12.7347 25.6916 3.7103
-12.8445 25.3185 3.7103
-12.9486 24.9459 3.7103
-13.0470 24.5742 3.7103
-13.1400 24.2034 3.7103
-13.2276 23.8338 3.7103
-13.3100 23.4656 3.7103
-13.3871 23.0989 3.7103
-13.4592 22.7340 3.7103
-13.5264 22.3709 3.7103
-13.0306 21.1057 3.5579
-13.0858 20.7616 3.5579
-13.1367 20.4196 3.5579
-13.1832 20.0799 3.5579
-13.2256 19.7427 3.5579
-13.2638 19.4080 3.5579
-13.2981 19.0759 3.5579
-13.3285 18.7465 3.5579
-13.3551 18.4200 3.5579
-13.3781 18.0962 3.5579
-13.3975 17.7755 3.5579
-13.6279 17.7367 3.6148
-13.8781 17.7201 3.6777
-14.0109 17.5522 3.7103
-14.0174 17.2306 3.7103
-14.0207 16.9122 3.7103
-14.0209 16.5971 3.7103
-14.0181 16.2855 3.7103
-14.0124 15.9773 3.7103
-14.0040 15.6726 3.7103
-13.9928 15.3713 3.7103
-13.9790 15.0735 3.7103
-13.9626 14.7792 3.7103
-13.9439 14.4883 3.7103
-13.9227 14.2010 3.7103
-13.8989 13.9168 3.7102
-13.8729 13.6361 3.7101
-13.8448 13.3589 3.7100
-13.8146 13.0852 3.7099
-13.7825 12.8151 3.7098
-13.7485 12.5484 3.7097
-13.7127 12.2851 3.7096
-13.6751 12.0253 3.7095
-13.6359 11.7690 3.7094
-13.5950 11.5161 3.7092
-13.5527 11.2666 3.7092
-13.5090 11.0205 3.7091
-13.4638 10.7779 3.7091
-13.4173 10.5385 3.7090
-13.3694 10.3024 3.7090
-13.3203 10.0695 3.7089
-13.2700 9.8399 3.7088
-13.2184 9.6135 3.7088
-13.1658 9.3902 3.7087
-13.1121 9.1700 3.7087
-13.0574 8.9530 3.7086
-13.0017 8.7390 3.7085
-12.9450 8.5281 3.7085
-12.8875 8.3201 3.7084
-12.8322 8.1171 3.7092
-12.7749 7.9161 3.7097
-12.7161 7.7176 3.7100
-12.6562 7.5217 3.7101
-12.5950 7.3283 3.7101
-12.5324 7.1372 3.7099
-12.4689 6.9488 3.7096
-11.8821 6.4781 3.5530
-11.8163 6.3008 3.5515
-11.7499 6.1260 3.5500
6.2390 23.0333 3.7103
6.0559 23.2014 3.7103
5.8694 23.3652 3.7103
5.6797 23.5245 3.7103
4.5285 19.5435 3.0623
5.2908 23.8292 3.7103
5.0918 23.9743 3.7103
4.8899 24.1143 3.7103
4.6851 24.2491 3.7103
4.4775 24.3786 3.7103
4.2674 24.5026 3.7103
4.0546 24.6209 3.7103
3.8394 24.7336 3.7103
3.6219 24.8404 3.7103
3.4022 24.9412 3.7103
3.1803 25.0359 3.7103
2.9566 25.1244 3.7103
2.7309 25.2066 3.7103
2.5036 25.2824 3.7103
2.2747 25.3518 3.7103
2.0443 25.4146 3.7103
1.8127 25.4708 3.7103
1.5799 25.5202 3.7103
1.3460 25.5630 3.7103
1.1114 25.5989 3.7103
0.8760 25.6279 3.7103
0.6401 25.6502 3.7103
0.4037 25.6654 3.7103
0.1671 25.6738 3.7103
-0.0696 25.6752 3.7103
-0.3063 25.6697 3.7103
-0.5428 25.6573 3.7103
-0.7789 25.6379 3.7103
-1.0145 25.6117 3.7103
-1.2495 25.5786 3.7103
-1.4837 25.5387 3.7103
-1.7169 25.4920 3.7103
-1.9491 25.4386 3.7103
-2.1800 25.3784 3.7103
-2.4095 25.3118 3.7103
-2.6375 25.2386 3.7103
-2.8638 25.1590 3.7103
-3.0884 25.0731 3.7103
-3.3110 24.9809 3.7103
-3.5316 24.8826 3.7103
-3.7501 24.7783 3.7103
-3.9662 24.6680 3.7103
-4.1800 24.5520 3.7103
-4.3913 24.4303 3.7103
-4.5999 24.3031 3.7103
-4.8059 24.1705 3.7103
-4.0528 19.4449 3.0020
-4.2190 19.3484 3.0050
-5.4064 23.7416 3.7103
-5.6006 23.5888 3.7103
-5.7916 23.4313 3.7103
-5.9794 23.2693 3.7103
-6.1639 23.1030 3.7103
-6.3451 22.9325 3.7103
-6.5229 22.7579 3.7103
-6.6972 22.5794 3.7103
-6.8679 22.3972 3.7103
-6.7462 21.2991 3.5579
-6.9032 21.1178 3.5579
-7.0566 20.9333 3.5579
-7.2065 20.7458 3.5579
-7.3530 20.5556 3.5579
-7.4959 20.3628 3.5579
-7.6352 20.1674 3.5579
-7.7710 19.9697 3.5579
-7.9031 19.7698 3.5579
-8.0317 19.5679 3.5579
-8.1568 19.3640 3.5579
-8.2782 19.1584 3.5579
-8.3961 18.9512 3.5579
-8.5104 18.7425 3.5579
-8.6211 18.5324 3.5579
-8.7282 18.3212 3.5579
-8.8320 18.1088 3.5579
-8.9324 17.8955 3.5579
-9.1155 17.8507 3.5920
-9.7838 17.5390 3.7102
-9.3168 17.8388 3.6337
-9.8670 17.3129 3.7102
-9.5197 17.8267 3.6766
-9.6971 17.7648 3.7103
-9.9467 17.0867 3.7101
-10.0231 16.8604 3.7101
-10.0961 16.6342 3.7100
-10.3559 15.7317 3.7098
-10.1659 16.4081 3.7099
-10.4130 15.5071 3.7097
-10.2324 16.1823 3.7099
-10.4670 15.2832 3.7096
-10.2957 15.9568 3.7098
-10.5180 15.0599 3.7096
-10.5661 14.8373 3.7095
-10.7300 13.9560 3.7093
-10.6113 14.6156 3.7095
-10.7641 13.7382 3.7092
-10.6536 14.3947 3.7094
-10.7955 13.5215 3.7091
-10.6932 14.1748 3.7093
-10.8244 13.3060 3.7091
-10.8508 13.0918 3.7090
-10.9320 12.2480 3.7087
-10.8747 12.8788 3.7089
-10.9464 12.0406 3.7086
-10.8961 12.6672 3.7089
-10.9587 11.8347 3.7086
-10.9152 12.4569 3.7088
-10.9688 11.6303 3.7085
-10.9768 11.4274 3.7084
-10.9864 10.6298 3.7074
-10.9828 11.2261 3.7084
-10.9837 10.4343 3.7070
-10.9860 11.0258 3.7081
-10.9790 10.2404 3.7066
-10.9871 10.8270 3.7077
-10.9725 10.0480 3.7062
-10.9642 9.8573 3.7057
-10.9135 9.1119 3.7036
-10.9541 9.6685 3.7053
-10.8968 8.9299 3.7029
-10.9423 9.4813 3.7047
-10.8785 8.7496 3.7023
-10.9287 9.2957 3.7041
-10.8585 8.5709 3.7016
-10.8371 8.3940 3.7008
-10.7376 7.7044 3.6975
-10.8144 8.2190 3.7001
-10.7094 7.5363 3.6966
-10.7902 8.0457 3.6993
-10.6799 7.3701 3.6956
-10.7645 7.8741 3.6984
-10.6493 7.2056 3.6946
-10.6174 7.0430 3.6936
-10.5845 6.8821 3.6926
-10.5505 6.7230 3.6915
-10.5155 6.5658 3.6905
-10.4788 6.4098 3.6891
-10.4410 6.2556 3.6877
-10.4022 6.1032 3.6863
-10.3626 5.9526 3.6848
-10.3221 5.8038 3.6834
-10.2808 5.6567 3.6819
-10.2314 5.5075 3.6778
4.7001 17.6218 3.7090
4.5572 17.7303 3.7093
4.4122 17.8359 3.7095
4.2652 17.9384 3.7098
4.1162 18.0377 3.7100
3.9653 18.1337 3.7103
3.7964 18.1489 3.6947
3.6245 18.1477 3.6767
3.4533 18.1464 3.6594
3.2826 18.1450 3.6430
3.1125 18.1434 3.6275
2.9429 18.1417 3.6127
2.7738 18.1399 3.5988
2.6052 18.1380 3.5856
2.4370 18.1360 3.5732
2.2693 18.1338 3.5617
2.1061 18.1673 3.5579
1.9443 18.2163 3.5579
1.7815 18.2613 3.5579
1.6179 18.3025 3.5579
1.4535 18.3398 3.5579
1.2883 18.3731 3.5579
1.1224 18.4024 3.5579
0.9560 18.4277 3.5579
0.7891 18.4490 3.5579
0.6219 18.4662 3.5579
0.4543 18.4793 3.5579
0.2865 18.4884 3.5579
0.1186 18.4933 3.5579
-0.0494 18.4941 3.5579
-0.2174 18.4909 3.5579
-0.3852 18.4836 3.5579
-0.5529 18.4721 3.5579
-0.7203 18.4566 3.5579
-0.8873 18.4370 3.5579
-1.0539 18.4134 3.5579
-1.2199 18.3857 3.5579
-1.3854 18.3540 3.5579
-1.5501 18.3184 3.5579
-1.7141 18.2788 3.5579
-1.8773 18.2353 3.5579
-2.0395 18.1880 3.5579
-2.2008 18.1368 3.5579
-2.3610 18.0818 3.5579
-2.5201 18.0231 3.5579
-2.6853 18.0117 3.5680
-2.8518 18.0057 3.5800
-3.0185 17.9995 3.5927
-3.1857 17.9931 3.6062
-3.3532 17.9867 3.6206
-3.5212 17.9800 3.6357
-3.6896 17.9733 3.6516
-3.8584 17.9664 3.6683
-4.0277 17.9593 3.6858
-4.1976 17.9521 3.7042
-4.3525 17.8809 3.7101
-4.4983 17.7767 3.7099
-4.6421 17.6694 3.7097
-4.7839 17.5592 3.7094
-4.9235 17.4462 3.7091
-5.0610 17.3303 3.7089
-5.1963 17.2117 3.7086
-5.3293 17.0906 3.7083
-5.4600 16.9669 3.7080
-5.5885 16.8408 3.7078
-5.7146 16.7123 3.7075
-5.8383 16.5816 3.7072
-5.9596 16.4487 3.7069
-6.0786 16.3138 3.7065
-6.1951 16.1768 3.7062
-6.3092 16.0379 3.7059
-6.4208 15.8973 3.7056
-6.5299 15.7549 3.7053
-6.9416 15.1698 3.7039
-6.6366 15.6108 3.7049
-7.0383 15.0201 3.7035
-7.1325 14.8691 3.7032
-6.7408 15.4653 3.7046
-7.2242 14.7171 3.7028
-6.8425 15.3182 3.7042
-7.3134 14.5639 3.7025
-7.6455 13.9425 3.7010
-7.4002 14.4098 3.7021
-7.7224 13.7853 3.7007
-7.4844 14.2549 3.7018
-7.7969 13.6275 3.7003
-7.5662 14.0991 3.7014
-7.8689 13.4692 3.6999
-7.9386 13.3105 3.6996
-8.1936 12.6721 3.6981
-8.0059 13.1513 3.6992
-8.2516 12.5121 3.6977
-8.0708 12.9918 3.6988
-8.3072 12.3519 3.6973
-8.1334 12.8320 3.6984
-8.3607 12.1918 3.6969
-8.4119 12.0316 3.6966
-8.5950 11.3928 3.6951
-8.4609 11.8716 3.6962
-8.6354 11.2337 3.6947
-8.5077 11.7118 3.6958
-8.6739 11.0749 3.6943
-8.5524 11.5521 3.6955
-8.7102 10.9165 3.6940
-8.7447 10.7586 3.6936
-8.8627 10.1320 3.6921
-8.7771 10.6012 3.6932
-8.8075 10.4442 3.6929
-8.8876 9.9768 3.6918
-8.8361 10.2878 3.6925
-8.9106 9.8223 3.6914
-8.9512 9.5154 3.6907
-8.9317 9.6685 3.6910
-8.9689 9.3630 3.6903
-9.0119 8.9107 3.6892
-8.9849 9.2114 3.6900
-9.0230 8.7616 3.6889
-8.9992 9.0607 3.6896
-9.0326 8.6134 3.6885
-9.0470 8.3197 3.6879
-9.0405 8.4661 3.6882
-9.0520 8.1743 3.6875
-9.0583 7.7437 3.6865
-9.0555 8.0298 3.6872
-9.0576 7.6022 3.6862
-9.0576 7.8862 3.6868
-9.0556 7.4617 3.6858
-9.0477 7.1838 3.6852
-9.0523 7.3222 3.6855
-9.0418 7.0464 3.6849
-9.0170 6.6407 3.6839
-9.0347 6.9101 3.6845
-9.0064 6.5076 3.6836
-9.0265 6.7748 3.6842
-8.9947 6.3756 3.6833
-8.9680 6.1150 3.6826
-8.9819 6.2447 3.6829
-8.9530 5.9863 3.6823
-8.8987 5.6048 3.6799
-8.9371 5.8587 3.6820
-8.8711 5.4752 3.6760
-8.9202 5.7323 3.6817
-8.8427 5.3471 3.6721
-8.8111 5.2190 3.6673
-8.7791 5.0925 3.6626
-8.7464 4.9675 3.6579
-8.7115 4.8431 3.6527
3.7264 14.1955 3.7009
3.6104 14.2716 3.7011
3.4929 14.3456 3.7013
3.3742 14.4173 3.7014
3.2541 14.4867 3.7016
3.1328 14.5537 3.7018
3.0102 14.6184 3.7020
2.8864 14.6806 3.7021
2.7615 14.7403 3.7023
2.6355 14.7974 3.7024
2.5084 14.8521 3.7026
2.3803 14.9041 3.7027
2.2513 14.9534 3.7028
2.1213 15.0001 3.7030
1.9904 15.0441 3.7031
1.8588 15.0853 3.7032
1.7263 15.1238 3.7033
1.5932 15.1595 3.7034
1.4594 15.1923 3.7035
1.3250 15.2223 3.7035
1.1900 15.2494 3.7036
1.0545 15.2736 3.7037
0.9186 15.2949 3.7037
0.7823 15.3133 3.7038
0.6457 15.3288 3.7038
0.5088 15.3413 3.7039
0.3717 15.3509 3.7039
0.2344 15.3574 3.7039
0.0970 15.3611 3.7039
-0.0404 15.3617 3.7039
-0.1778 15.3594 3.7040
-0.3151 15.3541 3.7039
-0.4523 15.3458 3.7039
-0.5893 15.3346 3.7039
-0.7261 15.3204 3.7039
-0.8625 15.3033 3.7039
-0.9986 15.2832 3.7038
-1.1343 15.2603 3.7038
-1.2695 15.2344 3.7037
-1.4042 15.2057 3.7037
-1.5382 15.1741 3.7036
-1.6717 15.1396 3.7035
-1.8044 15.1024 3.7034
-1.9364 15.0624 3.7034
-2.0676 15.0196 3.7033
-2.1980 14.9741 3.7032
-2.3274 14.9259 3.7031
-2.4560 14.8751 3.7029
-2.5835 14.8216 3.7028
-2.7100 14.7656 3.7027
-2.8354 14.7070 3.7026
-2.9596 14.6459 3.7024
-3.0828 14.5823 3.7023
-3.2046 14.5163 3.7021
-3.3253 14.4480 3.7020
-3.4446 14.3773 3.7018
-3.5626 14.3043 3.7017
-3.6793 14.2291 3.7015
-3.7945 14.1517 3.7013
-3.9083 14.0722 3.7011
-4.0207 13.9906 3.7009
-4.1315 13.9069 3.7008
-4.2408 13.8213 3.7006
-4.3486 13.7337 3.7004
-4.4548 13.6443 3.7002
-4.5594 13.5530 3.6999
-4.6624 13.4600 3.6997
-4.7637 13.3652 3.6995
-4.8633 13.2688 3.6993
-4.9613 13.1708 3.6991
-5.0575 13.0712 3.6988
-5.1521 12.9701 3.6986
-5.2449 12.8676 3.6984
-5.3359 12.7637 3.6981
-5.4253 12.6585 3.6979
-5.5128 12.5520 3.6976
-5.5985 12.4443 3.6974
-5.6825 12.3353 3.6971
-5.7647 12.2254 3.6969
-5.8451 12.1143 3.6966
-5.9236 12.0022 3.6964
-6.0004 11.8891 3.6961
-6.0754 11.7752 3.6958
-6.1486 11.6604 3.6956
-6.2199 11.5448 3.6953
-6.2895 11.4284 3.6950
-6.3573 11.3114 3.6948
-6.4233 11.1937 3.6945
-6.4874 11.0754 3.6942
-6.5499 10.9565 3.6939
-6.6105 10.8372 3.6937
-6.6693 10.7173 3.6934
-6.7265 10.5970 3.6931
-6.7818 10.4764 3.6928
-6.8354 10.3554 3.6925
-6.8873 10.2342 3.6922
-6.9375 10.1126 3.6920
-6.9859 9.9909 3.6917
-7.0327 9.8691 3.6914
-7.0778 9.7471 3.6911
-7.1212 9.6250 3.6908
-7.1630 9.5029 3.6905
-7.2786 9.1365 3.6897
-7.2031 9.3807 3.6903
-7.3139 9.0145 3.6894
-7.2417 9.2586 3.6900
-7.3477 8.8926 3.6891
-7.4106 8.6494 3.6885
-7.3799 8.7709 3.6888
-7.4398 8.5280 3.6883
-7.5183 8.1656 3.6874
-7.4674 8.4069 3.6880
-7.5416 8.0454 3.6871
-7.4936 8.2861 3.6877
-7.5635 7.9256 3.6868
-7.6031 7.6870 3.6863
-7.5840 7.8061 3.6866
-7.6208 7.5683 3.6860
-7.6660 7.2151 3.6852
-7.6372 7.4501 3.6857
-7.6784 7.0983 3.6849
-7.6522 7.3323 3.6854
-7.6896 6.9820 3.6846
-7.7083 6.7511 3.6840
-7.6996 6.8663 3.6843
-7.7314 6.2962 3.6830
-7.7158 6.6365 3.6838
-7.7365 5.8514 3.6819
-7.7343 6.1840 3.6827
-7.7222 6.5225 3.6835
-7.7351 5.7419 3.6816
-7.7361 6.0725 3.6824
-7.7274 6.4090 3.6832
-7.7298 5.6309 3.6800
-7.7368 5.9616 3.6822
-7.7087 5.4062 3.6732
-7.7197 5.5181 3.6766
-7.6947 5.2937 3.6688
-7.6803 5.1825 3.6647
-7.6650 5.0724 3.6606
-7.6487 4.9631 3.6565
-7.6303 4.8540 3.6517
-7.6111 4.7459 3.6470
-7.5912 4.6389 3.6424
-7.5705 4.5330 3.6378
-7.5486 4.4277 3.6329
-7.5260 4.3235 3.6281
