ply
format ascii 1.0
element vertex 2097
property float32 x
property float32 y
property float32 z
end_header
-3.4997 -14.9131 1.6128
-2.8629 -14.8260 1.6262
-4.1599 -15.0187 1.5964
-3.3385 -14.8897 1.6165
-2.0927 -14.7409 1.6388
-2.7068 -14.8069 1.6291
-3.1787 -14.8673 1.6199
-1.9414 -14.7269 1.6409
-1.1954 -14.6716 1.6485
-2.5518 -14.7889 1.6318
-1.7909 -14.7140 1.6427
-1.0478 -14.6634 1.6495
-1.6411 -14.7019 1.6444
-2.3978 -14.7719 1.6343
-0.9007 -14.6560 1.6504
-1.4919 -14.6909 1.6459
-0.7539 -14.6497 1.6512
-2.2448 -14.7559 1.6366
-1.3434 -14.6808 1.6473
-0.6074 -14.6442 1.6518
-0.4612 -14.6396 1.6522
-0.3152 -14.6360 1.6525
0.5598 -14.6331 1.6508
1.4414 -14.6629 1.6436
0.7060 -14.6358 1.6500
-0.1693 -14.6332 1.6526
1.5899 -14.6711 1.6419
0.8524 -14.6394 1.6491
1.7389 -14.6802 1.6399
-0.0236 -14.6314 1.6525
0.9990 -14.6439 1.6479
1.8885 -14.6903 1.6379
1.1461 -14.6493 1.6467
0.1222 -14.6305 1.6523
2.0389 -14.7014 1.6356
1.2935 -14.6556 1.6452
2.1900 -14.7134 1.6332
0.2680 -14.6304 1.6520
2.3419 -14.7264 1.6306
3.2742 -14.8257 1.6114
2.4946 -14.7404 1.6279
3.4337 -14.8459 1.6076
0.4138 -14.6313 1.6515
2.6484 -14.7554 1.6249
3.5945 -14.8673 1.6036
2.8032 -14.7714 1.6218
4.2532 -14.9641 1.5854
3.7568 -14.8897 1.5993
2.9590 -14.7884 1.6185
3.9206 -14.9133 1.5949
4.4220 -14.9913 1.5804
3.1160 -14.8065 1.6151
4.0861 -14.9381 1.5903
4.5928 -15.0197 1.5751
5.2963 -15.1466 1.5518
5.4778 -15.1817 1.5453
6.4251 -15.3800 1.5092
4.7655 -15.0494 1.5696
5.6273 -15.1255 1.5293
4.9403 -15.0805 1.5639
6.5442 -15.2403 1.4832
5.8485 -15.2564 1.5317
5.1172 -15.1128 1.5580
6.5742 -14.9025 1.4380
6.0378 -15.2960 1.5245
6.7718 -14.9492 1.4296
6.2299 -15.3372 1.5170
7.3883 -15.1050 1.4032
6.9736 -14.9992 1.4212
7.6017 -15.1608 1.3937
8.2834 -14.6721 1.2712
7.1790 -15.0511 1.4123
7.8192 -15.2188 1.3839
8.2792 -14.3339 1.2254
8.2603 -12.8069 1.0146
8.0412 -15.2790 1.3737
8.2752 -14.0074 1.1809
8.2569 -12.5304 0.9757
8.2713 -13.6921 1.1377
8.2535 -12.2623 0.9376
8.2677 -15.3414 1.3631
8.2675 -13.3873 1.0956
8.2503 -12.0022 0.9005
8.2638 -13.0924 1.0546
8.2471 -11.7496 0.8641
8.2942 -15.0344 1.3195
8.2440 -11.5043 0.8286
8.2409 -11.2659 0.7938
8.2379 -11.0340 0.7598
8.2351 -10.8083 0.7264
8.2322 -10.5887 0.6936
8.2295 -10.3747 0.6615
8.2268 -10.1662 0.6300
8.2242 -9.9629 0.5990
8.2217 -9.7645 0.5686
-11.3337 -5.8946 0.0396
-11.3318 -6.0331 0.0721
-11.3298 -6.1731 0.1048
-11.3278 -6.3146 0.1377
-11.3258 -6.4576 0.1707
-11.3238 -6.6022 0.2040
-11.3217 -6.7485 0.2374
-11.3196 -6.8964 0.2711
-11.3175 -7.0462 0.3050
-11.3154 -7.1977 0.3391
-11.3132 -7.3511 0.3734
-11.3110 -7.5065 0.4081
-11.3088 -7.6639 0.4430
-11.3066 -7.8234 0.4781
-11.3043 -7.9851 0.5136
-11.3020 -8.1490 0.5494
-11.2996 -8.3152 0.5855
-11.2973 -8.4838 0.6219
-11.2949 -8.6550 0.6587
-11.2893 -8.8262 0.6957
-11.2873 -9.0029 0.7332
-11.2852 -9.1823 0.7712
-11.2831 -9.3647 0.8096
-11.2809 -9.5501 0.8484
-11.2787 -9.7386 0.8877
-11.2765 -9.9303 0.9274
-11.2743 -10.1254 0.9677
-11.2720 -10.3239 1.0084
-11.2696 -10.5260 1.0497
-11.2672 -10.7319 1.0916
-11.2648 -10.9417 1.1340
-11.2623 -11.1556 1.1771
-11.2598 -11.3737 1.2208
-11.2572 -11.5961 1.2651
-11.2553 -11.8239 1.3103
-11.2523 -12.0555 1.3561
-11.2494 -12.2919 1.4026
-11.2464 -12.5336 1.4499
-11.2433 -12.7805 1.4980
-11.2401 -13.0331 1.5470
-11.2369 -13.2915 1.5969
-11.2335 -13.5560 1.6478
-11.1243 -13.6965 1.6836
-10.8474 -13.6279 1.6933
-10.5781 -13.5618 1.7026
-10.3158 -13.4981 1.7116
-10.0603 -13.4366 1.7202
-9.5683 -13.3201 1.7365
-9.8113 -13.3773 1.7285
-9.4000 -13.3628 1.7571
-8.5566 -13.5420 1.8509
-9.3798 -13.6183 1.8057
-9.2279 -13.6859 1.8292
-8.3421 -13.4972 1.8576
-8.9993 -13.6363 1.8367
-8.1319 -13.4540 1.8641
-8.7756 -13.5883 1.8439
-7.9258 -13.4122 1.8704
-7.3306 -13.2949 1.8879
-7.7237 -13.3717 1.8764
-7.1393 -13.2584 1.8934
-7.5254 -13.3327 1.8823
-6.9514 -13.2231 1.8986
-6.7666 -13.1889 1.9037
-6.2300 -13.0932 1.9179
-6.5848 -13.1559 1.9086
-6.0566 -13.0634 1.9223
-6.4060 -13.1240 1.9134
-5.8858 -13.0346 1.9266
-5.2263 -12.9289 1.9421
-5.7175 -13.0068 1.9307
-5.0667 -12.9046 1.9457
-5.5515 -12.9799 1.9347
-4.8799 -12.8042 1.9374
-5.3878 -12.9540 1.9385
-4.7533 -12.8575 1.9521
-4.2967 -12.7930 1.9610
-4.5993 -12.8352 1.9552
-4.1479 -12.7730 1.9637
-4.4471 -12.8137 1.9581
-4.0006 -12.7539 1.9663
-3.4255 -12.6845 1.9756
-3.8548 -12.7354 1.9687
-3.2850 -12.6688 1.9776
-3.7104 -12.7177 1.9711
-3.1457 -12.6539 1.9796
-3.5673 -12.7007 1.9734
-3.0074 -12.6396 1.9815
-2.5988 -12.6006 1.9865
-2.8702 -12.6260 1.9833
-2.4645 -12.5889 1.9880
-2.7340 -12.6130 1.9849
-2.3309 -12.5777 1.9894
-1.8044 -12.5390 1.9942
-2.1982 -12.5672 1.9907
-1.6745 -12.5308 1.9951
-2.0663 -12.5572 1.9920
-0.8444 -6.8439 1.0908
-1.9350 -12.5478 1.9931
-0.7744 -6.8444 1.0920
-0.5656 -6.8483 1.0952
-0.7047 -6.8453 1.0931
-0.4962 -6.8503 1.0962
-0.6350 -6.8466 1.0942
-0.4268 -6.8526 1.0972
-0.1499 -6.8658 1.1008
-0.3576 -6.8554 1.0982
-0.0806 -6.8700 1.1016
-0.2884 -6.8585 1.0991
-0.0112 -6.8746 1.1024
-0.2191 -6.8619 1.1000
0.0582 -6.8795 1.1032
0.2674 -6.8966 1.1053
0.1278 -6.8848 1.1039
0.3375 -6.9031 1.1059
0.1975 -6.8905 1.1046
0.4078 -6.9100 1.1066
0.6917 -6.9414 1.1087
0.4783 -6.9172 1.1071
0.7634 -6.9503 1.1092
0.5491 -6.9249 1.1077
0.8356 -6.9596 1.1096
0.6202 -6.9330 1.1082
0.9082 -6.9694 1.1100
2.0075 -12.4529 1.9763
1.7590 -12.5120 1.9906
2.1504 -12.5341 1.9864
1.8888 -12.5188 1.9893
2.2822 -12.5426 1.9849
2.8173 -12.5825 1.9776
2.4148 -12.5517 1.9832
2.9533 -12.5940 1.9756
2.5481 -12.5614 1.9814
3.0903 -12.6061 1.9735
2.6823 -12.5716 1.9796
3.2283 -12.6189 1.9712
3.6492 -12.6610 1.9639
3.3674 -12.6323 1.9689
3.7920 -12.6764 1.9613
3.5077 -12.6463 1.9665
3.9361 -12.6925 1.9585
4.5272 -12.7641 1.9464
4.0816 -12.7093 1.9557
4.6789 -12.7835 1.9430
4.2286 -12.7268 1.9527
4.8322 -12.8034 1.9395
4.3771 -12.7451 1.9496
4.9873 -12.8241 1.9358
5.4642 -12.8910 1.9239
5.1443 -12.8455 1.9319
5.5937 -12.8376 1.9082
5.3032 -12.8678 1.9280
5.7928 -12.9398 1.9153
6.4787 -13.0488 1.8961
5.9605 -12.9657 1.9107
6.5163 -12.8025 1.8510
6.1307 -12.9924 1.9060
6.5761 -12.6076 1.8134
6.3033 -13.0201 1.9012
6.7539 -12.6398 1.8083
7.3080 -12.7465 1.7922
6.9353 -12.6743 1.8031
7.4990 -12.7835 1.7863
7.1201 -12.7100 1.7978
7.6936 -12.8217 1.7803
8.2590 -12.6021 1.7015
7.8921 -12.8612 1.7740
8.2555 -12.3287 1.6520
8.0945 -12.9022 1.7674
8.2522 -12.0637 1.6037
8.2490 -11.8066 1.5567
8.2625 -12.8842 1.7525
8.2452 -11.5560 1.5108
8.2391 -11.0777 1.4225
8.2421 -11.3135 1.4661
8.2361 -10.8484 1.3799
8.2333 -10.6253 1.3383
8.2305 -10.4081 1.2976
8.2278 -10.1965 1.2578
8.2251 -9.9902 1.2188
8.2225 -9.7891 1.1806
8.2200 -9.5928 1.1432
-11.3361 -5.7269 0.6117
-11.3341 -5.8647 0.6470
-11.3322 -6.0039 0.6826
-11.3302 -6.1445 0.7185
-11.3282 -6.2867 0.7546
-11.3262 -6.4304 0.7911
-11.3241 -6.5757 0.8278
-11.3221 -6.7227 0.8648
-11.3200 -6.8714 0.9022
-11.3178 -7.0220 0.9399
-11.3157 -7.1744 0.9779
-11.3135 -7.3287 1.0163
-11.3113 -7.4850 1.0551
-11.3091 -7.6433 1.0943
-11.3068 -7.8038 1.1339
-11.3045 -7.9665 1.1739
-11.3022 -8.1315 1.2144
-11.2999 -8.2989 1.2554
-11.2975 -8.4687 1.2968
-11.2951 -8.6410 1.3387
-11.2905 -8.8144 1.3809
-11.2884 -8.9924 1.4239
-11.2863 -9.1733 1.4675
-11.2842 -9.3572 1.5117
-11.2821 -9.5441 1.5565
-11.2799 -9.7343 1.6019
-11.2776 -9.9277 1.6480
-11.2754 -10.1245 1.6948
-11.2730 -10.3249 1.7423
-11.2707 -10.5291 1.7905
-11.2683 -10.7370 1.8395
-11.2658 -10.9490 1.8893
-11.2633 -11.1651 1.9400
-11.2608 -11.3856 1.9916
-11.1473 -11.4962 2.0239
-10.8874 -11.4529 2.0288
-10.6344 -11.4111 2.0336
-10.3881 -11.3708 2.0382
-10.1481 -11.3318 2.0426
-9.9141 -11.2942 2.0469
-9.6859 -11.2579 2.0510
-9.4641 -11.2238 2.0552
-9.4204 -11.4003 2.0977
-9.4026 -11.6122 2.1468
-9.1987 -11.5947 2.1535
-8.9888 -11.5651 2.1575
-8.7834 -11.5364 2.1614
-8.5822 -11.5087 2.1652
-8.3845 -11.4812 2.1687
-8.1908 -11.4545 2.1721
-8.0008 -11.4287 2.1754
-7.8144 -11.4037 2.1786
-7.6315 -11.3794 2.1817
-7.4519 -11.3559 2.1847
-7.2754 -11.3332 2.1876
-7.1021 -11.3111 2.1904
-6.9316 -11.2898 2.1931
-6.7640 -11.2691 2.1957
-6.5990 -11.2490 2.1982
-6.4367 -11.2295 2.2006
-6.2768 -11.2106 2.2030
-6.1194 -11.1923 2.2053
-5.9643 -11.1746 2.2075
-5.8114 -11.1575 2.2096
-5.6606 -11.1409 2.2117
-5.5119 -11.1248 2.2137
-5.3651 -11.1092 2.2156
-5.2203 -11.0941 2.2175
-5.0773 -11.0796 2.2193
-4.9080 -11.0025 2.2084
-4.7964 -11.0518 2.2227
-4.6584 -11.0385 2.2243
-4.5220 -11.0257 2.2258
-4.3871 -11.0133 2.2273
-4.2535 -11.0013 2.2288
-4.1214 -10.9897 2.2302
-3.9906 -10.9786 2.2315
-3.8611 -10.9678 2.2328
-3.7328 -10.9574 2.2340
-3.6056 -10.9473 2.2352
-3.4795 -10.9376 2.2363
-3.3546 -10.9283 2.2374
-3.2306 -10.9194 2.2384
-3.1077 -10.9107 2.2394
-2.9856 -10.9024 2.2403
-2.8645 -10.8945 2.2412
-2.7442 -10.8869 2.2420
-2.6247 -10.8796 2.2428
-2.5060 -10.8726 2.2436
-2.3880 -10.8659 2.2443
-2.2707 -10.8595 2.2450
-2.1541 -10.8534 2.2456
-2.0380 -10.8477 2.2462
-1.9226 -10.8422 2.2467
-1.8077 -10.8370 2.2473
-1.6934 -10.8321 2.2477
-0.8338 -5.7158 1.1868
-0.7744 -5.7169 1.1877
-0.7151 -5.7182 1.1886
-0.6560 -5.7197 1.1895
-0.5970 -5.7213 1.1903
-0.5381 -5.7231 1.1912
-0.4792 -5.7251 1.1920
-0.4205 -5.7272 1.1928
-0.3617 -5.7295 1.1937
-0.3031 -5.7320 1.1944
-0.2444 -5.7346 1.1952
-0.1857 -5.7374 1.1960
-0.1270 -5.7404 1.1967
0.2264 -5.7617 1.2009
-0.0683 -5.7435 1.1975
0.2857 -5.7659 1.2016
-0.0095 -5.7468 1.1982
0.3451 -5.7703 1.2022
0.0493 -5.7503 1.1989
0.4047 -5.7748 1.2029
0.1083 -5.7539 1.1996
0.4645 -5.7795 1.2035
0.1673 -5.7578 1.2003
0.5245 -5.7844 1.2041
0.5847 -5.7895 1.2047
0.9518 -5.8242 1.2080
0.6452 -5.7948 1.2053
1.8817 -10.8188 2.2424
0.7059 -5.8003 1.2058
1.9851 -10.7613 2.2289
0.7669 -5.8059 1.2064
2.0997 -10.7656 2.2280
0.8282 -5.8118 1.2070
2.2276 -10.8318 2.2399
0.8898 -5.8179 1.2075
2.3442 -10.8367 2.2389
2.4613 -10.8419 2.2380
3.1800 -10.8796 2.2311
2.5791 -10.8474 2.2369
3.3028 -10.8870 2.2298
2.6977 -10.8532 2.2359
3.4265 -10.8948 2.2285
2.8170 -10.8594 2.2348
3.5513 -10.9028 2.2271
2.9372 -10.8658 2.2336
3.6771 -10.9112 2.2256
3.0581 -10.8725 2.2324
3.8040 -10.9200 2.2241
3.9321 -10.9292 2.2226
4.7277 -10.9919 2.2120
4.0614 -10.9386 2.2210
4.8654 -11.0037 2.2101
5.0046 -11.0160 2.2080
4.1919 -10.9485 2.2193
5.1456 -11.0288 2.2059
4.3238 -10.9588 2.2176
5.2882 -11.0419 2.2038
4.4570 -10.9694 2.2158
5.4327 -11.0556 2.2015
4.5916 -10.9804 2.2139
5.5473 -11.0067 2.1867
6.4793 -11.1276 2.1765
5.7274 -11.0842 2.1969
6.4917 -10.8955 2.1249
5.8777 -11.0993 2.1944
6.5525 -10.7504 2.0904
6.0301 -11.1149 2.1919
6.7130 -10.7690 2.0875
6.1848 -11.1310 2.1893
6.8768 -10.7891 2.0848
6.3417 -11.1477 2.1866
7.0435 -10.8099 2.0819
7.2132 -10.8313 2.0790
8.2372 -10.8919 2.0434
7.3859 -10.8535 2.0759
8.2343 -10.6652 1.9924
7.5618 -10.8763 2.0728
8.2315 -10.4446 1.9427
7.7411 -10.9000 2.0695
8.2287 -10.2297 1.8941
7.9239 -10.9244 2.0662
8.2260 -10.0204 1.8467
8.1103 -10.9495 2.0627
8.2234 -9.8164 1.8003
8.2209 -9.6175 1.7550
8.2184 -9.4233 1.7107
-11.3399 -5.5613 1.1798
-11.3365 -5.6975 1.2178
-11.3345 -5.8359 1.2563
-11.3326 -5.9757 1.2951
-11.3306 -6.1169 1.3344
-11.3286 -6.2597 1.3739
-11.3265 -6.4042 1.4139
-11.3245 -6.5502 1.4543
-11.3224 -6.6980 1.4951
-11.3203 -6.8475 1.5364
-11.3182 -6.9988 1.5781
-11.3160 -7.1521 1.6203
-11.3138 -7.3073 1.6629
-11.3116 -7.4645 1.7061
-11.3094 -7.6238 1.7498
-11.3071 -7.7854 1.7941
-11.3048 -7.9491 1.8389
-11.3024 -8.1152 1.8843
-11.3001 -8.2837 1.9303
-11.2977 -8.4548 1.9769
-11.2952 -8.6284 2.0242
-11.2917 -8.8038 2.0720
-11.2896 -8.9833 2.1208
-11.2875 -9.1657 2.1703
-11.2854 -9.3511 2.2206
-11.2832 -9.5396 2.2716
-11.1195 -9.5921 2.2903
-10.8771 -9.5731 2.2917
-10.6411 -9.5548 2.2931
-10.4112 -9.5371 2.2944
-10.1869 -9.5200 2.2956
-9.9682 -9.5034 2.2968
-9.7547 -9.4873 2.2980
-9.5468 -9.4723 2.2993
-9.4513 -9.5668 2.3270
-9.4356 -9.7438 2.3748
-9.3385 -9.8385 2.4025
-9.1410 -9.8255 2.4039
-8.9417 -9.8065 2.4036
-8.7221 -9.7604 2.3966
-8.4474 -9.6461 2.3725
-8.2909 -9.6615 2.3803
-8.0840 -9.6141 2.3724
-7.8825 -9.5681 2.3648
-7.6861 -9.5234 2.3573
-7.5175 -9.5090 2.3572
-7.3630 -9.5089 2.3606
-7.2108 -9.5089 2.3639
-7.0608 -9.5090 2.3671
-6.9131 -9.5093 2.3703
-6.7676 -9.5097 2.3734
-6.6240 -9.5102 2.3764
-6.4825 -9.5109 2.3794
-6.3428 -9.5116 2.3824
-6.2050 -9.5125 2.3853
-6.0690 -9.5134 2.3882
-5.9346 -9.5145 2.3910
-5.8020 -9.5157 2.3938
-5.6709 -9.5170 2.3965
-5.5398 -9.5159 2.3985
-5.4098 -9.5140 2.4003
-5.2813 -9.5122 2.4021
-5.1542 -9.5105 2.4038
-5.0048 -9.4640 2.3941
-4.9040 -9.5068 2.4070
-4.7803 -9.5040 2.4082
-4.6579 -9.5013 2.4094
-4.5367 -9.4988 2.4106
-4.4168 -9.4963 2.4118
-4.2981 -9.4940 2.4129
-4.1805 -9.4919 2.4140
-4.0640 -9.4899 2.4151
-3.9485 -9.4879 2.4162
-3.8336 -9.4850 2.4170
-3.7197 -9.4823 2.4177
-3.6067 -9.4796 2.4185
-3.4947 -9.4771 2.4192
-3.3836 -9.4747 2.4199
-3.2733 -9.4724 2.4206
-3.1638 -9.4702 2.4213
-3.0551 -9.4681 2.4219
-2.9472 -9.4662 2.4226
-2.8399 -9.4643 2.4232
-2.7334 -9.4626 2.4238
-2.6275 -9.4610 2.4244
-2.5222 -9.4595 2.4250
-2.4175 -9.4581 2.4255
-2.3134 -9.4568 2.4261
-2.2098 -9.4554 2.4266
-2.1066 -9.4535 2.4269
-2.0039 -9.4518 2.4272
-1.9016 -9.4502 2.4275
-1.7998 -9.4486 2.4278
-0.8788 -4.8880 1.2563
-0.8269 -4.8897 1.2570
-0.7752 -4.8914 1.2578
-0.7236 -4.8931 1.2585
-0.6722 -4.8950 1.2592
-0.6208 -4.8968 1.2599
-0.5696 -4.8987 1.2606
-0.5184 -4.9007 1.2613
-0.4672 -4.9027 1.2620
-0.4162 -4.9048 1.2627
-0.3652 -4.9069 1.2634
-0.3142 -4.9091 1.2641
-0.2632 -4.9113 1.2648
-0.2123 -4.9136 1.2655
-0.1613 -4.9160 1.2661
-0.1103 -4.9184 1.2668
-0.0593 -4.9208 1.2675
-0.0083 -4.9233 1.2681
0.0428 -4.9259 1.2688
0.0940 -4.9285 1.2694
0.1452 -4.9312 1.2701
0.1965 -4.9339 1.2707
0.2480 -4.9367 1.2713
0.2995 -4.9396 1.2720
0.3511 -4.9425 1.2726
0.4029 -4.9455 1.2732
0.4549 -4.9485 1.2739
0.5070 -4.9516 1.2745
0.5592 -4.9548 1.2751
0.6117 -4.9580 1.2757
0.6644 -4.9613 1.2764
0.7172 -4.9647 1.2770
0.7703 -4.9681 1.2776
0.8237 -4.9716 1.2782
0.8773 -4.9752 1.2788
0.9312 -4.9789 1.2794
1.8696 -9.4544 2.4288
1.9609 -9.4040 2.4152
2.0629 -9.4057 2.4148
2.1775 -9.4594 2.4278
2.2811 -9.4613 2.4275
2.3852 -9.4632 2.4271
2.4900 -9.4653 2.4268
2.5953 -9.4675 2.4264
2.7013 -9.4698 2.4260
2.8079 -9.4722 2.4255
2.9152 -9.4747 2.4251
3.0233 -9.4773 2.4246
3.1321 -9.4800 2.4242
3.2416 -9.4829 2.4237
3.3521 -9.4858 2.4232
3.4633 -9.4889 2.4227
3.5755 -9.4921 2.4221
3.6886 -9.4955 2.4216
3.8026 -9.4989 2.4210
3.9177 -9.5025 2.4204
4.0338 -9.5062 2.4198
4.1509 -9.5101 2.4192
4.2693 -9.5141 2.4185
4.3887 -9.5182 2.4179
4.5094 -9.5224 2.4172
4.6314 -9.5269 2.4165
4.7547 -9.5314 2.4158
4.8793 -9.5361 2.4150
5.0053 -9.5410 2.4142
5.1328 -9.5460 2.4134
5.2618 -9.5512 2.4126
5.3924 -9.5565 2.4118
5.4943 -9.5095 2.3977
5.6586 -9.5678 2.4100
5.7942 -9.5737 2.4091
5.9317 -9.5797 2.4082
6.0710 -9.5858 2.4072
6.2122 -9.5920 2.4061
6.3553 -9.5983 2.4050
6.4589 -9.5433 2.3885
6.4702 -9.3544 2.3384
6.5172 -9.2216 2.3024
6.6631 -9.2286 2.3013
6.8120 -9.2368 2.3003
6.9633 -9.2451 2.2993
7.1173 -9.2537 2.2983
7.2739 -9.2626 2.2972
7.4332 -9.2717 2.2961
7.5955 -9.2811 2.2950
7.7608 -9.2908 2.2938
7.9292 -9.3008 2.2926
8.1008 -9.3111 2.2914
8.2167 -9.2551 2.2737
-11.3414 -5.3949 1.7461
-11.3394 -5.5310 1.7871
-11.3373 -5.6685 1.8284
-11.3349 -5.8073 1.8702
-11.3330 -5.9477 1.9124
-11.3310 -6.0896 1.9552
-11.3289 -6.2331 1.9984
-11.3269 -6.3782 2.0422
-11.3248 -6.5250 2.0864
-11.3227 -6.6735 2.1312
-11.3206 -6.8238 2.1766
-11.3185 -6.9760 2.2225
-11.3163 -7.1301 2.2690
-11.3141 -7.2862 2.3162
-11.3119 -7.4444 2.3640
-11.3096 -7.6047 2.4124
-11.3073 -7.7673 2.4616
-11.2848 -7.9179 2.5070
-11.0536 -7.9208 2.5056
-10.8283 -7.9236 2.5042
-10.6086 -7.9263 2.5029
-10.3944 -7.9289 2.5017
-10.1853 -7.9313 2.5004
-9.9812 -7.9337 2.4992
-9.7818 -7.9360 2.4981
-9.5874 -7.9385 2.4971
-9.4756 -8.0072 2.5169
-9.4615 -8.1591 2.5629
-9.4296 -8.2979 2.6047
-9.2444 -8.3010 2.6040
-9.0630 -8.3040 2.6034
-8.8702 -8.2929 2.5983
-8.6734 -8.2740 2.5909
-8.4777 -8.2520 2.5825
-8.2869 -8.2305 2.5743
-8.1006 -8.2095 2.5663
-7.9187 -8.1889 2.5586
-7.7411 -8.1688 2.5510
-7.5672 -8.1488 2.5435
-7.3929 -8.1245 2.5347
-7.2226 -8.1007 2.5261
-7.0562 -8.0774 2.5177
-6.8934 -8.0546 2.5095
-6.7342 -8.0323 2.5015
-6.5864 -8.0202 2.4967
-6.4587 -8.0299 2.4986
-6.3326 -8.0393 2.5006
-6.2081 -8.0487 2.5026
-6.0851 -8.0578 2.5045
-5.9636 -8.0669 2.5064
-5.8435 -8.0758 2.5083
-5.7248 -8.0845 2.5101
-5.6075 -8.0932 2.5120
-5.4914 -8.1017 2.5138
-5.3766 -8.1101 2.5156
-5.2631 -8.1183 2.5174
-5.1506 -8.1265 2.5192
-5.0393 -8.1345 2.5209
-4.9291 -8.1424 2.5227
-4.8200 -8.1502 2.5244
-4.7118 -8.1579 2.5261
-4.6046 -8.1656 2.5278
-4.4984 -8.1731 2.5295
-4.3931 -8.1805 2.5312
-4.2887 -8.1878 2.5329
-4.1852 -8.1950 2.5345
-4.0824 -8.2022 2.5362
-3.9805 -8.2092 2.5378
-3.8793 -8.2162 2.5395
-3.7788 -8.2231 2.5411
-3.6791 -8.2299 2.5427
-3.5800 -8.2367 2.5443
-3.4813 -8.2427 2.5457
-3.3825 -8.2468 2.5465
-3.2844 -8.2508 2.5473
-3.1869 -8.2548 2.5481
-3.0901 -8.2588 2.5489
-2.9938 -8.2627 2.5497
-2.8981 -8.2666 2.5506
-2.8030 -8.2704 2.5514
-2.7084 -8.2741 2.5522
-2.6143 -8.2778 2.5530
-2.5207 -8.2815 2.5538
-2.4272 -8.2840 2.5542
-2.3341 -8.2864 2.5547
-2.2416 -8.2888 2.5551
-2.1494 -8.2912 2.5556
-2.0576 -8.2935 2.5560
-1.9662 -8.2958 2.5565
-1.8752 -8.2981 2.5569
-1.7845 -8.3003 2.5574
-0.8679 -4.2532 1.3103
-0.8220 -4.2555 1.3109
-0.7762 -4.2577 1.3115
-0.7305 -4.2599 1.3121
-0.6849 -4.2621 1.3127
-0.6394 -4.2643 1.3133
-0.5940 -4.2665 1.3139
-0.5487 -4.2686 1.3145
-0.5034 -4.2708 1.3151
-0.4582 -4.2729 1.3157
-0.4131 -4.2750 1.3163
-0.3679 -4.2771 1.3168
-0.3229 -4.2791 1.3174
-0.2778 -4.2812 1.3180
-0.2327 -4.2832 1.3186
-0.1877 -4.2852 1.3192
-0.1426 -4.2872 1.3198
-0.0975 -4.2892 1.3204
-0.0524 -4.2912 1.3210
-0.0073 -4.2932 1.3216
0.0379 -4.2951 1.3222
0.0831 -4.2971 1.3228
0.1284 -4.2990 1.3234
0.1737 -4.3009 1.3241
0.2191 -4.3028 1.3247
0.2646 -4.3047 1.3253
0.3102 -4.3066 1.3259
0.3559 -4.3085 1.3265
0.4017 -4.3104 1.3271
0.4476 -4.3122 1.3278
0.4937 -4.3141 1.3284
0.5399 -4.3159 1.3290
0.5862 -4.3178 1.3297
0.6327 -4.3196 1.3303
0.6794 -4.3214 1.3309
0.7263 -4.3232 1.3316
0.7733 -4.3250 1.3322
0.8205 -4.3268 1.3329
0.8680 -4.3286 1.3335
0.9157 -4.3304 1.3342
1.8544 -8.3371 2.5689
1.9462 -8.3367 2.5690
2.0275 -8.2923 2.5556
2.1309 -8.3360 2.5693
2.2240 -8.3356 2.5694
2.3175 -8.3351 2.5696
2.4115 -8.3346 2.5697
2.5060 -8.3341 2.5699
2.6010 -8.3336 2.5700
2.6966 -8.3330 2.5702
2.7928 -8.3324 2.5704
2.8895 -8.3318 2.5706
2.9869 -8.3311 2.5707
3.0850 -8.3304 2.5709
3.1837 -8.3297 2.5711
3.2831 -8.3290 2.5713
3.3833 -8.3282 2.5715
3.4842 -8.3274 2.5717
3.5859 -8.3265 2.5719
3.6884 -8.3256 2.5721
3.7918 -8.3247 2.5723
3.8960 -8.3238 2.5725
4.0011 -8.3228 2.5728
4.1073 -8.3218 2.5730
4.2143 -8.3207 2.5732
4.3224 -8.3196 2.5735
4.4315 -8.3185 2.5737
4.5417 -8.3173 2.5740
4.6531 -8.3161 2.5742
4.7655 -8.3148 2.5745
4.8792 -8.3135 2.5748
4.9942 -8.3122 2.5750
5.1104 -8.3108 2.5753
5.2279 -8.3093 2.5756
5.3469 -8.3079 2.5759
5.4672 -8.3063 2.5762
5.5595 -8.2608 2.5629
5.7124 -8.3031 2.5769
5.8373 -8.3015 2.5772
5.9639 -8.2997 2.5775
6.0917 -8.2974 2.5777
6.2211 -8.2947 2.5778
6.3522 -8.2920 2.5779
6.4406 -8.2322 2.5603
6.4509 -8.0745 2.5122
6.4722 -7.9342 2.4695
6.6052 -7.9313 2.4697
6.7410 -7.9290 2.4700
6.8790 -7.9269 2.4704
7.0192 -7.9246 2.4708
7.1617 -7.9223 2.4712
-11.3430 -5.2283 2.3132
-11.3409 -5.3637 2.3569
-11.3389 -5.5003 2.4012
-11.3368 -5.6384 2.4460
-11.3353 -5.7782 2.4914
-11.3333 -5.9192 2.5373
-11.3313 -6.0618 2.5838
-11.3293 -6.2059 2.6309
-11.3273 -6.3517 2.6786
-11.1567 -6.4026 2.6864
-10.9433 -6.4255 2.6828
-10.7350 -6.4478 2.6794
-10.5318 -6.4693 2.6761
-10.3333 -6.4901 2.6728
-10.1394 -6.5103 2.6697
-9.9499 -6.5298 2.6667
-9.7647 -6.5488 2.6637
-9.5840 -6.5676 2.6610
-9.4944 -6.6468 2.6830
-9.4815 -6.7804 2.7270
-9.4684 -6.9157 2.7716
-9.3004 -6.9372 2.7707
-9.1307 -6.9546 2.7684
-8.9481 -6.9589 2.7612
-8.7780 -6.9696 2.7568
-8.5489 -6.9293 2.7326
-8.4234 -6.9696 2.7404
-8.2520 -6.9694 2.7325
-8.0843 -6.9690 2.7247
-7.9202 -6.9685 2.7172
-7.7595 -6.9678 2.7098
-7.6006 -6.9656 2.7020
-7.4425 -6.9609 2.6935
-7.2876 -6.9562 2.6852
-7.1358 -6.9514 2.6771
-6.9872 -6.9466 2.6691
-6.8415 -6.9418 2.6614
-6.6986 -6.9369 2.6538
-6.5552 -6.9286 2.6451
-6.4144 -6.9200 2.6364
-6.2762 -6.9114 2.6279
-6.1407 -6.9029 2.6196
-6.0077 -6.8944 2.6114
-5.8771 -6.8860 2.6035
-5.7677 -6.9000 2.6041
-5.6605 -6.9149 2.6052
-5.5544 -6.9296 2.6064
-5.4495 -6.9439 2.6075
-5.3455 -6.9580 2.6086
-5.2427 -6.9718 2.6097
-5.1408 -6.9854 2.6108
-5.0399 -6.9986 2.6119
-4.9400 -7.0117 2.6131
-4.8409 -7.0244 2.6142
-4.7428 -7.0370 2.6153
-4.6454 -7.0493 2.6164
-4.5490 -7.0613 2.6175
-4.4533 -7.0732 2.6187
-4.3584 -7.0848 2.6198
-4.2643 -7.0962 2.6209
-4.1708 -7.1074 2.6220
-4.0781 -7.1184 2.6231
-3.9861 -7.1292 2.6243
-3.8947 -7.1397 2.6254
-3.8039 -7.1501 2.6265
-3.7138 -7.1603 2.6277
-3.6242 -7.1703 2.6288
-3.5352 -7.1801 2.6299
-3.4468 -7.1898 2.6311
-3.3589 -7.1992 2.6322
-3.2716 -7.2085 2.6334
-3.1847 -7.2176 2.6345
-3.0983 -7.2266 2.6357
-3.0123 -7.2353 2.6368
-2.9268 -7.2439 2.6380
-2.8417 -7.2524 2.6391
-2.7571 -7.2607 2.6403
-2.6728 -7.2688 2.6415
-2.5889 -7.2768 2.6426
-2.5053 -7.2847 2.6438
-2.4221 -7.2923 2.6450
-2.3392 -7.2999 2.6462
-2.2566 -7.3073 2.6474
-2.1743 -7.3145 2.6486
-2.0923 -7.3217 2.6498
-2.0106 -7.3286 2.6510
-1.9287 -7.3341 2.6517
-1.8470 -7.3389 2.6522
-0.9004 -3.7452 1.3529
-0.8591 -3.7481 1.3534
-0.8179 -3.7508 1.3538
-0.7769 -3.7535 1.3543
-0.7359 -3.7562 1.3548
-0.6950 -3.7588 1.3553
-0.6541 -3.7613 1.3557
-0.6134 -3.7637 1.3562
-0.5727 -3.7661 1.3567
-0.5321 -3.7685 1.3572
-0.4915 -3.7707 1.3577
-0.4510 -3.7730 1.3582
-0.4105 -3.7751 1.3587
-0.3701 -3.7772 1.3592
-0.3297 -3.7792 1.3598
-0.2893 -3.7812 1.3603
-0.2489 -3.7832 1.3608
-0.2085 -3.7850 1.3613
-0.1682 -3.7868 1.3619
-0.1278 -3.7886 1.3624
-0.0874 -3.7903 1.3629
-0.0470 -3.7919 1.3635
-0.0065 -3.7935 1.3641
0.0339 -3.7951 1.3646
0.0744 -3.7965 1.3652
0.1150 -3.7980 1.3657
0.1556 -3.7993 1.3663
0.1962 -3.8006 1.3669
0.2370 -3.8019 1.3675
0.2778 -3.8031 1.3681
0.3187 -3.8042 1.3687
0.3596 -3.8053 1.3693
0.4007 -3.8064 1.3699
0.4418 -3.8074 1.3705
0.4831 -3.8083 1.3711
0.5245 -3.8092 1.3718
0.5660 -3.8100 1.3724
0.6076 -3.8108 1.3731
0.6494 -3.8115 1.3737
0.6913 -3.8121 1.3744
0.7333 -3.8127 1.3750
0.7756 -3.8133 1.3757
0.8179 -3.8138 1.3764
0.8605 -3.8142 1.3771
0.9032 -3.8146 1.3778
1.8371 -7.4069 2.6764
1.9203 -7.4051 2.6770
1.9936 -7.3656 2.6639
2.0876 -7.4010 2.6781
2.1718 -7.3988 2.6786
2.2565 -7.3965 2.6792
2.3415 -7.3941 2.6798
2.4270 -7.3915 2.6804
2.5129 -7.3888 2.6811
2.5993 -7.3860 2.6817
2.6862 -7.3831 2.6824
2.7736 -7.3800 2.6831
2.8616 -7.3768 2.6838
2.9500 -7.3735 2.6845
3.0390 -7.3701 2.6853
3.1287 -7.3665 2.6860
3.2189 -7.3628 2.6868
3.3097 -7.3589 2.6876
3.4012 -7.3549 2.6884
3.4934 -7.3508 2.6892
3.5863 -7.3465 2.6901
3.6799 -7.3420 2.6909
3.7742 -7.3374 2.6918
3.8693 -7.3327 2.6927
3.9652 -7.3278 2.6936
4.0619 -7.3227 2.6946
4.1595 -7.3175 2.6956
4.2579 -7.3121 2.6966
4.3573 -7.3066 2.6976
4.4575 -7.3009 2.6986
4.5588 -7.2950 2.6997
4.6610 -7.2889 2.7008
4.7643 -7.2826 2.7019
4.8686 -7.2762 2.7030
4.9738 -7.2692 2.7041
5.0799 -7.2618 2.7051
5.1873 -7.2543 2.7061
5.2958 -7.2466 2.7072
5.4056 -7.2386 2.7083
5.4875 -7.1922 2.6950
5.6290 -7.2221 2.7105
5.7427 -7.2135 2.7117
5.8578 -7.2046 2.7129
5.9743 -7.1956 2.7141
6.0918 -7.1856 2.7152
6.2108 -7.1754 2.7162
6.3313 -7.1649 2.7173
6.4234 -7.1208 2.7058
6.4331 -6.9864 2.6599
-11.1780 -4.9865 2.8412
-10.9782 -5.0285 2.8360
-10.7831 -5.0692 2.8309
-10.5924 -5.1086 2.8260
-10.4061 -5.1469 2.8212
-10.2239 -5.1840 2.8165
-10.0456 -5.2201 2.8120
-9.8711 -5.2551 2.8076
-9.7003 -5.2890 2.8034
-9.5341 -5.3227 2.7995
-9.5082 -5.4337 2.8367
-9.4964 -5.5538 2.8785
-9.4681 -5.6653 2.9159
-9.3076 -5.6968 2.9124
-9.1495 -5.7272 2.9087
-8.9785 -5.7466 2.9001
-8.7786 -5.7439 2.8810
-8.5432 -5.7137 2.8487
-8.4348 -5.7651 2.8578
-8.2942 -5.7927 2.8554
-8.1559 -5.8196 2.8530
-8.0198 -5.8458 2.8507
-7.8858 -5.8714 2.8485
-7.7420 -5.8872 2.8419
-7.5959 -5.8988 2.8337
-7.4527 -5.9099 2.8257
-7.3122 -5.9206 2.8179
-7.1743 -5.9309 2.8102
-7.0389 -5.9408 2.8027
-6.9059 -5.9503 2.7954
-6.7738 -5.9581 2.7876
-6.6423 -5.9640 2.7792
-6.5131 -5.9695 2.7710
-6.3861 -5.9748 2.7630
-6.2614 -5.9798 2.7552
-6.1389 -5.9844 2.7475
-6.0183 -5.9889 2.7399
-5.8976 -5.9909 2.7316
-5.7783 -5.9919 2.7230
-5.6609 -5.9927 2.7147
-5.5456 -5.9934 2.7065
-5.4320 -5.9938 2.6984
-5.3204 -5.9941 2.6905
-5.2199 -6.0050 2.6877
-5.1269 -6.0232 2.6882
-5.0349 -6.0410 2.6888
-4.9436 -6.0585 2.6894
-4.8532 -6.0756 2.6900
-4.7635 -6.0923 2.6906
-4.6745 -6.1088 2.6912
-4.5863 -6.1249 2.6918
-4.4988 -6.1406 2.6924
-4.4119 -6.1561 2.6930
-4.3257 -6.1713 2.6937
-4.2402 -6.1861 2.6943
-4.1552 -6.2007 2.6950
-4.0709 -6.2149 2.6957
-3.9871 -6.2289 2.6964
-3.9039 -6.2426 2.6971
-3.8213 -6.2560 2.6978
-3.7392 -6.2692 2.6985
-3.6576 -6.2821 2.6993
-3.5765 -6.2947 2.7000
-3.4959 -6.3071 2.7007
-3.4157 -6.3192 2.7015
-3.3360 -6.3310 2.7023
-3.2567 -6.3427 2.7031
-3.1779 -6.3540 2.7039
-3.0994 -6.3652 2.7047
-3.0214 -6.3761 2.7055
-2.9437 -6.3868 2.7063
-2.8664 -6.3972 2.7071
-2.7895 -6.4075 2.7080
-2.7129 -6.4175 2.7088
-2.6366 -6.4273 2.7097
-2.5606 -6.4368 2.7106
-2.4850 -6.4462 2.7114
-2.4096 -6.4554 2.7123
-2.3345 -6.4643 2.7132
-2.2596 -6.4731 2.7142
-2.1850 -6.4816 2.7151
-2.1107 -6.4900 2.7160
-2.0366 -6.4981 2.7170
-1.9627 -6.5061 2.7179
-1.8890 -6.5138 2.7189
-1.8155 -6.5214 2.7199
-0.9061 -3.3956 1.4151
-0.8670 -3.3950 1.4138
-0.8280 -3.3944 1.4126
-0.7893 -3.3938 1.4114
-0.7507 -3.3931 1.4102
-0.7124 -3.3925 1.4091
-0.6742 -3.3919 1.4081
-0.6361 -3.3914 1.4071
-0.5982 -3.3908 1.4061
-0.5605 -3.3902 1.4052
-0.5229 -3.3896 1.4044
-0.4854 -3.3890 1.4035
-0.4481 -3.3885 1.4028
-0.4108 -3.3879 1.4020
-0.3737 -3.3874 1.4014
-0.3366 -3.3868 1.4007
-0.2996 -3.3863 1.4002
-0.2627 -3.3857 1.3996
-0.2259 -3.3852 1.3991
-0.1891 -3.3847 1.3987
-0.1524 -3.3842 1.3982
-0.1158 -3.3836 1.3979
-0.0791 -3.3833 1.3976
-0.0425 -3.3847 1.3981
-0.0059 -3.3860 1.3987
0.0307 -3.3872 1.3992
0.0674 -3.3884 1.3997
0.1041 -3.3894 1.4002
0.1408 -3.3904 1.4008
0.1776 -3.3913 1.4013
0.2145 -3.3921 1.4019
0.2514 -3.3929 1.4025
0.2883 -3.3935 1.4030
0.3253 -3.3941 1.4036
0.3624 -3.3946 1.4042
0.3996 -3.3950 1.4048
0.4369 -3.3953 1.4054
0.4743 -3.3955 1.4060
0.5117 -3.3956 1.4067
0.5492 -3.3957 1.4073
0.5869 -3.3957 1.4079
0.6247 -3.3956 1.4086
0.6625 -3.3954 1.4093
0.7006 -3.3951 1.4099
0.7387 -3.3947 1.4106
0.7770 -3.3943 1.4113
0.8154 -3.3937 1.4120
0.8539 -3.3931 1.4127
0.8926 -3.3924 1.4134
1.8187 -6.6218 2.7611
1.8946 -6.6188 2.7620
1.9612 -6.5837 2.7496
2.0373 -6.5803 2.7505
2.1240 -6.6085 2.7648
2.2011 -6.6047 2.7658
2.2786 -6.6007 2.7668
2.3565 -6.5965 2.7678
2.4347 -6.5922 2.7689
2.5134 -6.5877 2.7700
2.5925 -6.5829 2.7711
2.6720 -6.5780 2.7722
2.7519 -6.5729 2.7733
2.8323 -6.5675 2.7745
2.9132 -6.5620 2.7757
2.9946 -6.5563 2.7769
3.0765 -6.5503 2.7782
3.1589 -6.5442 2.7794
3.2418 -6.5378 2.7807
3.3253 -6.5312 2.7821
3.4094 -6.5243 2.7834
3.4938 -6.5168 2.7846
3.5788 -6.5091 2.7858
3.6645 -6.5011 2.7870
3.7508 -6.4929 2.7883
3.8377 -6.4845 2.7896
3.9253 -6.4758 2.7909
4.0137 -6.4669 2.7923
4.1027 -6.4577 2.7937
4.1925 -6.4483 2.7951
4.2831 -6.4386 2.7966
4.3744 -6.4286 2.7980
4.4666 -6.4184 2.7996
4.5596 -6.4078 2.8011
4.6535 -6.3970 2.8027
4.7482 -6.3859 2.8044
4.8439 -6.3745 2.8060
4.9405 -6.3628 2.8077
5.0381 -6.3508 2.8095
5.1367 -6.3385 2.8113
5.2364 -6.3258 2.8131
5.3371 -6.3128 2.8150
5.4389 -6.2995 2.8169
5.5138 -6.2540 2.8046
5.6459 -6.2718 2.8209
5.7512 -6.2574 2.8229
5.8578 -6.2427 2.8250
-9.5868 -4.1331 2.9232
-9.5284 -4.2210 2.9474
-9.5175 -4.3302 2.9866
-9.5065 -4.4402 3.0262
-9.4051 -4.5079 3.0372
-9.2565 -4.5511 3.0324
-9.1106 -4.5933 3.0278
-8.9466 -4.6237 3.0164
-8.7750 -4.6471 3.0014
-8.5496 -4.6384 2.9667
-8.4272 -4.6823 2.9667
-8.2551 -4.6961 2.9485
-8.1182 -4.7272 2.9419
-7.9929 -4.7630 2.9388
-7.8695 -4.7979 2.9358
-7.7479 -4.8319 2.9329
-7.6280 -4.8651 2.9301
-7.5097 -4.8976 2.9273
-7.3932 -4.9293 2.9246
-7.2782 -4.9602 2.9219
-7.1647 -4.9904 2.9194
-7.0523 -5.0196 2.9167
-6.9284 -5.0387 2.9086
-6.8065 -5.0572 2.9007
-6.6866 -5.0751 2.8929
-6.5687 -5.0924 2.8853
-6.4526 -5.1092 2.8778
-6.3384 -5.1254 2.8705
-6.2259 -5.1412 2.8634
-6.1137 -5.1552 2.8557
-6.0020 -5.1678 2.8476
-5.8920 -5.1798 2.8397
-5.7837 -5.1915 2.8319
-5.6770 -5.2027 2.8242
-5.5719 -5.2136 2.8167
-5.4684 -5.2240 2.8094
-5.3649 -5.2327 2.8014
-5.2620 -5.2401 2.7931
-5.1606 -5.2472 2.7850
-5.0607 -5.2539 2.7770
-4.9622 -5.2604 2.7692
-4.8651 -5.2665 2.7615
-4.7725 -5.2758 2.7558
-4.6908 -5.2959 2.7559
-4.6098 -5.3156 2.7561
-4.5294 -5.3349 2.7563
-4.4495 -5.3538 2.7565
-4.3703 -5.3724 2.7567
-4.2916 -5.3905 2.7570
-4.2134 -5.4083 2.7573
-4.1358 -5.4258 2.7575
-4.0587 -5.4429 2.7578
-3.9821 -5.4597 2.7581
-3.9059 -5.4761 2.7585
-3.8303 -5.4922 2.7588
-3.7550 -5.5080 2.7592
-3.6803 -5.5234 2.7596
-3.6059 -5.5386 2.7600
-3.5320 -5.5534 2.7604
-3.4585 -5.5679 2.7608
-3.3854 -5.5821 2.7612
-3.3126 -5.5960 2.7617
-3.2403 -5.6097 2.7622
-3.1682 -5.6230 2.7626
-3.0966 -5.6361 2.7631
-3.0252 -5.6489 2.7637
-2.9542 -5.6614 2.7642
-2.8835 -5.6736 2.7647
-2.8132 -5.6856 2.7653
-2.7431 -5.6973 2.7659
-2.6732 -5.7087 2.7665
-2.6037 -5.7199 2.7671
-2.5344 -5.7308 2.7677
-2.4654 -5.7415 2.7683
-2.3966 -5.7519 2.7690
-2.3280 -5.7621 2.7697
-2.2597 -5.7721 2.7703
-2.1916 -5.7818 2.7710
-2.1237 -5.7912 2.7717
-2.0560 -5.8004 2.7725
-1.9885 -5.8094 2.7732
-1.9212 -5.8182 2.7740
-1.8540 -5.8267 2.7747
-1.7870 -5.8351 2.7755
-1.7202 -5.8431 2.7763
-1.6535 -5.8510 2.7771
-0.9245 -3.4131 1.6183
-0.8845 -3.4124 1.6165
-0.8448 -3.4117 1.6147
-0.8052 -3.4110 1.6129
-0.7658 -3.4104 1.6113
-0.7266 -3.4097 1.6097
-0.6876 -3.4091 1.6082
-0.6488 -3.4084 1.6067
-0.6102 -3.4078 1.6054
-0.5716 -3.4072 1.6041
-0.5333 -3.4066 1.6028
-0.4950 -3.4059 1.6017
-0.4569 -3.4053 1.6006
-0.4189 -3.4048 1.5996
-0.3810 -3.4042 1.5986
-0.3432 -3.4036 1.5978
-0.3055 -3.4030 1.5969
-0.2679 -3.4025 1.5962
-0.2304 -3.4019 1.5955
-0.1929 -3.4013 1.5949
-0.1554 -3.4008 1.5944
-0.1180 -3.4003 1.5939
-0.0807 -3.3997 1.5935
-0.0433 -3.3992 1.5931
-0.0060 -3.3987 1.5928
0.0313 -3.3982 1.5926
0.0685 -3.3977 1.5924
0.1058 -3.3971 1.5924
0.1431 -3.3967 1.5923
0.1805 -3.3962 1.5924
0.2178 -3.3957 1.5925
0.2552 -3.3952 1.5926
0.2927 -3.3947 1.5929
0.3301 -3.3942 1.5932
0.3677 -3.3938 1.5935
0.4053 -3.3933 1.5940
0.4430 -3.3928 1.5945
0.4808 -3.3924 1.5950
0.5187 -3.3919 1.5957
0.5567 -3.3915 1.5964
0.5948 -3.3910 1.5971
0.6330 -3.3906 1.5980
0.6714 -3.3902 1.5989
0.7099 -3.3897 1.5999
0.7485 -3.3893 1.6009
0.7873 -3.3889 1.6020
0.8263 -3.3885 1.6032
0.8655 -3.3881 1.6044
0.9048 -3.3876 1.6058
1.6614 -5.9589 2.8274
1.7305 -5.9553 2.8286
1.7998 -5.9514 2.8298
1.8694 -5.9473 2.8311
1.9305 -5.9160 2.8195
2.0001 -5.9110 2.8205
2.0799 -5.9337 2.8350
2.1506 -5.9287 2.8363
2.2215 -5.9231 2.8375
2.2927 -5.9172 2.8387
2.3642 -5.9111 2.8399
2.4361 -5.9047 2.8411
2.5082 -5.8980 2.8423
2.5808 -5.8911 2.8436
2.6537 -5.8840 2.8449
2.7270 -5.8767 2.8462
2.8006 -5.8690 2.8476
2.8747 -5.8612 2.8490
2.9492 -5.8530 2.8504
3.0241 -5.8447 2.8519
3.0995 -5.8360 2.8533
3.1753 -5.8271 2.8549
3.2516 -5.8179 2.8564
3.3284 -5.8085 2.8580
3.4056 -5.7987 2.8596
3.4834 -5.7887 2.8612
3.5617 -5.7784 2.8629
3.6406 -5.7678 2.8646
3.7200 -5.7569 2.8664
3.8000 -5.7457 2.8682
3.8805 -5.7342 2.8700
3.9617 -5.7223 2.8719
4.0435 -5.7102 2.8737
4.1259 -5.6977 2.8757
4.2090 -5.6849 2.8777
4.2928 -5.6718 2.8797
4.3773 -5.6583 2.8817
4.4624 -5.6444 2.8838
4.5484 -5.6302 2.8860
4.6350 -5.6157 2.8882
4.7225 -5.6008 2.8904
4.8108 -5.5855 2.8927
4.8998 -5.5698 2.8950
4.9898 -5.5537 2.8974
5.0806 -5.5372 2.8998
5.1723 -5.5203 2.9023
5.2649 -5.5029 2.9048
-8.7067 -3.6214 3.1029
-8.5046 -3.6376 3.0706
-8.4012 -3.6934 3.0731
-8.2500 -3.7261 3.0575
-8.0939 -3.7539 3.0392
-7.9414 -3.7806 3.0214
-7.8217 -3.8207 3.0153
-7.7100 -3.8629 3.0117
-7.5998 -3.9041 3.0083
-7.4910 -3.9444 3.0049
-7.3835 -3.9838 3.0015
-7.2775 -4.0222 2.9983
-7.1728 -4.0599 2.9951
-7.0694 -4.0967 2.9920
-6.9671 -4.1327 2.9889
-6.8662 -4.1679 2.9860
-6.7664 -4.2023 2.9830
-6.6677 -4.2360 2.9802
-6.5702 -4.2689 2.9774
-6.4738 -4.3011 2.9747
-6.3743 -4.3299 2.9701
-6.2692 -4.3531 2.9623
-6.1655 -4.3758 2.9547
-6.0634 -4.3978 2.9473
-5.9626 -4.4192 2.9400
-5.8632 -4.4400 2.9328
-5.7652 -4.4602 2.9258
-5.6684 -4.4799 2.9189
-5.5716 -4.4979 2.9114
-5.4752 -4.5147 2.9036
-5.3802 -4.5310 2.8959
-5.2864 -4.5469 2.8884
-5.1938 -4.5622 2.8811
-5.1024 -4.5771 2.8738
-5.0121 -4.5915 2.8667
-4.9221 -4.6046 2.8592
-4.8322 -4.6163 2.8512
-4.7434 -4.6276 2.8434
-4.6558 -4.6386 2.8357
-4.5693 -4.6491 2.8281
-4.4838 -4.6592 2.8207
-4.3994 -4.6690 2.8134
-4.3256 -4.6890 2.8125
-4.2536 -4.7098 2.8124
-4.1819 -4.7301 2.8123
-4.1107 -4.7501 2.8122
-4.0400 -4.7697 2.8122
-3.9697 -4.7889 2.8122
-3.8997 -4.8078 2.8122
-3.8302 -4.8262 2.8122
-3.7611 -4.8443 2.8122
-3.6923 -4.8620 2.8123
-3.6239 -4.8794 2.8124
-3.5559 -4.8965 2.8125
-3.4882 -4.9132 2.8126
-3.4209 -4.9295 2.8128
-3.3539 -4.9456 2.8129
-3.2872 -4.9612 2.8131
-3.2208 -4.9766 2.8133
-3.1547 -4.9917 2.8135
-3.0889 -5.0064 2.8138
-3.0234 -5.0208 2.8140
-2.9582 -5.0350 2.8143
-2.8932 -5.0488 2.8146
-2.8285 -5.0623 2.8149
-2.7641 -5.0756 2.8153
-2.6999 -5.0885 2.8156
-2.6359 -5.1011 2.8160
-2.5722 -5.1135 2.8164
-2.5086 -5.1256 2.8168
-2.4453 -5.1374 2.8172
-2.3822 -5.1489 2.8176
-2.3193 -5.1602 2.8181
-2.2566 -5.1712 2.8186
-2.1940 -5.1819 2.8190
-2.1317 -5.1924 2.8196
-2.0695 -5.2026 2.8201
-2.0075 -5.2125 2.8206
-1.9456 -5.2222 2.8212
-1.8839 -5.2317 2.8218
-1.8223 -5.2409 2.8224
-1.7608 -5.2498 2.8230
-1.6995 -5.2585 2.8236
-1.6383 -5.2669 2.8242
-1.5772 -5.2751 2.8249
-1.5163 -5.2831 2.8256
-1.4554 -5.2908 2.8263
-0.9031 -3.4308 1.8305
-0.8624 -3.4300 1.8281
-0.8220 -3.4293 1.8258
-0.7818 -3.4286 1.8236
-0.7417 -3.4278 1.8215
-0.7019 -3.4271 1.8195
-0.6622 -3.4264 1.8175
-0.6227 -3.4258 1.8157
-0.5834 -3.4251 1.8140
-0.5442 -3.4244 1.8124
-0.5052 -3.4238 1.8109
-0.4663 -3.4231 1.8094
-0.4275 -3.4225 1.8081
-0.3888 -3.4219 1.8068
-0.3502 -3.4213 1.8057
-0.3118 -3.4207 1.8046
-0.2734 -3.4201 1.8037
-0.2350 -3.4195 1.8028
-0.1968 -3.4189 1.8020
-0.1586 -3.4184 1.8013
-0.1204 -3.4178 1.8007
-0.0823 -3.4173 1.8002
-0.0442 -3.4167 1.7998
-0.0062 -3.4162 1.7994
0.0319 -3.4156 1.7992
0.0699 -3.4151 1.7990
0.1080 -3.4146 1.7989
0.1461 -3.4141 1.7989
0.1841 -3.4136 1.7991
0.2222 -3.4131 1.7993
0.2604 -3.4126 1.7995
0.2986 -3.4122 1.7999
0.3369 -3.4117 1.8004
0.3752 -3.4112 1.8009
0.4136 -3.4108 1.8016
0.4521 -3.4103 1.8023
0.4906 -3.4099 1.8031
0.5293 -3.4094 1.8040
0.5681 -3.4090 1.8051
0.6070 -3.4086 1.8062
0.6460 -3.4082 1.8074
0.6852 -3.4077 1.8087
0.7245 -3.4073 1.8100
0.7640 -3.4069 1.8115
0.8036 -3.4065 1.8131
0.8435 -3.4062 1.8148
0.8835 -3.4058 1.8166
1.4625 -5.3919 2.8792
1.5255 -5.3877 2.8804
1.5887 -5.3832 2.8816
1.6520 -5.3785 2.8828
1.7156 -5.3735 2.8841
1.7794 -5.3683 2.8853
1.8434 -5.3629 2.8867
1.9076 -5.3572 2.8880
1.9631 -5.3269 2.8762
2.0367 -5.3450 2.8907
2.1017 -5.3386 2.8922
2.1669 -5.3318 2.8936
2.2324 -5.3249 2.8951
2.2981 -5.3176 2.8966
2.3642 -5.3101 2.8981
2.4305 -5.3024 2.8997
2.4971 -5.2943 2.9013
2.5641 -5.2860 2.9029
2.6314 -5.2774 2.9045
2.6990 -5.2685 2.9062
2.9038 -5.2402 2.9114
2.7669 -5.2594 2.9079
2.9729 -5.2301 2.9132
2.8352 -5.2499 2.9097
3.0422 -5.2198 2.9151
3.3238 -5.1753 2.9228
3.1120 -5.2091 2.9170
3.3953 -5.1634 2.9248
3.1822 -5.1982 2.9189
3.4672 -5.1511 2.9269
3.2528 -5.1869 2.9208
3.5396 -5.1385 2.9290
3.7595 -5.0987 2.9355
3.6124 -5.1256 2.9311
3.8339 -5.0848 2.9377
3.6857 -5.1124 2.9333
3.9085 -5.0703 2.9399
4.2123 -5.0079 2.9488
3.9837 -5.0552 2.9421
4.2897 -4.9914 2.9511
4.0593 -5.0399 2.9443
4.3677 -4.9745 2.9535
4.1356 -5.0241 2.9465
4.4463 -4.9571 2.9559
4.5255 -4.9394 2.9584
4.6054 -4.9212 2.9609
4.6859 -4.9026 2.9634
4.7672 -4.8835 2.9661
-7.5348 -3.0174 3.0804
-7.4353 -3.0646 3.0764
-7.3370 -3.1108 3.0725
-7.2398 -3.1560 3.0687
-7.1437 -3.2003 3.0650
-7.0488 -3.2436 3.0614
-6.9548 -3.2861 3.0578
-6.8619 -3.3276 3.0543
-6.7700 -3.3683 3.0509
-6.6791 -3.4082 3.0476
-6.5891 -3.4472 3.0443
-6.5001 -3.4854 3.0411
-6.4120 -3.5229 3.0379
-6.3247 -3.5595 3.0348
-6.2383 -3.5954 3.0318
-6.1528 -3.6306 3.0289
-6.0681 -3.6651 3.0260
-5.9841 -3.6988 3.0231
-5.9010 -3.7319 3.0203
-5.8119 -3.7599 3.0141
-5.7214 -3.7857 3.0067
-5.6320 -3.8109 2.9995
-5.5437 -3.8354 2.9924
-5.4564 -3.8593 2.9854
-5.3702 -3.8825 2.9785
-5.2850 -3.9052 2.9718
-5.2007 -3.9273 2.9651
-5.1160 -3.9478 2.9578
-5.0319 -3.9674 2.9504
-4.9487 -3.9865 2.9431
-4.8665 -4.0050 2.9359
-4.7852 -4.0231 2.9288
-4.7048 -4.0406 2.9218
-4.6253 -4.0577 2.9150
-4.5461 -4.0738 2.9079
-4.4667 -4.0884 2.9002
-4.3882 -4.1027 2.8927
-4.3106 -4.1165 2.8853
-4.2339 -4.1298 2.8780
-4.1579 -4.1428 2.8709
-4.0828 -4.1553 2.8638
-4.0136 -4.1729 2.8606
-3.9490 -4.1943 2.8603
-3.8846 -4.2152 2.8600
-3.8206 -4.2358 2.8597
-3.7570 -4.2559 2.8595
-3.6936 -4.2757 2.8593
-3.6306 -4.2951 2.8591
-3.5678 -4.3141 2.8589
-3.5054 -4.3328 2.8588
-3.4432 -4.3511 2.8586
-3.3813 -4.3690 2.8585
-3.3197 -4.3866 2.8585
-3.2584 -4.4038 2.8584
-3.1973 -4.4207 2.8584
-3.1365 -4.4373 2.8584
-3.0759 -4.4535 2.8584
-3.0156 -4.4694 2.8584
-2.9555 -4.4849 2.8584
-2.8956 -4.5002 2.8585
-2.8359 -4.5151 2.8586
-2.7764 -4.5297 2.8587
-2.7172 -4.5440 2.8589
-2.6581 -4.5580 2.8590
-2.5993 -4.5716 2.8592
-2.5406 -4.5850 2.8594
-2.4821 -4.5981 2.8596
-2.4238 -4.6109 2.8598
-2.3657 -4.6234 2.8601
-2.3077 -4.6356 2.8604
-2.2499 -4.6475 2.8607
-2.1922 -4.6592 2.8610
-2.1347 -4.6705 2.8613
-2.0773 -4.6816 2.8617
-2.0201 -4.6924 2.8620
-1.9630 -4.7030 2.8624
-1.9060 -4.7132 2.8628
-1.8491 -4.7232 2.8633
-1.7924 -4.7330 2.8637
-1.7358 -4.7424 2.8642
-1.6793 -4.7516 2.8647
-1.6228 -4.7606 2.8652
-1.5665 -4.7693 2.8657
-1.5103 -4.7777 2.8662
-1.4541 -4.7859 2.8668
-1.3981 -4.7938 2.8674
-1.3421 -4.8015 2.8679
-0.9228 -3.4503 2.0581
-0.8812 -3.4495 2.0550
-0.8398 -3.4487 2.0520
-0.7987 -3.4479 2.0492
-0.7577 -3.4471 2.0465
-0.7170 -3.4463 2.0439
-0.6765 -3.4456 2.0415
-0.6361 -3.4449 2.0392
-0.5959 -3.4441 2.0370
-0.5559 -3.4434 2.0349
-0.5160 -3.4427 2.0330
-0.4762 -3.4421 2.0312
-0.4366 -3.4414 2.0295
-0.3971 -3.4407 2.0279
-0.3577 -3.4401 2.0265
-0.3184 -3.4394 2.0251
-0.2792 -3.4388 2.0239
-0.2400 -3.4382 2.0228
-0.2009 -3.4376 2.0218
-0.1619 -3.4370 2.0210
-0.1230 -3.4364 2.0202
-0.0840 -3.4359 2.0196
-0.0451 -3.4353 2.0191
-0.0063 -3.4347 2.0187
0.0326 -3.4342 2.0184
0.0714 -3.4337 2.0182
0.1103 -3.4331 2.0182
0.1491 -3.4326 2.0183
0.1880 -3.4321 2.0184
0.2269 -3.4316 2.0187
0.2659 -3.4312 2.0191
0.3049 -3.4307 2.0197
0.3440 -3.4302 2.0203
0.3831 -3.4298 2.0211
0.4223 -3.4293 2.0220
0.4617 -3.4289 2.0230
0.5010 -3.4284 2.0241
0.5406 -3.4280 2.0253
0.5802 -3.4276 2.0267
0.6199 -3.4272 2.0281
0.6598 -3.4268 2.0297
0.6999 -3.4264 2.0315
0.7401 -3.4260 2.0333
0.7804 -3.4257 2.0353
0.8210 -3.4253 2.0374
0.8617 -3.4249 2.0396
0.9026 -3.4246 2.0419
1.3475 -4.8892 2.9191
1.4055 -4.8852 2.9206
1.4637 -4.8808 2.9222
1.5221 -4.8763 2.9239
1.5806 -4.8714 2.9255
1.6393 -4.8663 2.9272
1.6982 -4.8609 2.9289
1.7573 -4.8553 2.9306
1.8166 -4.8494 2.9324
1.8761 -4.8432 2.9342
1.9279 -4.8171 2.9240
1.9876 -4.8104 2.9259
2.0558 -4.8230 2.9397
2.1162 -4.8157 2.9416
2.1768 -4.8082 2.9435
2.2376 -4.8002 2.9453
2.2984 -4.7914 2.9469
2.3595 -4.7823 2.9485
2.4208 -4.7730 2.9502
2.4823 -4.7633 2.9519
2.5442 -4.7534 2.9536
2.6062 -4.7431 2.9553
2.6686 -4.7326 2.9571
2.7313 -4.7217 2.9589
2.7942 -4.7106 2.9608
2.8575 -4.6991 2.9626
2.9210 -4.6873 2.9645
2.9849 -4.6751 2.9665
3.0491 -4.6627 2.9685
3.1136 -4.6499 2.9705
3.4416 -4.5807 2.9811
3.1785 -4.6367 2.9725
3.5083 -4.5658 2.9834
3.2437 -4.6233 2.9746
3.5754 -4.5506 2.9857
3.3093 -4.6094 2.9768
3.6429 -4.5349 2.9880
3.3752 -4.5953 2.9789
3.7108 -4.5189 2.9904
3.8480 -4.4857 2.9952
3.7792 -4.5025 2.9928
3.9172 -4.4685 2.9977
3.9869 -4.4509 3.0003
4.0571 -4.4329 3.0028
4.1277 -4.4145 3.0055
4.1988 -4.3956 3.0082
4.2705 -4.3764 3.0109
4.3426 -4.3566 3.0137
-6.7337 -2.5899 3.1142
-6.6505 -2.6353 3.1104
-6.5682 -2.6797 3.1067
-6.4866 -2.7233 3.1031
-6.4058 -2.7661 3.0995
-6.3257 -2.8080 3.0960
-6.2463 -2.8491 3.0926
-6.1676 -2.8894 3.0892
-6.0896 -2.9289 3.0859
-6.0122 -2.9677 3.0826
-5.9355 -3.0057 3.0795
-5.8595 -3.0430 3.0763
-5.7840 -3.0796 3.0733
-5.7092 -3.1155 3.0703
-5.6350 -3.1507 3.0673
-5.5614 -3.1852 3.0644
-5.4883 -3.2191 3.0616
-5.4148 -3.2517 3.0582
-5.3352 -3.2795 3.0511
-5.2564 -3.3067 3.0441
-5.1784 -3.3333 3.0372
-5.1013 -3.3592 3.0304
-5.0249 -3.3846 3.0238
-4.9493 -3.4093 3.0172
-4.8745 -3.4335 3.0108
-4.8004 -3.4571 3.0044
-4.7256 -3.4791 2.9973
-4.6514 -3.5005 2.9902
-4.5780 -3.5213 2.9832
-4.5053 -3.5416 2.9763
-4.4333 -3.5614 2.9696
-4.3620 -3.5807 2.9629
-4.2914 -3.5996 2.9563
-4.2210 -3.6176 2.9496
-4.1504 -3.6343 2.9423
-4.0804 -3.6505 2.9351
-4.0111 -3.6663 2.9280
-3.9424 -3.6816 2.9210
-3.8745 -3.6965 2.9141
-3.8071 -3.7110 2.9073
-3.7423 -3.7271 2.9022
-3.6839 -3.7486 2.9017
-3.6258 -3.7698 2.9013
-3.5679 -3.7906 2.9008
-3.5102 -3.8110 2.9005
-3.4528 -3.8311 2.9001
-3.3956 -3.8507 2.8998
-3.3387 -3.8700 2.8994
-3.2819 -3.8889 2.8991
-3.2254 -3.9075 2.8989
-3.1691 -3.9257 2.8986
-3.1130 -3.9436 2.8984
-3.0571 -3.9611 2.8982
-3.0014 -3.9782 2.8981
-2.9459 -3.9950 2.8979
-2.8906 -4.0115 2.8978
-2.8354 -4.0277 2.8977
-2.7805 -4.0435 2.8976
-2.7256 -4.0590 2.8975
-2.6710 -4.0742 2.8975
-2.6165 -4.0891 2.8975
-2.5622 -4.1036 2.8975
-2.5081 -4.1179 2.8975
-2.4541 -4.1318 2.8976
-2.4002 -4.1455 2.8977
-2.3465 -4.1588 2.8977
-2.2929 -4.1718 2.8979
-2.2394 -4.1846 2.8980
-2.1861 -4.1970 2.8981
-2.1328 -4.2092 2.8983
-2.0798 -4.2211 2.8985
-2.0268 -4.2327 2.8987
-1.9739 -4.2440 2.8990
-1.9211 -4.2550 2.8992
-1.8684 -4.2658 2.8995
-1.8159 -4.2762 2.8998
-1.7634 -4.2864 2.9001
-1.7110 -4.2964 2.9005
-1.6587 -4.3060 2.9008
-1.6065 -4.3154 2.9012
-1.5544 -4.3246 2.9016
-1.5023 -4.3334 2.9020
-1.4503 -4.3420 2.9024
-1.3984 -4.3504 2.9029
-1.3465 -4.3585 2.9034
-1.2948 -4.3663 2.9039
-1.2430 -4.3738 2.9044
-1.0347 -3.8051 2.5229
-0.9013 -3.4703 2.2977
-0.8589 -3.4694 2.2940
-0.8168 -3.4685 2.2905
-0.7749 -3.4677 2.2871
-0.7332 -3.4669 2.2839
-0.6917 -3.4661 2.2809
-0.6504 -3.4653 2.2780
-0.6093 -3.4645 2.2753
-0.5683 -3.4637 2.2728
-0.5275 -3.4630 2.2704
-0.4869 -3.4623 2.2681
-0.4463 -3.4615 2.2660
-0.4059 -3.4608 2.2641
-0.3656 -3.4602 2.2623
-0.3254 -3.4595 2.2607
-0.2853 -3.4588 2.2592
-0.2453 -3.4582 2.2579
-0.2054 -3.4575 2.2567
-0.1655 -3.4569 2.2556
-0.1257 -3.4563 2.2547
-0.0859 -3.4557 2.2540
-0.0462 -3.4551 2.2534
-0.0064 -3.4546 2.2529
0.0333 -3.4540 2.2526
0.0730 -3.4535 2.2524
0.1127 -3.4529 2.2524
0.1524 -3.4524 2.2525
0.1922 -3.4519 2.2528
0.2320 -3.4514 2.2532
0.2718 -3.4509 2.2537
0.3117 -3.4505 2.2544
0.3516 -3.4500 2.2553
0.3916 -3.4496 2.2563
0.4317 -3.4491 2.2574
0.4719 -3.4487 2.2587
0.5122 -3.4483 2.2601
0.5526 -3.4479 2.2617
0.5931 -3.4475 2.2635
0.6338 -3.4471 2.2654
0.6746 -3.4467 2.2674
0.7156 -3.4464 2.2696
0.7567 -3.4460 2.2719
0.7980 -3.4457 2.2744
0.8395 -3.4453 2.2771
0.8812 -3.4450 2.2799
1.0269 -3.8323 2.5398
1.2464 -4.4481 2.9522
1.2999 -4.4436 2.9537
1.3535 -4.4388 2.9553
1.4073 -4.4337 2.9569
1.4611 -4.4284 2.9584
1.5152 -4.4228 2.9601
1.5694 -4.4169 2.9617
1.6237 -4.4108 2.9634
1.6782 -4.4044 2.9651
1.7328 -4.3977 2.9668
1.7876 -4.3907 2.9685
1.8426 -4.3834 2.9703
1.8900 -4.3581 2.9600
1.9451 -4.3503 2.9618
2.0004 -4.3422 2.9637
2.0643 -4.3516 2.9776
2.1202 -4.3429 2.9795
2.1763 -4.3339 2.9815
2.2326 -4.3246 2.9834
2.2892 -4.3150 2.9854
2.3459 -4.3051 2.9874
2.4029 -4.2948 2.9895
2.4600 -4.2843 2.9916
2.5174 -4.2734 2.9937
2.5751 -4.2623 2.9958
2.6330 -4.2508 2.9980
2.6911 -4.2390 3.0002
2.7495 -4.2268 3.0024
2.8082 -4.2143 3.0047
2.8671 -4.2015 3.0070
2.9262 -4.1883 3.0093
2.9857 -4.1748 3.0117
3.0455 -4.1609 3.0141
3.1055 -4.1467 3.0166
3.1658 -4.1321 3.0190
3.2265 -4.1171 3.0215
3.2874 -4.1018 3.0241
3.3487 -4.0861 3.0267
3.4103 -4.0700 3.0293
3.4722 -4.0535 3.0320
3.5341 -4.0362 3.0344
3.5964 -4.0185 3.0368
3.6590 -4.0005 3.0393
3.7219 -3.9820 3.0419
3.7853 -3.9632 3.0444
3.8489 -3.9439 3.0471
3.9130 -3.9242 3.0497
3.9774 -3.9040 3.0525
-6.0700 -2.2358 3.1423
-5.9994 -2.2790 3.1387
-5.9293 -2.3215 3.1351
-5.8597 -2.3632 3.1317
-5.7906 -2.4041 3.1283
-5.7221 -2.4443 3.1249
-5.6539 -2.4838 3.1216
-5.5863 -2.5225 3.1184
-5.5191 -2.5606 3.1152
-5.4524 -2.5980 3.1121
-5.3861 -2.6347 3.1090
-5.3203 -2.6707 3.1060
-5.2549 -2.7061 3.1031
-5.1899 -2.7409 3.1002
-5.1253 -2.7750 3.0973
-5.0612 -2.8085 3.0945
-4.9936 -2.8392 3.0894
-4.9238 -2.8677 3.0827
-4.8546 -2.8956 3.0760
-4.7860 -2.9229 3.0695
-4.7181 -2.9496 3.0630
-4.6507 -2.9757 3.0567
-4.5839 -3.0013 3.0505
-4.5176 -3.0263 3.0443
-4.4519 -3.0507 3.0382
-4.3854 -3.0736 3.0313
-4.3195 -3.0961 3.0246
-4.2542 -3.1180 3.0179
-4.1894 -3.1394 3.0113
-4.1252 -3.1603 3.0048
-4.0615 -3.1807 2.9985
-3.9983 -3.2007 2.9922
-3.9354 -3.2200 2.9858
-3.8722 -3.2380 2.9788
-3.8094 -3.2556 2.9719
-3.7471 -3.2727 2.9651
-3.6854 -3.2894 2.9584
-3.6242 -3.3057 2.9518
-3.5634 -3.3215 2.9453
-3.5032 -3.3369 2.9389
-3.4498 -3.3582 2.9381
-3.3970 -3.3794 2.9375
-3.3444 -3.4002 2.9370
-3.2919 -3.4207 2.9365
-3.2396 -3.4407 2.9360
-3.1875 -3.4604 2.9355
-3.1355 -3.4798 2.9351
-3.0837 -3.4987 2.9347
-3.0321 -3.5174 2.9343
-2.9806 -3.5357 2.9340
-2.9293 -3.5536 2.9336
-2.8781 -3.5712 2.9333
-2.8271 -3.5884 2.9331
-2.7762 -3.6054 2.9328
-2.7255 -3.6219 2.9326
-2.6749 -3.6382 2.9324
-2.6244 -3.6541 2.9322
-2.5741 -3.6698 2.9320
-2.5238 -3.6851 2.9319
-2.4737 -3.7000 2.9318
-2.4238 -3.7147 2.9317
-2.3739 -3.7291 2.9316
-2.3241 -3.7431 2.9315
-2.2745 -3.7569 2.9315
-2.2249 -3.7704 2.9315
-2.1755 -3.7835 2.9315
-2.1261 -3.7964 2.9315
-2.0769 -3.8090 2.9316
-2.0277 -3.8213 2.9317
-1.9787 -3.8333 2.9318
-1.9297 -3.8450 2.9319
-1.8808 -3.8564 2.9320
-1.8320 -3.8676 2.9322
-1.7833 -3.8784 2.9324
-1.7346 -3.8890 2.9326
-1.6860 -3.8994 2.9328
-1.6375 -3.9094 2.9331
-1.5890 -3.9192 2.9333
-1.5406 -3.9287 2.9336
-1.4923 -3.9379 2.9339
-1.4440 -3.9469 2.9342
-1.3957 -3.9556 2.9346
-1.3476 -3.9641 2.9349
-1.2994 -3.9723 2.9353
-1.2514 -3.9802 2.9357
-1.2033 -3.9879 2.9362
-1.1553 -3.9953 2.9366
-1.1073 -4.0024 2.9371
-0.9229 -3.4927 2.5590
-0.8795 -3.4917 2.5545
-0.8363 -3.4908 2.5502
-0.7933 -3.4899 2.5462
-0.7506 -3.4890 2.5423
-0.7081 -3.4881 2.5386
-0.6658 -3.4872 2.5351
-0.6237 -3.4864 2.5318
-0.5817 -3.4856 2.5287
-0.5399 -3.4848 2.5258
-0.4983 -3.4840 2.5231
-0.4568 -3.4832 2.5206
-0.4154 -3.4825 2.5182
-0.3742 -3.4817 2.5160
-0.3330 -3.4810 2.5141
-0.2920 -3.4803 2.5123
-0.2510 -3.4797 2.5107
-0.2102 -3.4790 2.5093
-0.1694 -3.4783 2.5080
-0.1286 -3.4777 2.5069
-0.0879 -3.4771 2.5060
-0.0472 -3.4765 2.5053
-0.0066 -3.4759 2.5048
0.0341 -3.4753 2.5044
0.0747 -3.4748 2.5043
0.1153 -3.4742 2.5043
0.1560 -3.4737 2.5044
0.1966 -3.4732 2.5048
0.2373 -3.4727 2.5053
0.2781 -3.4722 2.5060
0.3189 -3.4717 2.5069
0.3598 -3.4713 2.5080
0.4007 -3.4708 2.5093
0.4418 -3.4704 2.5107
0.4829 -3.4700 2.5123
0.5242 -3.4696 2.5141
0.5655 -3.4692 2.5161
0.6070 -3.4689 2.5182
0.6487 -3.4685 2.5206
0.6905 -3.4682 2.5231
0.7324 -3.4678 2.5259
0.7746 -3.4675 2.5288
0.8169 -3.4672 2.5319
0.8594 -3.4669 2.5352
0.9021 -3.4667 2.5387
1.1078 -4.0631 2.9801
1.1572 -4.0585 2.9815
1.2067 -4.0537 2.9830
1.2563 -4.0486 2.9844
1.3060 -4.0432 2.9860
1.3558 -4.0376 2.9875
1.4057 -4.0317 2.9890
1.4558 -4.0255 2.9906
1.5060 -4.0190 2.9922
1.5563 -4.0123 2.9938
1.6067 -4.0053 2.9955
1.6572 -3.9980 2.9972
1.7079 -3.9904 2.9989
1.7587 -3.9826 3.0006
1.8097 -3.9744 3.0024
1.8608 -3.9660 3.0041
1.9042 -3.9412 2.9937
1.9554 -3.9322 2.9956
2.0149 -3.9389 3.0096
2.0667 -3.9293 3.0115
2.1185 -3.9194 3.0134
2.1706 -3.9092 3.0154
2.2228 -3.8986 3.0174
2.2752 -3.8878 3.0194
2.3277 -3.8766 3.0214
2.3805 -3.8651 3.0234
2.4334 -3.8533 3.0255
2.4865 -3.8412 3.0277
2.5398 -3.8288 3.0298
2.5933 -3.8160 3.0320
2.6470 -3.8029 3.0342
2.7009 -3.7894 3.0364
2.7550 -3.7756 3.0387
2.8094 -3.7615 3.0410
2.8640 -3.7470 3.0434
2.9187 -3.7321 3.0457
2.9737 -3.7169 3.0482
3.0290 -3.7013 3.0506
3.0845 -3.6854 3.0531
3.1402 -3.6691 3.0556
3.1962 -3.6524 3.0581
3.2524 -3.6353 3.0607
3.3089 -3.6178 3.0633
3.3656 -3.6000 3.0660
3.4226 -3.5817 3.0687
3.4799 -3.5630 3.0714
3.5375 -3.5440 3.0742
3.5954 -3.5245 3.0770
3.6535 -3.5046 3.0799
