ply
format ascii 1.0
element vertex 1964
property float32 x
property float32 y
property float32 z
end_header
-12.2211 6.3603 -4.5014
-12.3010 6.2453 -4.4688
-12.8417 5.8837 -4.4161
-12.3871 5.5260 -4.2019
-12.1440 5.2726 -4.0636
-11.9606 5.0516 -3.9480
-11.8772 4.8773 -3.8674
-11.7957 4.7070 -3.7888
-11.7159 4.5405 -3.7123
-11.6624 4.3868 -3.6453
-11.6405 4.2470 -3.5892
-11.6188 4.1089 -3.5340
-11.5974 3.9724 -3.4797
-11.5762 3.8375 -3.4262
-11.5657 3.7075 -3.3766
-11.5599 3.5800 -3.3290
-11.5541 3.4535 -3.2821
-11.5065 2.8307 -3.0509
-11.5483 3.3281 -3.2357
-11.4947 2.7084 -3.0057
-11.5426 3.2036 -3.1899
-11.4864 2.5879 -2.9620
-11.5305 3.0783 -3.1430
-11.4844 2.4694 -2.9204
-11.5184 2.9540 -3.0966
-11.4824 2.3516 -2.8792
-11.4805 2.2344 -2.8385
-11.4747 1.8862 -2.7189
-11.4785 2.1178 -2.7982
-11.4727 1.7712 -2.6798
-11.4766 2.0017 -2.7584
-11.4708 1.6566 -2.6411
-11.4670 1.4288 -2.5648
-11.4689 1.5425 -2.6028
-11.4651 1.3155 -2.5272
-11.4595 0.9778 -2.4164
-11.4633 1.2026 -2.4899
-11.4577 0.8658 -2.3800
-11.4614 1.0900 -2.4530
-11.4558 0.7541 -2.3440
-11.4521 0.5315 -2.2729
-11.4539 0.6427 -2.3083
-11.4502 0.4205 -2.2378
-11.4447 0.0884 -2.1340
-11.4484 0.3096 -2.2029
-11.4429 -0.0220 -2.0999
-11.4465 0.1990 -2.1683
-11.4410 -0.1323 -2.0660
-11.4345 -0.3528 -1.9985
-11.4392 -0.2426 -2.0324
-11.4325 -0.4630 -1.9653
-11.4268 -0.7936 -1.8670
-11.4306 -0.5732 -1.9323
-11.4249 -0.9039 -1.8346
-11.4287 -0.6833 -1.8996
-11.4229 -1.0143 -1.8024
-11.4191 -1.2354 -1.7386
-11.4210 -1.1248 -1.7704
-11.4171 -1.3462 -1.7069
-11.4152 -1.4572 -1.6754
-11.4113 -1.6797 -1.6129
-11.4133 -1.5683 -1.6441
-11.4094 -1.7914 -1.5818
-11.4035 -2.1280 -1.4895
-11.4074 -1.9033 -1.5509
-11.4016 -2.2408 -1.4589
-11.4055 -2.0155 -1.5201
-11.3996 -2.3541 -1.4285
-11.3956 -2.5817 -1.3680
-11.3976 -2.4677 -1.3982
-11.3936 -2.6962 -1.3379
-11.3876 -3.0425 -1.2480
-11.3916 -2.8111 -1.3078
-11.3856 -3.1590 -1.2183
-11.3896 -2.9265 -1.2779
-11.3835 -3.2760 -1.1885
-11.3799 -3.5121 -1.1293
-11.3822 -3.3939 -1.1590
-11.3776 -3.6310 -1.0998
-11.3705 -3.9918 -1.0114
-11.3753 -3.7505 -1.0703
-11.3682 -4.1135 -0.9820
-11.3729 -3.8708 -1.0408
-11.3658 -4.2361 -0.9526
-11.3609 -4.4837 -0.8939
-11.3634 -4.3595 -0.9232
-11.3585 -4.6089 -0.8646
-11.3511 -4.9902 -0.7765
-11.3561 -4.7350 -0.8352
-11.3486 -5.1193 -0.7472
-11.3536 -4.8621 -0.8059
-11.3460 -5.2495 -0.7178
-11.3409 -5.5133 -0.6590
-11.3435 -5.3808 -0.6884
-11.3383 -5.6470 -0.6295
-11.3303 -6.0558 -0.5407
-11.3357 -5.7820 -0.5999
-11.3276 -6.1948 -0.5110
-11.3330 -5.9182 -0.5704
-11.3209 -6.3330 -0.4811
-11.3156 -6.6183 -0.4213
-11.3183 -6.4749 -0.4512
-11.3129 -6.7634 -0.3912
-11.3046 -7.2086 -0.3005
-11.3102 -6.9100 -0.3611
-11.3017 -7.3606 -0.2700
-11.3074 -7.0584 -0.3308
-11.2989 -7.5144 -0.2393
-11.2960 -7.6703 -0.2085
-11.2930 -7.8281 -0.1776
-11.2900 -7.9881 -0.1465
-11.2870 -8.1502 -0.1152
-11.2839 -8.3145 -0.0837
-11.2808 -8.4812 -0.0521
-11.2776 -8.6503 -0.0202
-11.2744 -8.8219 0.0119
-13.0020 5.9983 -3.7400
-12.4540 5.5958 -3.5283
-12.2091 5.3405 -3.4068
-11.9842 5.1009 -3.2935
-11.9007 4.9264 -3.2210
-11.8191 4.7559 -3.1503
-11.7393 4.5893 -3.0814
-11.6041 4.0154 -2.8632
-11.6691 4.4292 -3.0162
-11.5830 3.8806 -2.8137
-11.6472 4.2896 -2.9644
-11.5677 3.7492 -2.7662
-11.6255 4.1517 -2.9134
-11.5618 3.6219 -2.7216
-11.5560 3.4957 -2.6775
-11.5226 2.9974 -2.5039
-11.5502 3.3704 -2.6340
-11.5107 2.8742 -2.4609
-11.5445 3.2461 -2.5909
-11.4989 2.7520 -2.4184
-11.5347 3.1216 -2.5474
-11.4868 2.6307 -2.3763
-11.4848 2.5124 -2.3367
-11.4770 2.0452 -2.1820
-11.4828 2.3947 -2.2975
-11.4751 1.9297 -2.1442
-11.4732 1.8148 -2.1067
-11.4809 2.2776 -2.2587
-11.4712 1.7003 -2.0696
-11.4789 2.1611 -2.2202
-11.4694 1.5863 -2.0327
-11.4618 1.1340 -1.8880
-11.4675 1.4727 -1.9961
-11.4599 1.0218 -1.8525
-11.4656 1.3594 -1.9598
-11.4581 0.9099 -1.8172
-11.4637 1.2466 -1.9238
-11.4562 0.7982 -1.7822
-11.4544 0.6868 -1.7474
-11.4470 0.2431 -1.6105
-11.4525 0.5756 -1.7129
-11.4451 0.1325 -1.5768
-11.4507 0.4646 -1.6785
-11.4433 0.0221 -1.5432
-11.4488 0.3537 -1.6444
-11.4415 -0.0883 -1.5099
-11.4396 -0.1986 -1.4767
-11.4290 -0.6396 -1.3451
-11.4347 -0.3089 -1.4433
-11.4270 -0.7499 -1.3127
-11.4328 -0.4191 -1.4104
-11.4251 -0.8603 -1.2804
-11.4309 -0.5293 -1.3777
-11.4232 -0.9708 -1.2482
-11.4213 -1.0814 -1.2162
-11.4135 -1.5254 -1.0891
-11.4193 -1.1921 -1.1843
-11.4116 -1.6369 -1.0576
-11.4174 -1.3030 -1.1525
-11.4096 -1.7487 -1.0261
-11.4155 -1.4141 -1.1207
-11.4077 -1.8607 -0.9948
-11.4057 -1.9731 -0.9635
-11.3978 -2.4260 -0.8389
-11.4038 -2.0857 -0.9322
-11.4018 -2.1988 -0.9011
-11.3959 -2.5402 -0.8078
-11.3998 -2.3122 -0.8699
-11.3938 -2.6549 -0.7768
-11.3898 -2.8857 -0.7149
-11.3918 -2.7700 -0.7459
-11.3878 -3.0018 -0.6840
-11.3821 -3.3539 -0.5912
-11.3858 -3.1186 -0.6531
-11.3798 -3.4724 -0.5603
-11.3837 -3.2359 -0.6221
-11.3774 -3.5915 -0.5293
-11.3727 -3.8319 -0.4674
-11.3751 -3.7114 -0.4984
-11.3704 -3.9532 -0.4363
-11.3632 -4.3220 -0.3430
-11.3680 -4.0753 -0.4053
-11.3607 -4.4466 -0.3118
-11.3656 -4.1982 -0.3742
-11.3583 -4.5722 -0.2805
-11.3533 -4.8261 -0.2176
-11.3558 -4.6987 -0.2491
-11.3508 -4.9547 -0.1861
-11.3432 -5.3467 -0.0909
-11.3483 -5.0842 -0.1545
-11.3406 -5.4797 -0.0589
-11.3457 -5.2149 -0.1227
-11.3380 -5.6140 -0.0268
-11.3327 -5.8863 0.0378
-11.3353 -5.7495 0.0054
-11.3300 -6.0244 0.0703
-11.3272 -6.1640 0.1030
-11.3188 -6.4460 0.1689
-11.3161 -6.5901 0.2021
-11.3215 -6.3034 0.1358
-11.3134 -6.7359 0.2355
-11.3079 -7.0325 0.3030
-11.3051 -7.1835 0.3371
-11.3107 -6.8834 0.2691
-11.3022 -7.3364 0.3714
-11.2993 -7.4912 0.4060
-11.2964 -7.6479 0.4408
-11.2934 -7.8067 0.4759
-11.2904 -7.9677 0.5113
-11.2874 -8.1309 0.5470
-11.2843 -8.2963 0.5831
-11.2811 -8.4642 0.6194
-11.2779 -8.6345 0.6561
-37.7792 20.3565 -9.7412
-38.7856 19.9138 -9.6658
-13.3537 6.1998 -3.1063
-12.5547 5.6785 -2.8700
-12.2706 5.4045 -2.7563
-12.0358 5.1598 -2.6564
-11.9228 4.9726 -2.5852
-11.8412 4.8020 -2.5222
-11.7613 4.6352 -2.4606
-11.6832 4.4720 -2.4005
-11.6535 4.3297 -2.3512
-11.6319 4.1920 -2.3042
-11.6105 4.0559 -2.2578
-11.5894 3.9213 -2.2121
-11.5695 3.7885 -2.1671
-11.5636 3.6615 -2.1253
-11.5578 3.5355 -2.0839
-11.5521 3.4105 -2.0429
-11.5464 3.2863 -2.0024
-11.5386 3.1626 -1.9619
-11.5266 3.0386 -1.9211
-11.5147 2.9155 -1.8807
-11.5029 2.7934 -1.8407
-11.4871 2.6713 -1.8004
-11.4851 2.5532 -1.7627
-11.4832 2.4356 -1.7253
-11.4812 2.3187 -1.6882
-11.4793 2.2023 -1.6514
-11.4774 2.0865 -1.6148
-11.4754 1.9712 -1.5785
-11.4735 1.8564 -1.5425
-11.4716 1.7420 -1.5067
-11.4697 1.6280 -1.4711
-11.4678 1.5145 -1.4358
-11.4660 1.4013 -1.4006
-11.4641 1.2885 -1.3657
-11.4622 1.1760 -1.3310
-11.4603 1.0639 -1.2965
-11.4585 0.9520 -1.2622
-11.4566 0.8403 -1.2280
-11.4548 0.7289 -1.1940
-11.4529 0.6178 -1.1602
-11.4511 0.5068 -1.1266
-11.4492 0.3959 -1.0931
-11.4419 -0.0462 -0.9604
-11.4474 0.2852 -1.0597
-11.4400 -0.1565 -0.9275
-11.4455 0.1747 -1.0265
-11.4382 -0.2669 -0.8947
-11.4437 0.0642 -0.9934
-11.4331 -0.3771 -0.8618
-11.4311 -0.4874 -0.8293
-11.4234 -0.9291 -0.6998
-11.4292 -0.5977 -0.7968
-11.4215 -1.0398 -0.6676
-11.4273 -0.7081 -0.7644
-11.4196 -1.1506 -0.6355
-11.4254 -0.8185 -0.7321
-11.4176 -1.2616 -0.6034
-11.4157 -1.3728 -0.5714
-11.4079 -1.8199 -0.4435
-11.4138 -1.4842 -0.5394
-11.4059 -1.9324 -0.4116
-11.4118 -1.5958 -0.5074
-11.4040 -2.0453 -0.3797
-11.4099 -1.7077 -0.4755
-11.4020 -2.1585 -0.3478
-11.4000 -2.2720 -0.3158
-11.3920 -2.7306 -0.1879
-11.3980 -2.3860 -0.2839
-11.3900 -2.8465 -0.1559
-11.3961 -2.5004 -0.2519
-11.3880 -2.9629 -0.1237
-11.3940 -2.6153 -0.2200
-11.3860 -3.0799 -0.0916
-11.3839 -3.1974 -0.0593
-11.3749 -3.6739 0.0703
-11.3818 -3.3156 -0.0270
-11.3726 -3.7948 0.1030
-11.3796 -3.4344 0.0053
-11.3702 -3.9164 0.1357
-11.3773 -3.5538 0.0378
-11.3678 -4.0388 0.1686
-11.3654 -4.1621 0.2016
-11.3556 -4.6640 0.3348
-11.3629 -4.2862 0.2347
-11.3531 -4.7919 0.3685
-11.3605 -4.4112 0.2679
-11.3505 -4.9209 0.4024
-11.3580 -4.5371 0.3013
-11.3480 -5.0509 0.4364
-11.3454 -5.1820 0.4707
-11.3350 -5.7187 0.6097
-11.3428 -5.3144 0.5051
-11.3323 -5.8561 0.6450
-11.3402 -5.4479 0.5397
-11.3296 -5.9948 0.6805
-11.3376 -5.5826 0.5746
-11.3268 -6.1351 0.7163
-11.3241 -6.2768 0.7524
-11.3111 -6.8585 0.8996
-11.3193 -6.4189 0.7887
-11.3083 -7.0085 0.9372
-11.3166 -6.5638 0.8253
-11.3055 -7.1603 0.9752
-11.3139 -6.7103 0.8623
-11.3026 -7.3141 1.0135
-11.2997 -7.4698 1.0522
-11.2967 -7.6275 1.0913
-11.2938 -7.7873 1.1308
-11.2907 -7.9493 1.1707
-11.2877 -8.1136 1.2110
-11.2846 -8.2801 1.2518
-11.2814 -8.4492 1.2931
-37.7562 20.9237 -7.7716
-37.5770 20.3412 -7.5828
-38.2457 20.2169 -7.5650
-38.3479 19.7889 -7.4340
-38.5126 19.3950 -7.3159
-39.1244 19.2218 -7.2815
-12.6922 5.7768 -2.2188
-12.3296 5.4661 -2.1101
-12.0935 5.2199 -2.0256
-11.9440 5.0169 -1.9575
-11.8623 4.8462 -1.9017
-11.7824 4.6793 -1.8473
-11.7043 4.5160 -1.7940
-11.6595 4.3681 -1.7467
-11.6379 4.2306 -1.7035
-11.6166 4.0947 -1.6608
-11.5955 3.9604 -1.6186
-11.5746 3.8274 -1.5770
-11.5654 3.6995 -1.5373
-11.5596 3.5738 -1.4984
-11.5539 3.4490 -1.4599
-11.5482 3.3251 -1.4217
-11.5425 3.2021 -1.3839
-11.5305 3.0782 -1.3455
-11.5186 2.9553 -1.3076
-11.5068 2.8333 -1.2699
-11.4950 2.7122 -1.2326
-11.4855 2.5925 -1.1958
-11.4835 2.4752 -1.1601
-11.4816 2.3584 -1.1245
-11.4797 2.2422 -1.0892
-11.4777 2.1265 -1.0541
-11.4758 2.0113 -1.0192
-11.4739 1.8965 -0.9844
-11.4720 1.7823 -0.9499
-11.4701 1.6684 -0.9155
-11.4682 1.5550 -0.8813
-11.4663 1.4419 -0.8472
-11.4645 1.3291 -0.8133
-11.4626 1.2167 -0.7795
-11.4607 1.1046 -0.7459
-11.4589 0.9928 -0.7123
-11.4570 0.8812 -0.6789
-11.4551 0.7698 -0.6456
-11.4533 0.6587 -0.6124
-11.4515 0.5477 -0.5793
-11.4496 0.4369 -0.5463
-11.4478 0.3262 -0.5134
-11.4459 0.2156 -0.4806
-11.4441 0.1051 -0.4478
-11.4422 -0.0053 -0.4151
-11.4404 -0.1156 -0.3824
-11.4386 -0.2260 -0.3498
-11.4333 -0.3363 -0.3171
-11.4314 -0.4466 -0.2846
-11.4294 -0.5570 -0.2521
-11.4275 -0.6674 -0.2196
-11.4256 -0.7779 -0.1872
-11.4237 -0.8885 -0.1547
-11.4217 -0.9993 -0.1223
-11.4198 -1.1102 -0.0898
-11.4179 -1.2213 -0.0574
-11.4159 -1.3326 -0.0249
-11.4140 -1.4441 0.0076
-11.4120 -1.5559 0.0401
-11.4101 -1.6679 0.0727
-11.4081 -1.7802 0.1053
-11.4062 -1.8929 0.1379
-11.4042 -2.0058 0.1706
-11.4022 -2.1192 0.2034
-11.4002 -2.2329 0.2362
-11.3982 -2.3471 0.2692
-11.3962 -2.4617 0.3022
-11.3942 -2.5767 0.3353
-11.3922 -2.6923 0.3685
-11.3902 -2.8084 0.4018
-11.3882 -2.9250 0.4352
-11.3861 -3.0422 0.4687
-11.3841 -3.1600 0.5024
-11.3820 -3.2784 0.5362
-11.3794 -3.3974 0.5701
-11.3771 -3.5171 0.6042
-11.3747 -3.6375 0.6384
-11.3723 -3.7586 0.6728
-11.3700 -3.8806 0.7074
-11.3676 -4.0033 0.7422
-11.3651 -4.1269 0.7772
-11.3627 -4.2514 0.8123
-11.3602 -4.3767 0.8477
-11.3578 -4.5031 0.8833
-11.3553 -4.6304 0.9192
-11.3528 -4.7587 0.9552
-11.3502 -4.8881 0.9916
-11.3477 -5.0185 1.0282
-11.3451 -5.1502 1.0650
-11.3425 -5.2830 1.1022
-11.3399 -5.4170 1.1396
-11.3372 -5.5523 1.1774
-11.3346 -5.6889 1.2155
-11.3319 -5.8269 1.2539
-11.3291 -5.9663 1.2927
-11.3264 -6.1071 1.3318
-11.3236 -6.2494 1.3713
-11.3198 -6.3928 1.4110
-11.3171 -6.5384 1.4513
-11.3143 -6.6857 1.4920
-11.3115 -6.8347 1.5331
-11.3087 -6.9855 1.5747
-11.3059 -7.1382 1.6168
-11.3030 -7.2928 1.6593
-11.3001 -7.4495 1.7023
-11.2971 -7.6082 1.7459
-11.2941 -7.7690 1.7900
-11.2910 -7.9320 1.8346
-11.2880 -8.0974 1.8798
-11.2848 -8.2652 1.9257
-37.3460 21.2678 -5.7511
-37.6536 20.9554 -5.6577
-37.4927 20.3860 -5.4949
-37.9862 20.1735 -5.4283
-38.1076 19.7611 -5.3077
-38.5258 19.5010 -5.2280
-38.4554 18.9943 -5.0822
-12.8290 5.8746 -1.5617
-12.3877 5.5267 -1.4657
-12.1502 5.2790 -1.3965
-11.9647 5.0601 -1.3351
-11.8830 4.8894 -1.2865
-11.8031 4.7225 -1.2389
-11.7249 4.5591 -1.1923
-11.6654 4.4056 -1.1484
-11.6438 4.2684 -1.1088
-11.6226 4.1328 -1.0696
-11.6015 3.9986 -1.0308
-11.5807 3.8659 -0.9924
-11.5671 3.7368 -0.9550
-11.5613 3.6113 -0.9185
-11.5556 3.4867 -0.8823
-11.5499 3.3630 -0.8463
-11.5443 3.2403 -0.8106
-11.5342 3.1171 -0.7748
-11.5224 2.9943 -0.7391
-11.5105 2.8725 -0.7036
-11.4988 2.7515 -0.6685
-11.4858 2.6312 -0.6334
-11.4839 2.5140 -0.5992
-11.4819 2.3974 -0.5651
-11.4800 2.2813 -0.5312
-11.4781 2.1657 -0.4974
-11.4762 2.0507 -0.4637
-11.4743 1.9361 -0.4302
-11.4724 1.8219 -0.3967
-11.4705 1.7082 -0.3634
-11.4686 1.5948 -0.3302
-11.4667 1.4818 -0.2970
-11.4648 1.3692 -0.2640
-11.4630 1.2568 -0.2310
-11.4611 1.1448 -0.1981
-11.4592 1.0330 -0.1653
-11.4574 0.9215 -0.1325
-11.4555 0.8101 -0.0998
-11.4537 0.6990 -0.0671
-11.4518 0.5881 -0.0344
-11.4500 0.4773 -0.0018
-11.4481 0.3666 0.0308
-11.4463 0.2560 0.0633
-11.4445 0.1456 0.0959
-11.4426 0.0351 0.1285
-11.4408 -0.0752 0.1610
-11.4389 -0.1856 0.1936
-11.4371 -0.2960 0.2262
-11.4316 -0.4063 0.2587
-11.4297 -0.5167 0.2913
-11.4277 -0.6272 0.3240
-11.4258 -0.7378 0.3567
-11.4239 -0.8484 0.3895
-11.4219 -0.9593 0.4223
-11.4200 -1.0703 0.4551
-11.4181 -1.1814 0.4881
-11.4161 -1.2928 0.5211
-11.4142 -1.4044 0.5542
-11.4122 -1.5163 0.5874
-11.4103 -1.6284 0.6207
-11.4083 -1.7409 0.6540
-11.4063 -1.8537 0.6875
-11.4044 -1.9668 0.7212
-11.4024 -2.0803 0.7549
-11.4004 -2.1942 0.7888
-11.3984 -2.3085 0.8228
-11.3964 -2.4233 0.8570
-11.3944 -2.5385 0.8913
-11.3924 -2.6543 0.9258
-11.3904 -2.7706 0.9604
-11.3883 -2.8874 0.9952
-11.3863 -3.0048 1.0303
-11.3842 -3.1229 1.0655
-11.3821 -3.2415 1.1009
-11.3792 -3.3606 1.1365
-11.3769 -3.4806 1.1723
-11.3745 -3.6013 1.2084
-11.3721 -3.7228 1.2447
-11.3697 -3.8450 1.2813
-11.3673 -3.9681 1.3181
-11.3649 -4.0920 1.3552
-11.3624 -4.2168 1.3926
-11.3600 -4.3426 1.4303
-11.3575 -4.4693 1.4682
-11.3550 -4.5970 1.5065
-11.3525 -4.7257 1.5451
-11.3499 -4.8555 1.5841
-11.3474 -4.9865 1.6234
-11.3448 -5.1186 1.6631
-11.3422 -5.2518 1.7031
-11.3395 -5.3864 1.7435
-11.3369 -5.5222 1.7844
-11.3342 -5.6594 1.8256
-11.3314 -5.7979 1.8673
-11.3287 -5.9379 1.9095
-11.3259 -6.0794 1.9521
-11.3231 -6.2224 1.9951
-11.3203 -6.3670 2.0387
-11.3175 -6.5133 2.0828
-11.3148 -6.6614 2.1275
-11.3120 -6.8112 2.1727
-11.3091 -6.9628 2.2184
-11.3063 -7.1164 2.2648
-11.3034 -7.2719 2.3117
-11.3004 -7.4295 2.3593
-11.2974 -7.5891 2.4076
-11.2944 -7.7510 2.4565
-11.2914 -7.9152 2.5062
-11.1536 -7.9852 2.5260
-30.2705 22.8633 -4.4327
-30.5071 22.5738 -4.3469
-30.4286 20.2818 -3.7575
-37.0301 20.6951 -3.5275
-37.6883 20.5828 -3.4632
-37.5627 20.0410 -3.3262
-38.3400 19.9780 -3.2681
-38.3581 19.5146 -3.1437
-38.1563 18.9464 -3.0029
-12.9682 5.9741 -0.8959
-12.4461 5.5876 -0.8206
-12.2072 5.3384 -0.7666
-11.9855 5.1034 -0.7153
-11.9037 4.9327 -0.6736
-11.8238 4.7657 -0.6328
-11.7455 4.6022 -0.5927
-11.6713 4.4431 -0.5535
-11.6498 4.3062 -0.5173
-11.6285 4.1707 -0.4815
-11.6075 4.0368 -0.4459
-11.5867 3.9042 -0.4107
-11.5688 3.7740 -0.3758
-11.5630 3.6487 -0.3416
-11.5573 3.5244 -0.3075
-11.5516 3.4010 -0.2736
-11.5460 3.2784 -0.2398
-11.5380 3.1560 -0.2062
-11.5261 3.0334 -0.1727
-11.5143 2.9117 -0.1393
-11.5026 2.7909 -0.1061
-11.4862 2.6698 -0.0731
-11.4842 2.5528 -0.0402
-11.4823 2.4363 -0.0075
-11.4804 2.3204 0.0252
-11.4784 2.2050 0.0578
-11.4765 2.0901 0.0903
-11.4746 1.9757 0.1228
-11.4727 1.8616 0.1552
-11.4708 1.7480 0.1876
-11.4689 1.6347 0.2200
-11.4671 1.5218 0.2523
-11.4652 1.4093 0.2846
-11.4633 1.2970 0.3169
-11.4615 1.1850 0.3491
-11.4596 1.0733 0.3814
-11.4577 0.9618 0.4136
-11.4559 0.8506 0.4459
-11.4540 0.7395 0.4782
-11.4522 0.6286 0.5105
-11.4504 0.5178 0.5428
-11.4485 0.4072 0.5752
-11.4467 0.2966 0.6076
-11.4448 0.1862 0.6401
-11.4430 0.0757 0.6726
-11.4412 -0.0347 0.7052
-11.4393 -0.1450 0.7378
-11.4375 -0.2554 0.7705
-11.4318 -0.3658 0.8031
-11.4299 -0.4762 0.8359
-11.4280 -0.5867 0.8689
-11.4260 -0.6974 0.9020
-11.4241 -0.8081 0.9351
-11.4222 -0.9190 0.9684
-11.4202 -1.0301 1.0018
-11.4183 -1.1413 1.0354
-11.4163 -1.2528 1.0690
-11.4144 -1.3645 1.1028
-11.4124 -1.4764 1.1368
-11.4105 -1.5887 1.1709
-11.4085 -1.7013 1.2052
-11.4065 -1.8142 1.2397
-11.4046 -1.9274 1.2743
-11.4026 -2.0411 1.3091
-11.4006 -2.1551 1.3442
-11.3986 -2.2696 1.3794
-11.3966 -2.3845 1.4149
-11.3946 -2.5000 1.4505
-11.3926 -2.6159 1.4864
-11.3905 -2.7324 1.5226
-11.3885 -2.8494 1.5590
-11.3864 -2.9671 1.5956
-11.3844 -3.0853 1.6325
-11.3823 -3.2043 1.6697
-11.3790 -3.3235 1.7070
-11.3767 -3.4438 1.7448
-11.3743 -3.5647 1.7828
-11.3719 -3.6865 1.8212
-11.3695 -3.8090 1.8598
-11.3671 -3.9324 1.8989
-11.3646 -4.0567 1.9382
-11.3622 -4.1818 1.9780
-11.3597 -4.3079 2.0181
-11.3572 -4.4350 2.0586
-11.3547 -4.5631 2.0995
-11.3522 -4.6923 2.1408
-11.3496 -4.8225 2.1826
-11.3470 -4.9539 2.2248
-11.3444 -5.0864 2.2674
-11.3418 -5.2202 2.3105
-11.3391 -5.3553 2.3541
-11.3365 -5.4916 2.3982
-11.3338 -5.6294 2.4429
-11.3310 -5.7685 2.4880
-11.3283 -5.9091 2.5337
-11.3255 -6.0512 2.5800
-11.3227 -6.1949 2.6269
-11.3208 -6.3407 2.6746
-11.2414 -6.4438 2.7043
-11.0258 -6.4668 2.7007
-10.8154 -6.4890 2.6971
-10.6101 -6.5105 2.6937
-10.4097 -6.5313 2.6904
-10.2139 -6.5514 2.6871
-10.0225 -6.5710 2.6840
-9.8354 -6.5899 2.6809
-9.6524 -6.6082 2.6779
-9.4966 -6.6423 2.6816
-36.8308 21.1444 -1.6089
-36.4809 20.4756 -1.4812
-37.0276 20.3130 -1.3900
-38.1461 20.4482 -1.3160
-37.8908 19.8413 -1.1929
-38.4838 19.6794 -1.0961
-38.8615 19.4004 -0.9910
-38.7138 18.8611 -0.8725
-38.6562 18.3726 -0.7573
-13.1329 6.0869 -0.2188
-12.5304 5.6612 -0.1722
-12.2658 5.3996 -0.1330
-12.0365 5.1605 -0.0958
-11.9249 4.9769 -0.0606
-11.8449 4.8098 -0.0263
-11.7666 4.6463 0.0074
-11.6900 4.4862 0.0405
-11.6558 4.3446 0.0734
-11.6346 4.2094 0.1061
-11.6136 4.0757 0.1386
-11.5928 3.9434 0.1708
-11.5723 3.8124 0.2029
-11.5648 3.6868 0.2350
-11.5591 3.5628 0.2670
-11.5534 3.4396 0.2990
-11.5478 3.3172 0.3309
-11.5418 3.1956 0.3626
-11.5300 3.0732 0.3941
-11.5182 2.9516 0.4256
-11.5065 2.8309 0.4569
-11.4949 2.7111 0.4881
-11.4846 2.5923 0.5193
-11.4826 2.4760 0.5508
-11.4807 2.3603 0.5824
-11.4788 2.2450 0.6139
-11.4769 2.1303 0.6454
-11.4750 2.0159 0.6769
-11.4731 1.9020 0.7085
-11.4712 1.7885 0.7400
-11.4693 1.6754 0.7716
-11.4674 1.5626 0.8032
-11.4656 1.4501 0.8348
-11.4637 1.3380 0.8665
-11.4618 1.2261 0.8983
-11.4600 1.1144 0.9301
-11.4581 1.0030 0.9619
-11.4563 0.8918 0.9938
-11.4544 0.7808 1.0258
-11.4526 0.6699 1.0579
-11.4507 0.5592 1.0901
-11.4489 0.4486 1.1223
-11.4471 0.3380 1.1547
-11.4452 0.2276 1.1872
-11.4434 0.1172 1.2197
-11.4416 0.0068 1.2524
-11.4397 -0.1036 1.2853
-11.4379 -0.2140 1.3182
-11.4320 -0.3244 1.3508
-11.4301 -0.4348 1.3841
-11.4282 -0.5454 1.4174
-11.4263 -0.6561 1.4510
-11.4243 -0.7668 1.4847
-11.4224 -0.8778 1.5186
-11.4205 -0.9889 1.5526
-11.4185 -1.1002 1.5869
-11.4166 -1.2118 1.6213
-11.4146 -1.3236 1.6560
-11.4127 -1.4356 1.6908
-11.4107 -1.5480 1.7259
-11.4087 -1.6606 1.7612
-11.4068 -1.7737 1.7968
-11.4048 -1.8870 1.8325
-11.4028 -2.0008 1.8686
-11.4008 -2.1150 1.9049
-11.3988 -2.2296 1.9415
-11.3968 -2.3447 1.9784
-11.3948 -2.4603 2.0155
-11.3927 -2.5764 2.0530
-11.3907 -2.6931 2.0907
-11.3887 -2.8104 2.1288
-11.3866 -2.9282 2.1672
-11.3845 -3.0467 2.2060
-11.3825 -3.1659 2.2451
-11.3804 -3.2857 2.2845
-11.3765 -3.4058 2.3240
-11.3741 -3.5270 2.3642
-11.3717 -3.6490 2.4047
-11.3693 -3.7719 2.4457
-11.3669 -3.8956 2.4871
-11.3644 -4.0201 2.5289
-11.3619 -4.1456 2.5712
-11.3594 -4.2721 2.6139
-11.3569 -4.3995 2.6571
-11.3544 -4.5280 2.7008
-11.3519 -4.6576 2.7450
-11.3493 -4.7883 2.7897
-11.3467 -4.9201 2.8350
-11.2453 -5.0091 2.8557
-11.0438 -5.0512 2.8504
-10.8470 -5.0921 2.8452
-10.6548 -5.1317 2.8402
-10.4669 -5.1701 2.8353
-10.2832 -5.2074 2.8305
-10.1034 -5.2435 2.8259
-9.9275 -5.2786 2.8214
-9.7554 -5.3127 2.8170
-9.5874 -5.3463 2.8130
-9.5091 -5.4281 2.8348
-9.4968 -5.5479 2.8765
-9.4844 -5.6689 2.9187
-9.3569 -5.7210 2.9256
-9.1982 -5.7517 2.9221
-9.0424 -5.7816 2.9186
-8.8564 -5.7892 2.9045
-8.6612 -5.7871 2.8861
-8.4701 -5.7838 2.8678
-21.6364 18.8409 -1.0503
-21.5921 18.4366 -0.9781
-37.8601 20.8675 0.6337
-37.5318 20.2180 0.7315
-38.0258 20.0144 0.8454
-38.1861 19.6320 0.9532
-38.2242 19.1891 1.0581
-12.6738 5.7637 0.4876
-12.3275 5.4640 0.5073
-12.0967 5.2232 0.5302
-11.9470 5.0231 0.5555
-11.8670 4.8559 0.5834
-11.7886 4.6923 0.6108
-11.7119 4.5321 0.6380
-11.6621 4.3846 0.6662
-11.6409 4.2496 0.6958
-11.6199 4.1161 0.7253
-11.5992 3.9840 0.7546
-11.5787 3.8532 0.7839
-11.5666 3.7264 0.8137
-11.5609 3.6026 0.8438
-11.5553 3.4796 0.8740
-11.5496 3.3575 0.9041
-11.5441 3.2362 0.9342
-11.5340 3.1144 0.9639
-11.5222 2.9930 0.9935
-11.5105 2.8724 1.0230
-11.4989 2.7527 1.0526
-11.4849 2.6332 1.0818
-11.4830 2.5171 1.1123
-11.4811 2.4016 1.1428
-11.4792 2.2865 1.1733
-11.4773 2.1719 1.2039
-11.4754 2.0577 1.2346
-11.4735 1.9439 1.2654
-11.4716 1.8305 1.2962
-11.4697 1.7175 1.3271
-11.4678 1.6048 1.3581
-11.4660 1.4924 1.3892
-11.4641 1.3804 1.4204
-11.4622 1.2686 1.4517
-11.4604 1.1570 1.4832
-11.4585 1.0457 1.5147
-11.4567 0.9345 1.5464
-11.4548 0.8235 1.5782
-11.4530 0.7127 1.6102
-11.4512 0.6020 1.6423
-11.4493 0.4915 1.6746
-11.4475 0.3810 1.7070
-11.4456 0.2705 1.7396
-11.4438 0.1602 1.7723
-11.4420 0.0498 1.8052
-11.4401 -0.0606 1.8384
-11.4383 -0.1710 1.8717
-11.4364 -0.2815 1.9052
-11.4304 -0.3919 1.9382
-11.4284 -0.5025 1.9721
-11.4265 -0.6131 2.0062
-11.4246 -0.7240 2.0406
-11.4226 -0.8350 2.0752
-11.4207 -0.9461 2.1100
-11.4188 -1.0575 2.1451
-11.4168 -1.1691 2.1804
-11.4149 -1.2810 2.2160
-11.4129 -1.3931 2.2519
-11.4109 -1.5056 2.2881
-11.4090 -1.6183 2.3245
-11.4070 -1.7314 2.3613
-11.4050 -1.8449 2.3984
-11.4030 -1.9588 2.4358
-11.4010 -2.0731 2.4735
-11.3990 -2.1879 2.5116
-11.3970 -2.3032 2.5500
-11.3950 -2.4189 2.5888
-11.3930 -2.5352 2.6279
-11.3909 -2.6521 2.6675
-11.3889 -2.7695 2.7074
-11.3868 -2.8876 2.7477
-11.3847 -3.0063 2.7884
-11.3826 -3.1256 2.8296
-11.3805 -3.2457 2.8712
-11.3763 -3.3659 2.9128
-11.3739 -3.4874 2.9552
-11.3468 -3.6019 2.9916
-11.1573 -3.6633 2.9849
-10.9721 -3.7230 2.9784
-10.7910 -3.7809 2.9721
-10.6138 -3.8371 2.9659
-10.4402 -3.8918 2.9599
-10.2704 -3.9449 2.9541
-10.1040 -3.9965 2.9484
-9.9409 -4.0467 2.9429
-9.7811 -4.0955 2.9375
-9.6250 -4.1433 2.9325
-9.5335 -4.2170 2.9466
-9.5223 -4.3262 2.9857
-9.5110 -4.4362 3.0253
-9.4470 -4.5219 3.0484
-9.2987 -4.5658 3.0440
-9.1529 -4.6087 3.0396
-9.0020 -4.6465 3.0328
-8.8311 -4.6712 3.0184
-8.6620 -4.6938 3.0036
-8.4969 -4.7156 2.9892
-8.3272 -4.7318 2.9722
-8.1576 -4.7450 2.9541
-8.0017 -4.7631 2.9400
-7.8780 -4.7980 2.9370
-7.7560 -4.8320 2.9341
-7.6358 -4.8653 2.9312
-7.5173 -4.8977 2.9284
-7.4004 -4.9294 2.9256
-21.4248 19.0385 0.2537
-37.9456 20.0816 2.8894
-43.5578 21.4769 3.6398
-42.3075 20.3604 3.6398
-41.1273 19.3108 3.6398
-12.8299 5.8752 1.1671
-12.3938 5.5330 1.1581
-12.1612 5.2905 1.1664
-11.9705 5.0722 1.1777
-11.8904 4.9049 1.1992
-11.8120 4.7411 1.2206
-11.7352 4.5807 1.2417
-11.6687 4.4269 1.2636
-11.6476 4.2922 1.2903
-11.6267 4.1589 1.3170
-11.6059 4.0269 1.3436
-11.5855 3.8963 1.3702
-11.5685 3.7681 1.3972
-11.5628 3.6445 1.4255
-11.5572 3.5218 1.4540
-11.5516 3.3999 1.4824
-11.5460 3.2788 1.5110
-11.5382 3.1578 1.5393
-11.5264 3.0366 1.5671
-11.5148 2.9162 1.5950
-11.5032 2.7966 1.6229
-11.4853 2.6763 1.6500
-11.4834 2.5604 1.6795
-11.4815 2.4450 1.7090
-11.4796 2.3301 1.7387
-11.4777 2.2156 1.7685
-11.4758 2.1015 1.7984
-11.4739 1.9879 1.8285
-11.4720 1.8747 1.8587
-11.4701 1.7618 1.8891
-11.4683 1.6492 1.9196
-11.4664 1.5369 1.9503
-11.4645 1.4250 1.9811
-11.4627 1.3133 2.0121
-11.4608 1.2018 2.0433
-11.4590 1.0905 2.0747
-11.4571 0.9795 2.1062
-11.4553 0.8686 2.1380
-11.4534 0.7578 2.1699
-11.4516 0.6472 2.2021
-11.4498 0.5366 2.2344
-11.4479 0.4262 2.2670
-11.4461 0.3158 2.2998
-11.4443 0.2054 2.3329
-11.4424 0.0951 2.3662
-11.4406 -0.0153 2.3997
-11.4387 -0.1257 2.4335
-11.4369 -0.2362 2.4675
-11.4307 -0.3466 2.5009
-11.4287 -0.4572 2.5354
-11.4268 -0.5679 2.5702
-11.4249 -0.6787 2.6054
-11.4229 -0.7898 2.6408
-11.4210 -0.9010 2.6765
-11.4190 -1.0124 2.7126
-11.4171 -1.1241 2.7489
-11.4151 -1.2360 2.7856
-11.4132 -1.3482 2.8227
-11.4112 -1.4607 2.8601
-11.4092 -1.5736 2.8978
-11.4073 -1.6868 2.9360
-11.4053 -1.8004 2.9745
-11.4033 -1.9144 3.0134
-11.4013 -2.0288 3.0526
-11.3993 -2.1437 3.0923
-11.3153 -2.2428 3.1099
-11.1415 -2.3221 3.1024
-10.9714 -2.3992 3.0950
-10.8046 -2.4741 3.0879
-10.6412 -2.5471 3.0809
-10.4811 -2.6180 3.0741
-10.3240 -2.6871 3.0675
-10.1699 -2.7543 3.0610
-10.0187 -2.8198 3.0548
-9.8703 -2.8835 3.0487
-9.7246 -2.9456 3.0427
-9.5826 -3.0065 3.0372
-9.5514 -3.1010 3.0667
-9.5411 -3.2027 3.1032
-9.5308 -3.3048 3.1402
-9.4582 -3.3854 3.1568
-9.3206 -3.4412 3.1514
-9.1848 -3.4954 3.1460
-9.0468 -3.5467 3.1391
-8.8955 -3.5903 3.1270
-8.7473 -3.6326 3.1151
-8.5579 -3.6548 3.0876
-8.4533 -3.7108 3.0900
-8.3042 -3.7452 3.0755
-8.1583 -3.7785 3.0613
-8.0090 -3.8077 3.0450
-7.8585 -3.8336 3.0274
-7.7183 -3.8621 3.0129
-7.6077 -3.9033 3.0094
-7.4986 -3.9436 3.0060
-7.3910 -3.9830 3.0026
-7.2847 -4.0216 2.9993
-7.1797 -4.0592 2.9961
-7.0760 -4.0961 2.9929
-6.9736 -4.1321 2.9898
-6.8724 -4.1673 2.9868
-6.7724 -4.2017 2.9839
-6.6735 -4.2354 2.9810
-6.5757 -4.2684 2.9781
-39.7673 29.6859 3.7922
-38.8761 28.4486 3.7922
-38.0241 27.2735 3.7922
-37.2087 26.1562 3.7922
-36.4273 25.0928 3.7922
-35.6778 24.0796 3.7922
-34.9581 23.1133 3.7922
-32.8893 21.2990 3.6398
-32.2506 20.4530 3.6398
-31.6355 19.6440 3.6398
-31.0426 18.8696 3.6398
-31.2120 18.5689 3.7284
-31.1713 18.1461 3.7922
-30.6156 17.4355 3.7922
-30.0782 16.7532 3.7922
-29.5583 16.0979 3.7922
-29.0549 15.4679 3.7922
-28.5672 14.8619 3.7922
-28.0943 14.2787 3.7922
-27.6356 13.7171 3.7922
-27.1903 13.1759 3.7922
-26.7578 12.6541 3.7922
-13.0029 5.9989 1.8722
-12.4660 5.6083 1.8232
-12.2315 5.3638 1.8168
-12.0075 5.1303 1.8110
-11.9158 4.9579 1.8245
-11.8373 4.7939 1.8397
-11.7604 4.6333 1.8550
-11.6850 4.4759 1.8703
-11.6547 4.3379 1.8926
-11.6339 4.2047 1.9165
-11.6132 4.0730 1.9404
-11.5927 3.9425 1.9645
-11.5724 3.8134 1.9886
-11.5649 3.6894 2.0149
-11.5593 3.5670 2.0417
-11.5537 3.4453 2.0687
-11.5481 3.3244 2.0957
-11.5426 3.2042 2.1230
-11.5310 3.0832 2.1492
-11.5193 2.9629 2.1755
-11.5077 2.8434 2.2019
-11.4962 2.7247 2.2285
-11.4839 2.6065 2.2550
-11.4820 2.4913 2.2838
-11.4801 2.3766 2.3127
-11.4782 2.2622 2.3418
-11.4763 2.1484 2.3711
-11.4744 2.0349 2.4006
-11.4725 1.9218 2.4303
-11.4706 1.8090 2.4602
-11.4687 1.6965 2.4903
-11.4669 1.5844 2.5207
-11.4650 1.4725 2.5512
-11.4632 1.3609 2.5820
-11.4613 1.2495 2.6131
-11.4595 1.1384 2.6444
-11.4576 1.0274 2.6759
-11.4558 0.9165 2.7077
-11.4539 0.8059 2.7397
-11.4521 0.6953 2.7721
-11.4503 0.5848 2.8046
-11.4484 0.4744 2.8375
-11.4466 0.3640 2.8707
-11.4447 0.2537 2.9041
-11.4429 0.1434 2.9379
-11.4411 0.0331 2.9719
-11.4392 -0.0773 3.0063
-11.4374 -0.1878 3.0410
-11.4310 -0.2982 3.0748
-11.4291 -0.4088 3.1101
-11.4271 -0.5195 3.1458
-11.4252 -0.6304 3.1818
-11.4233 -0.7414 3.2182
-11.2969 -0.8434 3.2195
-11.1395 -0.9405 3.2115
-10.9850 -1.0351 3.2036
-10.8334 -1.1272 3.1959
-10.6845 -1.2170 3.1884
-10.5383 -1.3045 3.1811
-10.3946 -1.3899 3.1740
-10.2534 -1.4730 3.1670
-10.1146 -1.5542 3.1602
-9.9781 -1.6333 3.1536
-9.8439 -1.7105 3.1471
-9.7121 -1.7859 3.1409
-9.5913 -1.8612 3.1377
-9.5725 -1.9553 3.1678
-9.5629 -2.0516 3.2013
-9.5533 -2.1481 3.2352
-9.5038 -2.2357 3.2558
-9.3770 -2.3037 3.2498
-9.2522 -2.3702 3.2439
-9.1291 -2.4352 3.2381
-8.9988 -2.4962 3.2292
-8.8680 -2.5549 3.2195
-8.7393 -2.6120 3.2100
-8.5660 -2.6532 3.1833
-8.4764 -2.7183 3.1872
-8.3468 -2.7687 3.1756
-8.2195 -2.8178 3.1642
-8.0887 -2.8636 3.1509
-7.9574 -2.9070 3.1367
-7.8287 -2.9492 3.1229
-7.6958 -2.9876 3.1067
-7.5624 -3.0236 3.0896
-7.4430 -3.0629 3.0775
-7.3444 -3.1092 3.0736
-7.2470 -3.1545 3.0698
-7.1507 -3.1988 3.0660
-7.0555 -3.2422 3.0624
-6.9614 -3.2847 3.0588
-6.8683 -3.3263 3.0552
-6.7762 -3.3671 3.0518
-6.6851 -3.4070 3.0484
-6.5949 -3.4460 3.0451
-6.5057 -3.4843 3.0418
-6.4173 -3.5218 3.0386
-6.3299 -3.5585 3.0355
-6.2433 -3.5944 3.0325
-6.1576 -3.6296 3.0295
-6.0727 -3.6641 3.0265
-5.9886 -3.6979 3.0237
-5.9053 -3.7310 3.0208
-27.8150 25.7390 3.7922
-27.4748 24.9463 3.7922
-27.1411 24.1793 3.7922
-26.8135 23.4368 3.7922
-25.4273 21.8049 3.6398
-25.1243 21.1365 3.6398
-24.8267 20.4890 3.6398
-24.5345 19.8614 3.6398
-24.2475 19.2529 3.6398
-24.0126 18.6997 3.6470
-24.4524 18.6742 3.7572
-24.3961 18.2694 3.7922
-24.1171 17.7078 3.7922
-23.8427 17.1625 3.7922
-23.5729 16.6331 3.7922
-23.3075 16.1187 3.7922
-23.0465 15.6190 3.7922
-22.7896 15.1333 3.7922
-22.5369 14.6612 3.7922
-22.2882 14.2022 3.7922
-22.0433 13.7557 3.7922
-21.8023 13.3214 3.7922
-21.5649 12.8987 3.7922
-21.3312 12.4874 3.7922
-21.1009 12.0870 3.7922
-20.8741 11.6972 3.7922
-20.6507 11.3175 3.7922
-20.4305 10.9477 3.7922
-20.2135 10.5873 3.7922
-19.9995 10.2362 3.7922
-19.7887 9.8939 3.7922
-19.5808 9.5602 3.7922
-19.3758 9.2349 3.7922
-13.5898 6.3206 2.6878
-12.6206 5.7256 2.5224
-12.3094 5.4451 2.4859
-12.0833 5.2093 2.4658
-11.9436 5.0159 2.4626
-11.8649 4.8517 2.4718
-11.7879 4.6908 2.4812
-11.7124 4.5331 2.4908
-11.6626 4.3876 2.5057
-11.6417 4.2547 2.5270
-11.6210 4.1231 2.5483
-11.6006 3.9928 2.5699
-11.5803 3.8638 2.5916
-11.5672 3.7382 2.6150
-11.5615 3.6159 2.6402
-11.5559 3.4945 2.6657
-11.5504 3.3738 2.6914
-11.5449 3.2538 2.7173
-11.5358 3.1336 2.7426
-11.5242 3.0135 2.7674
-11.5126 2.8941 2.7925
-11.5011 2.7755 2.8177
-11.4844 2.6564 2.8419
-11.4825 2.5414 2.8699
-11.4806 2.4268 2.8981
-11.4787 2.3126 2.9266
-11.4768 2.1989 2.9554
-11.4749 2.0856 2.9844
-11.4730 1.9726 3.0137
-11.4711 1.8599 3.0433
-11.4693 1.7476 3.0731
-11.4674 1.6356 3.1033
-11.4656 1.5239 3.1337
-11.4637 1.4124 3.1644
-11.4618 1.3011 3.1954
-11.4600 1.1900 3.2267
-11.4582 1.0791 3.2583
-11.4563 0.9683 3.2903
-11.4545 0.8577 3.3225
-11.3645 0.7414 3.3293
-11.2237 0.6241 3.3209
-11.0852 0.5097 3.3126
-10.9489 0.3980 3.3046
-10.8148 0.2890 3.2967
-10.6827 0.1826 3.2890
-10.5527 0.0786 3.2815
-10.4246 -0.0229 3.2742
-10.2984 -0.1220 3.2671
-10.1741 -0.2189 3.2601
-10.0516 -0.3135 3.2532
-9.9308 -0.4060 3.2465
-9.8118 -0.4964 3.2400
-9.6926 -0.5847 3.2330
-9.6059 -0.6731 3.2365
-9.5936 -0.7660 3.2652
-9.5849 -0.8593 3.2954
-9.5762 -0.9526 3.3259
-9.5480 -1.0439 3.3500
-9.4333 -1.1246 3.3436
-9.3202 -1.2036 3.3374
-9.2085 -1.2809 3.3313
-9.0970 -1.3563 3.3249
-8.9820 -1.4293 3.3168
-8.8686 -1.5007 3.3089
-8.7526 -1.5697 3.2995
-8.5985 -1.6295 3.2752
-8.5218 -1.7021 3.2800
-8.4089 -1.7660 3.2705
-8.2976 -1.8284 3.2612
-8.1831 -1.8882 3.2501
-8.0685 -1.9461 3.2386
-7.9557 -2.0025 3.2273
-7.8446 -2.0576 3.2162
-7.7281 -2.1094 3.2024
-7.6132 -2.1596 3.1887
-7.4997 -2.2085 3.1752
-7.3800 -2.2535 3.1584
-7.2626 -2.2972 3.1420
-7.1688 -2.3468 3.1354
-7.0813 -2.3969 3.1312
-6.9946 -2.4461 3.1271
-6.9089 -2.4943 3.1230
-6.8239 -2.5416 3.1190
-6.7398 -2.5879 3.1151
-6.6565 -2.6333 3.1113
-6.5740 -2.6779 3.1076
-6.4922 -2.7215 3.1039
-6.4112 -2.7643 3.1003
-6.3309 -2.8063 3.0967
-6.2514 -2.8475 3.0933
-6.1726 -2.8878 3.0899
-6.0944 -2.9274 3.0865
-6.0169 -2.9662 3.0832
-5.9400 -3.0043 3.0800
-5.8639 -3.0416 3.0769
-5.7883 -3.0783 3.0738
-5.7133 -3.1142 3.0707
-5.6390 -3.1494 3.0678
-5.5652 -3.1840 3.0648
-5.4920 -3.2178 3.0620
-5.4194 -3.2511 3.0591
-5.3473 -3.2837 3.0564
-18.8585 17.8113 3.7922
-18.7519 17.3815 3.7922
-18.6442 16.9600 3.7922
-18.5355 16.5468 3.7922
-18.4260 16.1418 3.7922
-18.3156 15.7446 3.7922
-18.2044 15.3553 3.7922
-18.0926 14.9736 3.7922
-17.9802 14.5993 3.7922
-17.8672 14.2324 3.7922
-17.7538 13.8726 3.7922
-17.6400 13.5199 3.7922
-17.5258 13.1741 3.7922
-17.4113 12.8350 3.7922
-17.2966 12.5025 3.7922
-17.1817 12.1765 3.7922
-17.0667 11.8568 3.7922
-16.9515 11.5433 3.7922
-16.8363 11.2359 3.7922
-16.7211 10.9344 3.7922
-16.6058 10.6386 3.7922
-16.4906 10.3486 3.7922
-16.3755 10.0642 3.7922
-16.2605 9.7851 3.7922
-16.1457 9.5114 3.7922
-16.0310 9.2429 3.7922
-15.9165 8.9796 3.7922
-15.8022 8.7212 3.7922
-15.0577 8.1274 3.6398
-14.9485 7.8887 3.6398
-14.8396 7.6544 3.6398
-14.7310 7.4246 3.6398
-14.6227 7.1991 3.6398
-14.5146 6.9777 3.6398
-14.4069 6.7605 3.6398
-12.8266 5.8729 3.2649
-12.3967 5.5361 3.1792
-12.1681 5.2977 3.1442
-11.9744 5.0803 3.1177
-11.8956 4.9157 3.1208
-11.8184 4.7545 3.1243
-11.7427 4.5964 3.1281
-11.6712 4.4425 3.1331
-11.6503 4.3097 3.1517
-11.6297 4.1782 3.1705
-11.6093 4.0480 3.1897
-11.5890 3.9191 3.2090
-11.5696 3.7916 3.2288
-11.5640 3.6696 3.2527
-11.5584 3.5483 3.2768
-11.5529 3.4279 3.3012
-11.5474 3.3081 3.3259
-11.5412 3.1888 3.3507
-11.5296 3.0688 3.3741
-11.5180 2.9496 3.3979
-11.5065 2.8311 3.4218
-11.4816 2.7101 3.4421
-11.3652 2.5694 3.4348
-11.2501 2.4317 3.4278
-11.1338 2.2963 3.4200
-11.0170 2.1636 3.4119
-10.9016 2.0338 3.4040
-10.7877 1.9068 3.3962
-10.6751 1.7825 3.3886
-10.5638 1.6609 3.3812
-10.4539 1.5419 3.3739
-10.3451 1.4253 3.3667
-10.2377 1.3113 3.3597
-10.1314 1.1996 3.3529
-10.0264 1.0903 3.3461
-9.9225 0.9832 3.3396
-9.8177 0.8782 3.3324
-9.7138 0.7753 3.3253
-9.6339 0.6762 3.3263
-9.6204 0.5826 3.3502
-9.6127 0.4897 3.3764
-9.6049 0.3969 3.4029
-9.5970 0.3042 3.4297
-9.5411 0.2106 3.4395
-9.4406 0.1174 3.4331
-9.3412 0.0261 3.4268
-9.2428 -0.0633 3.4207
-9.1454 -0.1510 3.4147
-9.0464 -0.2369 3.4078
-8.9473 -0.3210 3.4006
-8.8455 -0.4032 3.3921
-8.7449 -0.4837 3.3837
-8.6119 -0.5603 3.3625
-8.5471 -0.6396 3.3675
-8.4500 -0.7151 3.3596
-8.3538 -0.7891 3.3519
-8.2538 -0.8610 3.3423
-8.1548 -0.9313 3.3327
-8.0570 -1.0001 3.3233
-7.9603 -1.0674 3.3141
-7.8636 -1.1331 3.3046
-7.7634 -1.1966 3.2933
-7.6647 -1.2587 3.2822
-7.5672 -1.3193 3.2713
-7.4671 -1.3779 3.2589
-7.3658 -1.4345 3.2456
-7.2658 -1.4898 3.2325
-7.1614 -1.5425 3.2170
-6.9687 -1.6463 3.1921
-7.0571 -1.5934 3.2011
-6.8908 -1.7005 3.1876
-6.6610 -1.8569 3.1745
-6.8136 -1.7536 3.1831
-6.5857 -1.9071 3.1703
-6.7370 -1.8057 3.1788
-6.5110 -1.9564 3.1662
-6.3633 -2.0523 3.1581
-6.4368 -2.0048 3.1621
-6.2903 -2.0989 3.1542
-6.0749 -2.2337 3.1429
-6.2180 -2.1446 3.1504
-6.0041 -2.2770 3.1393
-6.1462 -2.1896 3.1466
-5.9339 -2.3195 3.1357
-5.7950 -2.4023 3.1288
-5.8642 -2.3613 3.1322
-5.7262 -2.4425 3.1254
-5.6580 -2.4820 3.1221
-5.5230 -2.5589 3.1156
-5.5903 -2.5208 3.1188
-5.4561 -2.5963 3.1125
-5.3897 -2.6331 3.1094
-5.3238 -2.6692 3.1064
-5.2583 -2.7046 3.1034
-5.1932 -2.7394 3.1004
-5.1285 -2.7735 3.0976
-5.0642 -2.8071 3.0947
-5.0004 -2.8400 3.0920
-4.9369 -2.8723 3.0892
-4.8738 -2.9041 3.0866
-14.1495 13.6432 3.7919
-14.1188 13.3634 3.7919
-14.0861 13.0872 3.7919
-14.0515 12.8145 3.7918
-14.0150 12.5454 3.7918
-13.9767 12.2798 3.7917
-13.9366 12.0177 3.7917
-13.8949 11.7591 3.7917
-13.8516 11.5039 3.7916
-13.8068 11.2522 3.7916
-13.7605 11.0038 3.7915
-13.7127 10.7589 3.7914
-13.6637 10.5174 3.7914
-13.6159 10.2811 3.7921
-13.5650 10.0467 3.7922
-13.5124 9.8151 3.7922
-13.4586 9.5868 3.7922
-13.4037 9.3617 3.7922
-13.3479 9.1397 3.7922
-13.2910 8.9209 3.7922
-13.2331 8.7052 3.7922
-13.1744 8.4926 3.7922
-12.5865 7.9494 3.6395
-12.5280 7.7508 3.6393
-12.4687 7.5550 3.6392
-12.4075 7.3614 3.6387
-12.3454 7.1705 3.6381
-12.2817 6.9818 3.6372
-12.2141 6.7941 3.6354
-12.1472 6.6099 3.6339
-12.0744 6.4256 3.6308
-12.0046 6.2460 3.6287
-11.9344 6.0692 3.6266
-11.8590 5.8927 3.6231
-11.7772 5.7161 3.6177
-11.6965 5.5430 3.6127
-11.6056 5.3682 3.6046
-11.5027 5.1911 3.5928
-11.3921 5.0140 3.5785
-11.2876 4.8430 3.5661
-11.1835 4.6753 3.5538
-11.0711 4.5075 3.5387
-10.9621 4.3443 3.5247
-10.8708 4.1912 3.5163
-10.7666 4.0359 3.5037
-10.6780 3.8893 3.4961
-10.5914 3.7459 3.4891
-10.5045 3.6050 3.4819
-10.4180 3.4667 3.4749
-10.3320 3.3309 3.4680
-10.2466 3.1977 3.4613
-10.1616 3.0669 3.4546
-10.0772 2.9385 3.4481
-9.9932 2.8125 3.4417
-9.9097 2.6888 3.4354
-9.8268 2.5674 3.4293
-9.7449 2.4483 3.4234
-9.6699 2.3329 3.4199
-9.6536 2.2329 3.4373
-9.6468 2.1358 3.4583
-9.6400 2.0390 3.4796
-9.6332 1.9427 3.5012
-9.6263 1.8469 3.5231
-9.5926 1.7465 3.5354
-9.5082 1.6383 3.5291
-9.4243 1.5320 3.5229
-9.3410 1.4277 3.5167
-9.2583 1.3253 3.5107
-9.1761 1.2247 3.5048
-9.0938 1.1258 3.4987
-9.0108 1.0285 3.4923
-8.9256 0.9327 3.4849
-8.8411 0.8388 3.4776
-8.7573 0.7465 3.4704
-8.6445 0.6538 3.4516
-8.5916 0.5672 3.4565
-8.5097 0.4799 3.4497
-8.4284 0.3943 3.4430
-8.3456 0.3102 3.4356
-8.2615 0.2276 3.4274
-8.1781 0.1466 3.4194
-8.0955 0.0671 3.4115
-8.0136 -0.0108 3.4038
-7.9323 -0.0873 3.3962
-7.8489 -0.1623 3.3875
-7.7647 -0.2357 3.3782
-7.6812 -0.3077 3.3691
-7.5985 -0.3783 3.3601
-7.5160 -0.4474 3.3510
-7.4299 -0.5149 3.3400
-7.3447 -0.5809 3.3293
-7.2604 -0.6456 3.3187
-7.1732 -0.7085 3.3066
-7.0851 -0.7699 3.2937
-6.9980 -0.8299 3.2811
-6.9056 -0.8877 3.2657
-6.8142 -0.9441 3.2504
-6.7423 -1.0018 3.2442
-6.6738 -1.0590 3.2394
-6.6057 -1.1151 3.2348
-6.5381 -1.1703 3.2302
-6.4710 -1.2245 3.2257
-6.4042 -1.2777 3.2212
-6.3380 -1.3301 3.2169
-6.2721 -1.3815 3.2126
-6.2067 -1.4321 3.2084
-6.1417 -1.4818 3.2042
-6.0771 -1.5306 3.2002
-6.0128 -1.5786 3.1962
-5.9490 -1.6258 3.1922
-5.8856 -1.6722 3.1883
-5.8226 -1.7178 3.1845
-5.7599 -1.7626 3.1808
-5.5129 -1.9343 3.1664
-5.6976 -1.8066 3.1771
-5.4520 -1.9754 3.1630
-5.6357 -1.8499 3.1735
-5.3915 -2.0159 3.1596
-5.5741 -1.8925 3.1699
-5.3313 -2.0556 3.1563
-5.2714 -2.0946 3.1530
-5.0352 -2.2444 3.1405
-5.2119 -2.1330 3.1498
-4.9769 -2.2802 3.1375
-5.1527 -2.1708 3.1467
-4.9189 -2.3155 3.1345
-5.0938 -2.2079 3.1435
-4.8612 -2.3501 3.1316
-4.8038 -2.3842 3.1288
-4.7467 -2.4176 3.1259
-4.6898 -2.4505 3.1232
-4.6333 -2.4829 3.1205
-4.5770 -2.5147 3.1178
-4.5210 -2.5459 3.1152
-4.4652 -2.5766 3.1126
-11.2308 11.0592 3.7899
-11.2308 10.8582 3.7899
-11.2288 10.6589 3.7898
-11.2243 10.4608 3.7895
-11.2177 10.2641 3.7891
-11.2093 10.0692 3.7887
-11.1992 9.8760 3.7883
-11.1872 9.6845 3.7878
-11.1734 9.4948 3.7873
-11.1580 9.3068 3.7868
-11.1411 9.1206 3.7863
-11.1225 8.9363 3.7857
-11.1022 8.7536 3.7850
-11.0805 8.5728 3.7843
-11.0573 8.3938 3.7837
-11.0328 8.2167 3.7830
-11.0067 8.0412 3.7821
-10.9792 7.8675 3.7813
-10.9506 7.6958 3.7805
-10.9207 7.5259 3.7796
-10.8874 7.3563 3.7780
-10.8523 7.1882 3.7761
-10.8157 7.0218 3.7740
-10.7776 6.8571 3.7719
-10.7375 6.6936 3.7693
-10.5496 6.4425 3.7150
-10.4034 6.2225 3.6754
-10.2826 6.0224 3.6449
-10.1807 5.8375 3.6212
-10.0996 5.6680 3.6051
-10.0273 5.5065 3.5923
-9.9661 5.3540 3.5837
-9.9152 5.2094 3.5789
-9.8652 5.0675 3.5748
-9.8302 4.9354 3.5763
-9.7961 4.8056 3.5784
-9.7635 4.6782 3.5813
-9.7423 4.5578 3.5886
-9.7213 4.4388 3.5963
-9.7004 4.3213 3.6044
-9.6886 4.2090 3.6161
-9.6782 4.0984 3.6286
-9.6678 3.9887 3.6415
-9.6306 3.8693 3.6445
-9.5686 3.7416 3.6384
-9.5063 3.6159 3.6322
-9.4440 3.4922 3.6262
-9.3817 3.3703 3.6202
-9.3193 3.2504 3.6143
-9.2569 3.1323 3.6085
-9.1945 3.0160 3.6028
-9.1321 2.9016 3.5972
-9.0698 2.7889 3.5917
-9.0074 2.6780 3.5863
-8.9451 2.5687 3.5809
-8.8811 2.4607 3.5750
-8.8157 2.3540 3.5685
-8.7243 2.2423 3.5515
-8.6594 2.1393 3.5452
-8.6204 2.0441 3.5497
-8.5557 1.9441 3.5436
-8.4910 1.8457 3.5376
-8.4266 1.7488 3.5318
-8.3623 1.6535 3.5260
-8.2969 1.5595 3.5197
-8.2297 1.4667 3.5127
-8.1628 1.3753 3.5058
-8.0962 1.2855 3.4990
-8.0298 1.1972 3.4923
-7.9637 1.1104 3.4857
-7.8979 1.0249 3.4792
-7.8314 0.9408 3.4724
-7.7626 0.8578 3.4646
-7.6943 0.7762 3.4569
-7.6263 0.6961 3.4493
-7.5587 0.6173 3.4418
-7.4914 0.5398 3.4344
-7.4214 0.4635 3.4257
-7.3511 0.3885 3.4168
-7.2813 0.3149 3.4080
-7.2119 0.2426 3.3993
-7.1405 0.1715 3.3896
-6.9226 -0.0338 3.3580
-7.0678 0.1017 3.3791
-6.8467 -0.0996 3.3456
-6.9957 0.0333 3.3689
-6.7715 -0.1640 3.3334
-6.6131 -0.2886 3.3045
-6.6926 -0.2270 3.3192
-6.5483 -0.3495 3.2970
-6.3702 -0.5272 3.2823
-6.4887 -0.4097 3.2920
-6.3114 -0.5845 3.2775
-6.4293 -0.4689 3.2871
-6.2529 -0.6408 3.2728
-6.1367 -0.7509 3.2637
-6.1947 -0.6963 3.2682
-6.0790 -0.8046 3.2592
-5.9074 -0.9607 3.2463
-6.0215 -0.8575 3.2548
-5.6823 -1.1573 3.2299
-5.8508 -1.0110 3.2421
-5.9644 -0.9095 3.2505
-5.6266 -1.2046 3.2260
-5.7943 -1.0606 3.2380
-5.4611 -1.3417 3.2146
-5.5712 -1.2510 3.2221
-5.7382 -1.1093 3.2339
-5.4063 -1.3860 3.2109
-5.5160 -1.2967 3.2183
-5.3519 -1.4296 3.2073
-5.2436 -1.5147 3.2002
-5.0297 -1.6769 3.1867
-5.2976 -1.4725 3.2037
-5.1898 -1.5562 3.1967
-4.9768 -1.7159 3.1834
-4.8193 -1.8290 3.1740
-5.1362 -1.5971 3.1933
-4.9241 -1.7542 3.1802
-4.7673 -1.8655 3.1709
-5.0829 -1.6373 3.1900
-4.8716 -1.7919 3.1771
-4.7154 -1.9015 3.1679
-4.6122 -1.9716 3.1620
-4.6637 -1.9368 3.1649
-4.5609 -2.0058 3.1592
-4.4082 -2.1052 3.1509
-4.5098 -2.0395 3.1564
-4.3576 -2.1373 3.1482
-4.4589 -2.0727 3.1536
-4.3073 -2.1689 3.1455
-4.2571 -2.1999 3.1429
-4.2071 -2.2304 3.1404
-4.1573 -2.2604 3.1378
-4.1076 -2.2900 3.1354
-9.1944 9.2508 3.7694
-9.2074 9.0974 3.7690
-9.2187 8.9448 3.7687
-9.2283 8.7932 3.7683
-9.2364 8.6425 3.7680
-9.2430 8.4927 3.7676
-9.2480 8.3439 3.7673
-9.2515 8.1961 3.7669
-9.2536 8.0493 3.7666
-9.2542 7.9035 3.7662
-9.2535 7.7587 3.7659
-9.2513 7.6150 3.7655
-9.2479 7.4723 3.7652
-9.2431 7.3307 3.7649
-9.2370 7.1902 3.7645
-9.2297 7.0507 3.7642
-9.2211 6.9124 3.7639
-9.2113 6.7751 3.7635
-9.1930 6.6337 3.7602
-9.1712 6.4920 3.7559
-9.1472 6.3508 3.7511
-9.1211 6.2104 3.7459
-9.0941 6.0716 3.7408
-9.0648 5.9334 3.7351
-9.0339 5.7963 3.7292
-9.0021 5.6607 3.7233
-8.9691 5.5265 3.7173
-8.9351 5.3937 3.7112
-8.9004 5.2626 3.7052
-8.8654 5.1332 3.6994
-8.8298 5.0055 3.6936
-8.7936 4.8793 3.6880
-8.7569 4.7548 3.6825
-8.7198 4.6318 3.6771
-8.6822 4.5105 3.6717
-8.6440 4.3906 3.6665
-8.6053 4.2722 3.6613
-8.5661 4.1553 3.6562
-8.5265 4.0399 3.6511
-8.4864 3.9259 3.6461
-8.4450 3.8130 3.6408
-8.4028 3.7014 3.6353
-8.3601 3.5912 3.6300
-8.3171 3.4824 3.6247
-8.2738 3.3750 3.6194
-8.2301 3.2691 3.6142
-8.1861 3.1645 3.6091
-8.1418 3.0614 3.6041
-8.0973 2.9595 3.5991
-8.0524 2.8591 3.5942
-8.0050 2.7591 3.5883
-7.9572 2.6605 3.5824
-7.9091 2.5632 3.5765
-7.8610 2.4673 3.5707
-7.8127 2.3727 3.5651
-7.7156 2.1874 3.5539
-7.7642 2.2794 3.5595
-7.6669 2.0967 3.5485
-7.5123 1.8302 3.5288
-7.6155 2.0066 3.5419
-7.4607 1.7439 3.5225
-7.5639 1.9177 3.5353
-7.4091 1.6589 3.5162
-7.3039 1.4922 3.5029
-7.3574 1.5752 3.5099
-7.2494 1.4104 3.4955
-7.0863 1.1722 3.4737
-7.1950 1.3297 3.4881
-7.0300 1.0949 3.4656
-7.1406 1.2504 3.4809
-6.9727 1.0186 3.4571
-6.8586 0.8698 3.4403
-6.9156 0.9436 3.4486
-6.7990 0.7969 3.4306
-6.6161 0.5849 3.3995
-6.7388 0.7251 3.4206
-6.5526 0.5164 3.3877
-6.6789 0.6545 3.4108
-6.4877 0.4491 3.3752
-6.3599 0.3182 3.3510
-6.4200 0.3828 3.3612
-6.3091 0.2551 3.3458
-6.1575 0.0714 3.3306
-5.9570 -0.1612 3.3114
-6.2585 0.1930 3.3407
-6.1072 0.0119 3.3257
-5.9072 -0.2172 3.3068
-6.2079 0.1317 3.3356
-6.0571 -0.0466 3.3209
-5.8575 -0.2723 3.3022
-5.7584 -0.3802 3.2933
-6.0070 -0.1043 3.3161
-5.8079 -0.3267 3.2977
-5.7091 -0.4330 3.2889
-5.5617 -0.5866 3.2762
-5.3671 -0.7811 3.2601
-5.1744 -0.9643 3.2449
-5.6598 -0.4850 3.2846
-5.5129 -0.6363 3.2721
-5.1265 -1.0084 3.2412
-5.3187 -0.8279 3.2562
-5.6107 -0.5362 3.2804
-5.4642 -0.6853 3.2680
-5.0788 -1.0518 3.2376
-5.2705 -0.8740 3.2524
-4.9837 -1.1368 3.2305
-5.0312 -1.0947 3.2340
-5.4156 -0.7335 3.2640
-4.9364 -1.1784 3.2271
-5.2224 -0.9195 3.2486
-4.7950 -1.2993 3.2170
-4.6083 -1.4524 3.2043
-4.8891 -1.2193 3.2237
-4.4234 -1.5964 3.1923
-4.7481 -1.3385 3.2138
-4.5619 -1.4892 3.2012
-4.8420 -1.2596 3.2203
-4.3775 -1.6310 3.1894
-4.7014 -1.3770 3.2106
-4.5156 -1.5255 3.1982
-4.2404 -1.7319 3.1810
-4.3317 -1.6652 3.1865
-4.6548 -1.4150 3.2074
-4.4694 -1.5612 3.1952
-4.1950 -1.7645 3.1783
-4.2860 -1.6988 3.1837
-4.0593 -1.8593 3.1703
-4.1496 -1.7965 3.1756
-4.0142 -1.8899 3.1678
-4.1044 -1.8281 3.1729
-3.9693 -1.9200 3.1653
-3.9246 -1.9497 3.1628
-3.8799 -1.9789 3.1603
-3.8353 -2.0077 3.1579
-3.7908 -2.0360 3.1555
-7.7488 7.9703 3.7663
-7.7683 7.8485 3.7660
-7.7863 7.7270 3.7657
-7.8030 7.6060 3.7654
-7.8184 7.4856 3.7652
-7.8666 7.0087 3.7640
-7.8324 7.3656 3.7649
-7.8815 6.5299 3.7566
-7.8755 6.8909 3.7637
-7.8451 7.2461 3.7646
-7.8774 6.4081 3.7524
-7.8832 6.7736 3.7634
-7.8565 7.1271 3.7643
-7.8711 6.2863 3.7477
-7.8560 6.0461 3.7388
-7.8834 6.6518 3.7602
-7.8070 5.5728 3.7182
-7.8641 6.1657 3.7433
-7.8452 5.9262 3.7336
-7.7418 5.1154 3.6976
-7.7918 5.4567 3.7129
-7.8335 5.8074 3.7285
-7.6647 4.6758 3.6781
-7.7236 5.0038 3.6926
-7.7758 5.3417 3.7077
-7.8208 5.6897 3.7234
-7.7046 4.8933 3.6876
-7.6437 4.5686 3.6734
-7.7592 5.2279 3.7026
-7.5764 4.2536 3.6596
-7.6850 4.7840 3.6828
-7.4772 3.8480 3.6416
-7.6220 4.4626 3.6688
-7.3651 3.4575 3.6226
-7.2434 3.0831 3.6036
-7.5527 4.1507 3.6551
-7.4500 3.7488 3.6368
-7.3358 3.3625 3.6179
-7.5995 4.3575 3.6642
-7.2102 2.9914 3.5981
-7.4222 3.6506 3.6320
-7.5283 4.0488 3.6507
-7.3060 3.2685 3.6134
-7.1084 2.7228 3.5821
-7.1767 2.9008 3.5927
-7.3939 3.5535 3.6273
-7.5033 3.9480 3.6462
-7.2757 3.1756 3.6088
-7.0737 2.6354 3.5769
-7.1427 2.8113 3.5874
-6.9631 2.3778 3.5593
-6.8076 2.0477 3.5344
-6.6400 1.7319 3.5061
-7.0384 2.5489 3.5716
-6.4578 1.4301 3.4724
-6.9250 2.2938 3.5532
-6.7662 1.9672 3.5274
-7.0009 2.4628 3.5654
-6.4099 1.3569 3.4629
-6.8867 2.2109 3.5472
-6.5953 1.6550 3.4980
-6.7246 1.8878 3.5204
-6.2581 1.1423 3.4308
-6.3611 1.2846 3.4532
-6.8482 2.1290 3.5412
-6.5505 1.5792 3.4899
-6.6829 1.8095 3.5135
-6.2025 1.0722 3.4175
-6.3096 1.2129 3.4419
-6.5057 1.5045 3.4819
-6.0681 0.8735 3.3958
-5.9013 0.6229 3.3751
-6.1511 1.0039 3.4065
-5.7340 0.3856 3.3556
-6.0265 0.8095 3.3905
-5.5664 0.1608 3.3370
-5.8596 0.5624 3.3701
-6.1096 0.9382 3.4011
-5.6922 0.3282 3.3508
-5.9848 0.7465 3.3853
-5.8177 0.5026 3.3652
-5.5245 0.1065 3.3325
-5.6503 0.2716 3.3462
-5.3988 -0.0521 3.3194
-5.9431 0.6843 3.3802
-5.7759 0.4437 3.3604
-5.4826 0.0529 3.3281
-5.6084 0.2158 3.3416
-5.3569 -0.1035 3.3152
-5.2312 -0.2536 3.3028
-5.0639 -0.4444 3.2870
-5.4407 0.0000 3.3237
-4.8971 -0.6249 3.2721
-5.3150 -0.1542 3.3110
-5.1893 -0.3023 3.2988
-5.0222 -0.4904 3.2832
-4.7307 -0.7956 3.2579
-4.8554 -0.6685 3.2685
-5.1475 -0.3503 3.2948
-5.2730 -0.2043 3.3069
-4.9804 -0.5359 3.2794
-4.6892 -0.8368 3.2545
-4.8138 -0.7114 3.2649
-5.1057 -0.3977 3.2909
-4.9387 -0.5807 3.2757
-4.5650 -0.9571 3.2445
-4.6478 -0.8775 3.2511
-4.7723 -0.7538 3.2614
-4.4000 -1.1097 3.2318
-4.5237 -0.9961 3.2413
-4.2358 -1.2539 3.2199
-4.6064 -0.9176 3.2478
-4.0723 -1.3901 3.2085
-4.3589 -1.1466 3.2288
-4.4824 -1.0345 3.2381
-4.1948 -1.2887 3.2170
-3.9097 -1.5186 3.1978
-4.0316 -1.4229 3.2058
-4.3178 -1.1828 3.2258
-4.4412 -1.0724 3.2350
-4.1539 -1.3230 3.2141
-3.8692 -1.5496 3.1952
-3.9909 -1.4553 3.2031
-4.2768 -1.2186 3.2228
-4.1131 -1.3568 3.2113
-3.8287 -1.5801 3.1927
-3.9503 -1.4872 3.2004
-3.7883 -1.6102 3.1902
-3.7480 -1.6398 3.1877
-3.7077 -1.6690 3.1853
-3.6674 -1.6977 3.1829
-3.6272 -1.7260 3.1805
-3.5871 -1.7539 3.1782
-3.5464 -1.7812 3.1754
-3.5032 -1.8066 3.1702
