ply
format ascii 1.0
element vertex 2203
property float32 x
property float32 y
property float32 z
end_header
8.1310 0.8945 -1.3678
8.1306 0.9744 -1.3931
8.1347 1.3787 -1.5235
8.1302 1.0546 -1.4185
8.1342 1.4602 -1.5500
8.1298 1.1349 -1.4442
8.1336 1.5421 -1.5767
8.1357 1.2165 -1.4712
8.1331 1.6243 -1.6036
8.1352 1.2974 -1.4972
8.1326 1.7069 -1.6308
8.1321 1.7899 -1.6582
8.1295 2.2114 -1.7992
8.1316 1.8733 -1.6859
8.1289 2.2972 -1.8282
8.1311 1.9571 -1.7138
8.1284 2.3834 -1.8576
8.1305 2.0414 -1.7420
8.1278 2.4703 -1.8872
8.1300 2.1262 -1.7705
8.1273 2.5577 -1.9172
8.1267 2.6458 -1.9475
8.1239 3.0959 -2.1042
8.1262 2.7344 -1.9781
8.1234 3.1882 -2.1367
8.1256 2.8238 -2.0091
8.1228 3.2812 -2.1695
8.1251 2.9138 -2.0404
8.1222 3.3750 -2.2028
8.1245 3.0045 -2.0721
8.1216 3.4697 -2.2366
8.1210 3.5653 -2.2707
8.1180 4.0577 -2.4486
8.1204 3.6618 -2.3053
8.1173 4.1593 -2.4857
8.1198 3.7593 -2.3404
8.1155 4.2615 -2.5230
8.1192 3.8577 -2.3760
8.1080 4.3617 -2.5591
8.1186 3.9572 -2.4121
8.1003 4.4629 -2.5956
8.0926 4.5651 -2.6326
8.0847 4.6684 -2.6702
7.0237 -10.6730 2.0524
7.1925 -10.6944 2.0494
7.3644 -10.7166 2.0464
7.5396 -10.7394 2.0432
7.7181 -10.7630 2.0400
7.9001 -10.7874 2.0366
8.0858 -10.8125 2.0331
8.1804 -10.7142 2.0062
8.1794 -10.4940 1.9565
8.1784 -10.2796 1.9080
8.1774 -10.0706 1.8606
8.1765 -9.8670 1.8144
8.1756 -9.6683 1.7691
8.1747 -9.4744 1.7248
8.1738 -9.2851 1.6815
8.1729 -9.1002 1.6391
8.1721 -8.9195 1.5975
8.1713 -8.7429 1.5568
8.1705 -8.5701 1.5168
8.1697 -8.4010 1.4776
8.1689 -8.2354 1.4391
8.1682 -8.0733 1.4014
8.1675 -7.9144 1.3643
8.1645 -7.7565 1.3274
8.1637 -7.6038 1.2916
8.1630 -7.4540 1.2563
8.1622 -7.3070 1.2216
8.1615 -7.1627 1.1874
8.1608 -7.0210 1.1538
8.1601 -6.8817 1.1207
8.1594 -6.7449 1.0880
8.1587 -6.6104 1.0558
8.1581 -6.4781 1.0241
8.1574 -6.3480 0.9928
8.1568 -6.2199 0.9619
8.1561 -6.0939 0.9313
8.1555 -5.9698 0.9012
8.1549 -5.8475 0.8715
8.1543 -5.7270 0.8420
8.1537 -5.6083 0.8130
8.1531 -5.4912 0.7842
8.1525 -5.3758 0.7558
8.1519 -5.2619 0.7277
8.1514 -5.1495 0.6998
8.1508 -5.0385 0.6723
8.1503 -4.9290 0.6450
8.1497 -4.8208 0.6179
8.1503 -4.7146 0.5912
8.1497 -4.6089 0.5647
8.1491 -4.5045 0.5383
8.1485 -4.4013 0.5122
8.1479 -4.2992 0.4863
8.1473 -4.1982 0.4606
8.1468 -4.0982 0.4351
8.1462 -3.9993 0.4098
8.1456 -3.9014 0.3847
8.1451 -3.8045 0.3597
8.1445 -3.7085 0.3349
8.1440 -3.6133 0.3102
8.1434 -3.5191 0.2857
8.1429 -3.4257 0.2614
8.1423 -3.3330 0.2372
8.1418 -3.2412 0.2131
8.1413 -3.1501 0.1891
8.1408 -3.0598 0.1652
8.1402 -2.9701 0.1415
8.1397 -2.8811 0.1178
8.1392 -2.7927 0.0943
8.1377 -2.5313 0.0242
8.1387 -2.7050 0.0708
8.1372 -2.4452 0.0010
8.1382 -2.6178 0.0475
8.1367 -2.3597 -0.0222
8.1353 -2.1062 -0.0912
8.1362 -2.2748 -0.0453
8.1348 -2.0226 -0.1142
8.1357 -2.1903 -0.0683
8.1343 -1.9394 -0.1370
8.1431 -1.6944 -0.2057
8.1338 -1.8567 -0.1598
8.1427 -1.6126 -0.2284
8.1333 -1.7743 -0.1826
8.1423 -1.5312 -0.2512
8.1411 -1.2887 -0.3194
8.1419 -1.4501 -0.2739
8.1407 -1.2083 -0.3421
8.1415 -1.3692 -0.2966
8.1403 -1.1283 -0.3648
8.1391 -0.8893 -0.4330
8.1399 -1.0484 -0.3875
8.1387 -0.8100 -0.4558
8.1395 -0.9688 -0.4103
8.1383 -0.7309 -0.4786
8.1372 -0.4942 -0.5472
8.1379 -0.6518 -0.5014
8.1368 -0.4155 -0.5702
8.1376 -0.5730 -0.5243
8.1364 -0.3369 -0.5932
8.1353 -0.1013 -0.6625
8.1360 -0.2583 -0.6162
8.1349 -0.0228 -0.6858
8.1356 -0.1798 -0.6394
8.1345 0.0557 -0.7091
8.1333 0.2914 -0.7795
8.1341 0.1342 -0.7325
8.1329 0.3700 -0.8032
8.1337 0.2128 -0.7560
8.1326 0.4488 -0.8269
8.1314 0.6858 -0.8988
8.1322 0.5277 -0.8508
8.1310 0.7651 -0.9230
8.1318 0.6067 -0.8747
8.1306 0.8445 -0.9473
8.1295 1.0841 -1.0210
8.1302 0.9242 -0.9718
8.1291 1.1643 -1.0459
8.1299 1.0040 -0.9963
8.1348 1.2458 -1.0717
8.1333 1.4893 -1.1477
8.1343 1.3267 -1.0969
8.1327 1.5710 -1.1733
8.1338 1.4078 -1.1222
8.1322 1.6532 -1.1992
8.1307 1.9018 -1.2779
8.1317 1.7356 -1.2252
8.1301 1.9855 -1.3045
8.1312 1.8185 -1.2515
8.1296 2.0696 -1.3314
8.1280 2.3248 -1.4133
8.1291 2.1542 -1.3584
8.1275 2.4109 -1.4410
8.1285 2.2392 -1.3857
8.1269 2.4976 -1.4691
8.1253 2.7611 -1.5547
8.1264 2.5848 -1.4973
8.1247 2.8502 -1.5839
8.1258 2.6726 -1.5259
8.1241 2.9399 -1.6133
8.1224 3.2135 -1.7034
8.1236 3.0304 -1.6430
8.1219 3.3063 -1.7341
8.1230 3.1216 -1.6730
8.1213 3.3998 -1.7652
8.1195 3.6856 -1.8605
8.1207 3.4942 -1.7966
8.1189 3.7827 -1.8930
8.1201 3.5894 -1.8283
8.1183 3.8807 -1.9260
8.1176 3.9798 -1.9593
8.1170 4.0799 -1.9932
8.1164 4.1811 -2.0274
8.1139 4.2825 -2.0616
8.1064 4.3822 -2.0950
8.0988 4.4829 -2.1288
8.0911 4.5846 -2.1631
8.0833 4.6874 -2.1977
8.0715 4.7889 -2.2318
6.3462 -9.4895 2.3765
6.4182 -9.3896 2.3488
6.4309 -9.2067 2.3002
6.5103 -9.1222 2.2763
6.6561 -9.1297 2.2752
6.8047 -9.1380 2.2743
6.9558 -9.1466 2.2734
7.1095 -9.1554 2.2724
7.2659 -9.1646 2.2714
7.4251 -9.1739 2.2703
7.5872 -9.1836 2.2693
7.7524 -9.1935 2.2682
7.9208 -9.2038 2.2670
8.0925 -9.2143 2.2658
8.1735 -9.1203 2.2388
8.1727 -8.9373 2.1900
8.1719 -8.7585 2.1423
8.1710 -8.5836 2.0955
8.1702 -8.4125 2.0498
8.1695 -8.2451 2.0049
8.1687 -8.0811 1.9610
8.1680 -7.9206 1.9179
8.1651 -7.7612 1.8752
8.1644 -7.6070 1.8337
8.1636 -7.4557 1.7930
8.1628 -7.3073 1.7530
8.1621 -7.1616 1.7137
8.1614 -7.0186 1.6751
8.1607 -6.8782 1.6372
8.1600 -6.7402 1.5999
8.1593 -6.6046 1.5632
8.1586 -6.4712 1.5270
8.1579 -6.3401 1.4914
8.1573 -6.2111 1.4564
8.1566 -6.0841 1.4218
8.1560 -5.9591 1.3878
8.1554 -5.8359 1.3543
8.1548 -5.7147 1.3212
8.1542 -5.5952 1.2885
8.1536 -5.4773 1.2563
8.1530 -5.3612 1.2245
8.1524 -5.2466 1.1931
8.1518 -5.1336 1.1621
8.1512 -5.0220 1.1314
8.1507 -4.9119 1.1012
8.1501 -4.8031 1.0712
8.1507 -4.6963 1.0417
8.1501 -4.5901 1.0124
8.1495 -4.4852 0.9834
8.1489 -4.3815 0.9547
8.1483 -4.2789 0.9263
8.1477 -4.1775 0.8982
8.1471 -4.0771 0.8704
8.1465 -3.9778 0.8427
8.1459 -3.8795 0.8154
8.1454 -3.7822 0.7883
8.1448 -3.6858 0.7614
8.1443 -3.5903 0.7347
8.1437 -3.4957 0.7083
8.1432 -3.4020 0.6820
8.1426 -3.3091 0.6560
8.1421 -3.2170 0.6301
8.1416 -3.1256 0.6044
8.1410 -3.0350 0.5789
8.1405 -2.9450 0.5536
8.1400 -2.8558 0.5284
8.1395 -2.7672 0.5034
8.1390 -2.6792 0.4785
8.1385 -2.5919 0.4538
8.1380 -2.5051 0.4292
8.1375 -2.4189 0.4047
8.1370 -2.3332 0.3803
8.1365 -2.2480 0.3561
8.1360 -2.1634 0.3319
8.1355 -2.0792 0.3079
8.1350 -1.9954 0.2840
8.1345 -1.9121 0.2601
8.1341 -1.8292 0.2364
8.1427 -1.7486 0.2130
8.1423 -1.6664 0.1893
8.1419 -1.5845 0.1658
8.1415 -1.5030 0.1423
8.1411 -1.4218 0.1189
8.1407 -1.3408 0.0955
8.1403 -1.2602 0.0722
8.1400 -1.1798 0.0489
8.1396 -1.0996 0.0257
8.1392 -1.0197 0.0025
8.1388 -0.9400 -0.0207
8.1384 -0.8605 -0.0438
8.1380 -0.7811 -0.0669
8.1376 -0.7019 -0.0900
8.1372 -0.6229 -0.1131
8.1368 -0.5440 -0.1362
8.1364 -0.4652 -0.1593
8.1361 -0.3865 -0.1824
8.1357 -0.3078 -0.2055
8.1353 -0.2292 -0.2286
8.1349 -0.1507 -0.2517
8.1345 -0.0722 -0.2749
8.1341 0.0063 -0.2980
8.1338 0.0848 -0.3212
8.1334 0.1633 -0.3445
8.1330 0.2418 -0.3677
8.1326 0.3204 -0.3911
8.1322 0.3991 -0.4144
8.1318 0.4778 -0.4378
8.1315 0.5566 -0.4613
8.1311 0.6356 -0.4849
8.1307 0.7147 -0.5085
8.1303 0.7939 -0.5322
8.1299 0.8733 -0.5560
8.1295 0.9528 -0.5798
8.1291 1.0326 -0.6038
8.1287 1.1126 -0.6278
8.1284 1.1928 -0.6519
8.1339 1.2742 -0.6767
8.1334 1.3549 -0.7010
8.1329 1.4360 -0.7255
8.1324 1.5173 -0.7501
8.1319 1.5990 -0.7748
8.1313 1.6810 -0.7997
8.1308 1.7634 -0.8247
8.1303 1.8461 -0.8498
8.1298 1.9292 -0.8751
8.1293 2.0127 -0.9005
8.1287 2.0967 -0.9262
8.1282 2.1811 -0.9519
8.1277 2.2660 -0.9779
8.1271 2.3514 -1.0040
8.1266 2.4373 -1.0304
8.1260 2.5238 -1.0569
8.1255 2.6108 -1.0836
8.1249 2.6984 -1.1106
8.1244 2.7866 -1.1377
8.1238 2.8755 -1.1651
8.1232 2.9650 -1.1928
8.1227 3.0552 -1.2206
8.1221 3.1461 -1.2488
8.1215 3.2378 -1.2771
8.1209 3.3302 -1.3058
8.1204 3.4234 -1.3347
8.1198 3.5175 -1.3640
8.1192 3.6124 -1.3935
8.1186 3.7082 -1.4233
8.1180 3.8049 -1.4535
8.1173 3.9026 -1.4840
8.1167 4.0012 -1.5148
8.1161 4.1009 -1.5460
8.1155 4.2017 -1.5776
8.1124 4.3023 -1.6090
8.1049 4.4015 -1.6400
8.0974 4.5017 -1.6712
8.0897 4.6029 -1.7028
8.0820 4.7051 -1.7348
8.0694 4.8056 -1.7661
8.0565 4.9069 -1.7977
5.5895 -8.2226 2.5514
5.7123 -8.2208 2.5517
5.8367 -8.2189 2.5520
5.9627 -8.2170 2.5522
6.0903 -8.2147 2.5524
6.2195 -8.2124 2.5526
6.3506 -8.2100 2.5529
6.4105 -8.1151 2.5243
6.4220 -7.9615 2.4775
6.4734 -7.8600 2.4469
6.6067 -7.8576 2.4472
6.7426 -7.8558 2.4477
6.8808 -7.8539 2.4482
7.0212 -7.8520 2.4487
7.1639 -7.8500 2.4492
7.3091 -7.8480 2.4498
7.4569 -7.8459 2.4503
7.6072 -7.8437 2.4509
7.7603 -7.8415 2.4515
7.9162 -7.8391 2.4521
8.0751 -7.8367 2.4527
8.1658 -7.7665 2.4322
8.1650 -7.6107 2.3848
8.1642 -7.4579 2.3383
8.1635 -7.3080 2.2928
8.1627 -7.1610 2.2481
8.1620 -7.0167 2.2043
8.1612 -6.8750 2.1612
8.1605 -6.7358 2.1190
8.1598 -6.5991 2.0775
8.1591 -6.4647 2.0367
8.1585 -6.3325 1.9967
8.1578 -6.2025 1.9572
8.1572 -6.0746 1.9185
8.1565 -5.9487 1.8803
8.1559 -5.8247 1.8428
8.1553 -5.7026 1.8058
8.1546 -5.5823 1.7694
8.1540 -5.4637 1.7335
8.1534 -5.3468 1.6982
8.1528 -5.2316 1.6633
8.1523 -5.1179 1.6290
8.1517 -5.0057 1.5951
8.1511 -4.8950 1.5616
8.1506 -4.7856 1.5286
8.1510 -4.6782 1.4962
8.1504 -4.5715 1.4640
8.1498 -4.4661 1.4322
8.1492 -4.3618 1.4008
8.1486 -4.2588 1.3698
8.1480 -4.1569 1.3391
8.1474 -4.0561 1.3087
8.1468 -3.9564 1.2787
8.1463 -3.8577 1.2490
8.1457 -3.7601 1.2196
8.1451 -3.6633 1.1905
8.1446 -3.5675 1.1617
8.1440 -3.4726 1.1332
8.1435 -3.3785 1.1050
8.1429 -3.2853 1.0770
8.1424 -3.1929 1.0493
8.1419 -3.1013 1.0218
8.1413 -3.0104 0.9945
8.1408 -2.9202 0.9675
8.1403 -2.8307 0.9407
8.1398 -2.7419 0.9141
8.1393 -2.6537 0.8877
8.1387 -2.5661 0.8615
8.1382 -2.4791 0.8354
8.1377 -2.3927 0.8096
8.1372 -2.3069 0.7839
8.1367 -2.2215 0.7584
8.1362 -2.1367 0.7331
8.1358 -2.0523 0.7079
8.1353 -1.9684 0.6829
8.1348 -1.8850 0.6580
8.1343 -1.8019 0.6332
8.1420 -1.7210 0.6092
8.1416 -1.6387 0.5847
8.1412 -1.5567 0.5603
8.1408 -1.4751 0.5360
8.1404 -1.3937 0.5118
8.1400 -1.3127 0.4877
8.1396 -1.2320 0.4637
8.1392 -1.1515 0.4397
8.1388 -1.0713 0.4159
8.1384 -0.9913 0.3922
8.1381 -0.9116 0.3685
8.1377 -0.8320 0.3449
8.1373 -0.7526 0.3214
8.1369 -0.6734 0.2979
8.1365 -0.5943 0.2744
8.1361 -0.5153 0.2511
8.1357 -0.4365 0.2277
8.1354 -0.3578 0.2044
8.1350 -0.2791 0.1812
8.1346 -0.2005 0.1579
8.1342 -0.1220 0.1347
8.1338 -0.0435 0.1115
8.1334 0.0350 0.0884
8.1330 0.1135 0.0652
8.1327 0.1920 0.0420
8.1323 0.2705 0.0189
8.1319 0.3490 -0.0043
8.1315 0.4277 -0.0274
8.1311 0.5064 -0.0506
8.1307 0.5852 -0.0738
8.1304 0.6641 -0.0970
8.1300 0.7431 -0.1203
8.1296 0.8223 -0.1435
8.1292 0.9016 -0.1668
8.1288 0.9811 -0.1902
8.1284 1.0608 -0.2136
8.1280 1.1407 -0.2370
8.1335 1.2217 -0.2607
8.1330 1.3021 -0.2843
8.1325 1.3827 -0.3080
8.1320 1.4637 -0.3317
8.1315 1.5449 -0.3555
8.1310 1.6265 -0.3793
8.1305 1.7083 -0.4033
8.1299 1.7906 -0.4274
8.1294 1.8731 -0.4515
8.1289 1.9561 -0.4757
8.1284 2.0395 -0.5001
8.1278 2.1233 -0.5246
8.1273 2.2076 -0.5492
8.1268 2.2923 -0.5739
8.1262 2.3775 -0.5987
8.1257 2.4632 -0.6237
8.1251 2.5495 -0.6489
8.1246 2.6363 -0.6741
8.1240 2.7236 -0.6996
8.1235 2.8116 -0.7252
8.1229 2.9002 -0.7510
8.1224 2.9895 -0.7769
8.1218 3.0794 -0.8031
8.1212 3.1701 -0.8294
8.1206 3.2614 -0.8559
8.1200 3.3536 -0.8827
8.1195 3.4465 -0.9096
8.1189 3.5402 -0.9368
8.1183 3.6347 -0.9643
8.1177 3.7302 -0.9919
8.1171 3.8265 -1.0198
8.1164 3.9238 -1.0480
8.1158 4.0220 -1.0764
8.1152 4.1213 -1.1052
8.1184 4.2236 -1.1347
8.1110 4.3214 -1.1631
8.1035 4.4202 -1.1917
8.0960 4.5199 -1.2206
8.0884 4.6205 -1.2497
8.0801 4.7219 -1.2791
8.0674 4.8217 -1.3080
8.0545 4.9224 -1.3372
8.0416 5.0240 -1.3666
4.9816 -7.2077 2.6829
5.0877 -7.2006 2.6840
5.1950 -7.1932 2.6851
5.3035 -7.1857 2.6862
5.4132 -7.1779 2.6874
5.4947 -7.1316 2.6743
5.6366 -7.1617 2.6899
5.7503 -7.1533 2.6911
5.8654 -7.1447 2.6924
5.9819 -7.1356 2.6937
6.0995 -7.1258 2.6948
6.2186 -7.1158 2.6960
6.3393 -7.1055 2.6972
6.4025 -7.0301 2.6737
6.4131 -6.8985 2.6289
6.4322 -6.7787 2.5886
6.5479 -6.7609 2.5872
6.6723 -6.7501 2.5887
6.7988 -6.7392 2.5903
6.9272 -6.7280 2.5919
7.0577 -6.7166 2.5936
7.1902 -6.7047 2.5953
7.3250 -6.6926 2.5971
7.4619 -6.6801 2.5989
7.6013 -6.6673 2.6008
7.7430 -6.6540 2.6027
7.8872 -6.6405 2.6046
8.0341 -6.6265 2.6066
8.1604 -6.5934 2.6013
8.1597 -6.4579 2.5556
8.1590 -6.3246 2.5108
8.1584 -6.1936 2.4668
8.1577 -6.0648 2.4235
8.1570 -5.9379 2.3811
8.1564 -5.8131 2.3393
8.1558 -5.6902 2.2982
8.1551 -5.5691 2.2578
8.1545 -5.4498 2.2181
8.1539 -5.3321 2.1790
8.1533 -5.2162 2.1405
8.1527 -5.1018 2.1026
8.1522 -4.9890 2.0653
8.1516 -4.8777 2.0285
8.1510 -4.7678 1.9923
8.1514 -4.6598 1.9568
8.1508 -4.5525 1.9215
8.1502 -4.4466 1.8868
8.1495 -4.3419 1.8525
8.1489 -4.2384 1.8186
8.1483 -4.1361 1.7852
8.1477 -4.0348 1.7522
8.1472 -3.9347 1.7197
8.1466 -3.8356 1.6875
8.1460 -3.7376 1.6557
8.1454 -3.6405 1.6243
8.1449 -3.5443 1.5932
8.1443 -3.4491 1.5625
8.1438 -3.3547 1.5321
8.1432 -3.2612 1.5021
8.1427 -3.1685 1.4724
8.1422 -3.0766 1.4430
8.1416 -2.9855 1.4138
8.1411 -2.8950 1.3850
8.1406 -2.8053 1.3564
8.1400 -2.7162 1.3281
8.1395 -2.6278 1.3001
8.1390 -2.5401 1.2723
8.1385 -2.4529 1.2448
8.1380 -2.3663 1.2175
8.1375 -2.2803 1.1904
8.1370 -2.1947 1.1636
8.1365 -2.1097 1.1369
8.1360 -2.0252 1.1105
8.1355 -1.9412 1.0843
8.1350 -1.8576 1.0582
8.1346 -1.7744 1.0323
8.1413 -1.6932 1.0076
8.1409 -1.6107 0.9820
8.1405 -1.5286 0.9567
8.1401 -1.4469 0.9315
8.1397 -1.3655 0.9064
8.1393 -1.2844 0.8815
8.1389 -1.2036 0.8567
8.1385 -1.1231 0.8321
8.1381 -1.0428 0.8076
8.1377 -0.9627 0.7832
8.1373 -0.8829 0.7589
8.1369 -0.8033 0.7348
8.1366 -0.7239 0.7108
8.1362 -0.6446 0.6868
8.1358 -0.5655 0.6630
8.1354 -0.4865 0.6392
8.1350 -0.4077 0.6155
8.1346 -0.3289 0.5920
8.1343 -0.2503 0.5684
8.1339 -0.1717 0.5450
8.1335 -0.0931 0.5216
8.1331 -0.0147 0.4983
8.1327 0.0638 0.4751
8.1323 0.1423 0.4519
8.1319 0.2207 0.4287
8.1316 0.2992 0.4056
8.1312 0.3778 0.3825
8.1308 0.4564 0.3595
8.1304 0.5350 0.3365
8.1300 0.6138 0.3135
8.1296 0.6926 0.2905
8.1293 0.7716 0.2676
8.1289 0.8507 0.2447
8.1285 0.9299 0.2217
8.1281 1.0094 0.1988
8.1277 1.0890 0.1758
8.1273 1.1688 0.1529
8.1327 1.2497 0.1300
8.1322 1.3300 0.1071
8.1317 1.4106 0.0840
8.1311 1.4914 0.0610
8.1306 1.5725 0.0379
8.1301 1.6539 0.0148
8.1296 1.7357 -0.0083
8.1291 1.8178 -0.0315
8.1285 1.9002 -0.0548
8.1280 1.9830 -0.0781
8.1275 2.0662 -0.1014
8.1270 2.1499 -0.1248
8.1264 2.2340 -0.1483
8.1259 2.3185 -0.1719
8.1253 2.4035 -0.1956
8.1248 2.4890 -0.2193
8.1243 2.5751 -0.2431
8.1237 2.6617 -0.2671
8.1232 2.7488 -0.2911
8.1226 2.8366 -0.3153
8.1220 2.9249 -0.3395
8.1215 3.0139 -0.3639
8.1209 3.1036 -0.3884
8.1203 3.1939 -0.4131
8.1197 3.2850 -0.4379
8.1191 3.3768 -0.4628
8.1186 3.4694 -0.4879
8.1180 3.5628 -0.5132
8.1174 3.6570 -0.5386
8.1168 3.7521 -0.5642
8.1161 3.8480 -0.5900
8.1155 3.9449 -0.6160
8.1149 4.0428 -0.6422
8.1143 4.1416 -0.6686
8.1169 4.2432 -0.6955
8.1096 4.3405 -0.7218
8.1021 4.4388 -0.7482
8.0946 4.5380 -0.7748
8.0870 4.6381 -0.8017
8.0780 4.7384 -0.8286
8.0653 4.8376 -0.8553
8.0526 4.9378 -0.8822
8.0397 5.0388 -0.9094
8.0267 5.1409 -0.9367
4.4834 -6.3776 2.7846
4.5762 -6.3669 2.7861
4.6699 -6.3559 2.7876
4.7646 -6.3446 2.7892
4.8601 -6.3330 2.7908
4.9566 -6.3210 2.7925
5.0541 -6.3088 2.7942
5.1526 -6.2963 2.7959
5.2522 -6.2835 2.7977
5.3528 -6.2703 2.7996
5.4254 -6.2233 2.7865
5.5574 -6.2429 2.8034
5.6614 -6.2286 2.8053
5.7667 -6.2140 2.8074
5.8732 -6.1991 2.8094
5.9808 -6.1836 2.8115
6.0894 -6.1673 2.8134
6.1994 -6.1507 2.8154
6.3108 -6.1336 2.8174
6.3940 -6.0879 2.8065
6.4038 -5.9732 2.7638
6.4134 -5.8603 2.7219
6.4804 -5.8008 2.7048
6.5940 -5.7820 2.7069
6.7098 -5.7633 2.7092
6.8273 -5.7441 2.7117
6.9464 -5.7243 2.7142
7.0673 -5.7041 2.7167
7.1901 -5.6833 2.7193
7.3148 -5.6620 2.7220
7.4415 -5.6401 2.7248
7.5702 -5.6177 2.7276
7.7010 -5.5946 2.7305
7.8340 -5.5709 2.7335
7.9692 -5.5466 2.7365
8.1068 -5.5217 2.7396
8.1550 -5.4348 2.7123
8.1544 -5.3165 2.6693
8.1538 -5.1999 2.6269
8.1532 -5.0848 2.5853
8.1526 -4.9714 2.5443
8.1520 -4.8595 2.5040
8.1524 -4.7495 2.4646
8.1518 -4.6404 2.4255
8.1511 -4.5326 2.3870
8.1505 -4.4261 2.3491
8.1499 -4.3210 2.3118
8.1493 -4.2170 2.2750
8.1487 -4.1142 2.2387
8.1481 -4.0126 2.2029
8.1475 -3.9121 2.1676
8.1469 -3.8126 2.1328
8.1463 -3.7142 2.0985
8.1458 -3.6168 2.0646
8.1452 -3.5203 2.0311
8.1446 -3.4247 1.9981
8.1441 -3.3301 1.9654
8.1435 -3.2363 1.9332
8.1430 -3.1433 1.9014
8.1424 -3.0511 1.8699
8.1419 -2.9597 1.8388
8.1414 -2.8690 1.8080
8.1408 -2.7791 1.7776
8.1403 -2.6898 1.7475
8.1398 -2.6012 1.7177
8.1393 -2.5132 1.6882
8.1388 -2.4258 1.6591
8.1383 -2.3391 1.6302
8.1378 -2.2528 1.6016
8.1373 -2.1672 1.5733
8.1368 -2.0820 1.5452
8.1363 -1.9974 1.5175
8.1358 -1.9132 1.4899
8.1353 -1.8294 1.4626
8.1409 -1.7475 1.4366
8.1405 -1.6645 1.4098
8.1401 -1.5820 1.3832
8.1398 -1.4998 1.3568
8.1394 -1.4180 1.3306
8.1390 -1.3365 1.3046
8.1386 -1.2554 1.2788
8.1382 -1.1745 1.2531
8.1378 -1.0939 1.2277
8.1374 -1.0136 1.2024
8.1370 -0.9335 1.1773
8.1366 -0.8536 1.1524
8.1362 -0.7740 1.1276
8.1358 -0.6945 1.1030
8.1354 -0.6152 1.0785
8.1351 -0.5361 1.0542
8.1347 -0.4571 1.0300
8.1343 -0.3782 1.0059
8.1339 -0.2995 0.9819
8.1335 -0.2208 0.9581
8.1331 -0.1422 0.9343
8.1328 -0.0637 0.9107
8.1324 0.0148 0.8872
8.1320 0.0932 0.8638
8.1316 0.1717 0.8405
8.1312 0.2501 0.8173
8.1308 0.3286 0.7941
8.1305 0.4071 0.7711
8.1301 0.4856 0.7481
8.1297 0.5642 0.7251
8.1293 0.6429 0.7023
8.1289 0.7217 0.6795
8.1285 0.8006 0.6568
8.1281 0.8797 0.6341
8.1278 0.9588 0.6115
8.1274 1.0382 0.5889
8.1270 1.1177 0.5663
8.1266 1.1974 0.5438
8.1318 1.2782 0.5217
8.1313 1.3584 0.4992
8.1308 1.4389 0.4767
8.1303 1.5196 0.4543
8.1297 1.6006 0.4319
8.1292 1.6819 0.4094
8.1287 1.7635 0.3870
8.1282 1.8454 0.3646
8.1277 1.9277 0.3422
8.1271 2.0104 0.3197
8.1266 2.0935 0.2973
8.1261 2.1769 0.2748
8.1255 2.2608 0.2523
8.1250 2.3452 0.2298
8.1245 2.4300 0.2073
8.1239 2.5153 0.1847
8.1234 2.6011 0.1621
8.1228 2.6875 0.1394
8.1223 2.7744 0.1167
8.1217 2.8619 0.0939
8.1211 2.9500 0.0710
8.1206 3.0388 0.0481
8.1200 3.1282 0.0251
8.1194 3.2182 0.0020
8.1188 3.3090 -0.0211
8.1183 3.4005 -0.0444
8.1177 3.4928 -0.0677
8.1171 3.5858 -0.0912
8.1165 3.6797 -0.1147
8.1159 3.7744 -0.1384
8.1153 3.8700 -0.1622
8.1146 3.9665 -0.1861
8.1140 4.0639 -0.2102
8.1134 4.1623 -0.2344
8.1154 4.2632 -0.2588
8.1081 4.3600 -0.2831
8.1007 4.4578 -0.3075
8.0932 4.5565 -0.3320
8.0857 4.6561 -0.3566
8.0758 4.7554 -0.3813
8.0632 4.8541 -0.4060
8.0506 4.9536 -0.4308
8.0378 5.0541 -0.4557
8.0248 5.1555 -0.4808
8.0118 5.2579 -0.5060
4.0633 -5.6801 2.8623
4.1456 -5.6673 2.8642
4.2286 -5.6542 2.8661
4.3122 -5.6408 2.8680
4.3966 -5.6270 2.8700
4.4817 -5.6129 2.8720
4.5675 -5.5984 2.8741
4.6541 -5.5836 2.8762
4.7414 -5.5683 2.8783
4.8296 -5.5528 2.8805
4.9186 -5.5368 2.8828
5.0084 -5.5204 2.8851
5.0991 -5.5036 2.8874
5.1908 -5.4864 2.8898
5.2833 -5.4688 2.8923
5.3768 -5.4507 2.8948
5.4434 -5.4046 2.8826
5.5668 -5.4133 2.9000
5.6634 -5.3939 2.9027
5.7610 -5.3740 2.9054
5.8597 -5.3537 2.9082
5.9594 -5.3327 2.9110
6.0594 -5.3105 2.9135
6.1606 -5.2878 2.9160
6.2630 -5.2645 2.9186
6.3666 -5.2407 2.9212
6.3933 -5.1533 2.8886
6.4022 -5.0529 2.8487
6.4150 -4.9570 2.8112
6.5004 -4.9174 2.8057
6.6061 -4.8919 2.8086
6.7136 -4.8661 2.8118
6.8226 -4.8396 2.8150
6.9331 -4.8125 2.8184
7.0452 -4.7847 2.8218
7.1589 -4.7562 2.8252
7.2743 -4.7270 2.8288
7.3913 -4.6971 2.8325
7.5102 -4.6665 2.8362
7.6309 -4.6350 2.8400
7.7535 -4.6028 2.8440
7.8780 -4.5698 2.8480
8.0046 -4.5359 2.8521
8.1332 -4.5011 2.8563
8.1509 -4.4042 2.8215
8.1502 -4.2985 2.7809
8.1496 -4.1941 2.7409
8.1490 -4.0909 2.7016
8.1484 -3.9889 2.6628
8.1478 -3.8880 2.6247
8.1472 -3.7882 2.5871
8.1466 -3.6894 2.5500
8.1461 -3.5916 2.5135
8.1455 -3.4948 2.4774
8.1449 -3.3989 2.4419
8.1444 -3.3040 2.4069
8.1438 -3.2099 2.3723
8.1433 -3.1166 2.3382
8.1427 -3.0242 2.3045
8.1422 -2.9325 2.2713
8.1417 -2.8416 2.2384
8.1411 -2.7514 2.2060
8.1406 -2.6620 2.1740
8.1401 -2.5731 2.1423
8.1396 -2.4850 2.1111
8.1391 -2.3974 2.0802
8.1385 -2.3105 2.0496
8.1380 -2.2241 2.0194
8.1375 -2.1383 1.9895
8.1370 -2.0530 1.9599
8.1365 -1.9682 1.9307
8.1360 -1.8839 1.9017
8.1355 -1.8000 1.8731
8.1402 -1.7177 1.8459
8.1398 -1.6347 1.8178
8.1394 -1.5521 1.7900
8.1390 -1.4698 1.7624
8.1386 -1.3879 1.7351
8.1382 -1.3063 1.7081
8.1378 -1.2251 1.6813
8.1374 -1.1442 1.6547
8.1370 -1.0635 1.6283
8.1366 -0.9832 1.6022
8.1363 -0.9030 1.5763
8.1359 -0.8231 1.5506
8.1355 -0.7434 1.5251
8.1351 -0.6639 1.4998
8.1347 -0.5846 1.4747
8.1343 -0.5055 1.4498
8.1339 -0.4265 1.4250
8.1336 -0.3476 1.4004
8.1332 -0.2689 1.3760
8.1328 -0.1902 1.3518
8.1324 -0.1116 1.3277
8.1320 -0.0331 1.3038
8.1316 0.0453 1.2800
8.1313 0.1238 1.2563
8.1309 0.2022 1.2328
8.1305 0.2806 1.2094
8.1301 0.3590 1.1861
8.1297 0.4374 1.1630
8.1293 0.5159 1.1400
8.1290 0.5945 1.1171
8.1286 0.6731 1.0943
8.1282 0.7519 1.0716
8.1278 0.8307 1.0490
8.1274 0.9097 1.0265
8.1270 0.9888 1.0041
8.1266 1.0680 0.9818
8.1262 1.1475 0.9595
8.1314 1.2279 0.9380
8.1309 1.3078 0.9159
8.1304 1.3879 0.8938
8.1299 1.4682 0.8718
8.1294 1.5488 0.8499
8.1289 1.6297 0.8280
8.1283 1.7108 0.8062
8.1278 1.7923 0.7845
8.1273 1.8741 0.7627
8.1268 1.9562 0.7411
8.1262 2.0388 0.7194
8.1257 2.1216 0.6978
8.1252 2.2049 0.6762
8.1246 2.2887 0.6546
8.1241 2.3728 0.6331
8.1236 2.4574 0.6116
8.1230 2.5426 0.5901
8.1225 2.6282 0.5685
8.1219 2.7143 0.5470
8.1214 2.8010 0.5255
8.1208 2.8883 0.5040
8.1202 2.9761 0.4825
8.1197 3.0646 0.4609
8.1191 3.1537 0.4394
8.1185 3.2435 0.4178
8.1179 3.3340 0.3962
8.1174 3.4252 0.3745
8.1168 3.5171 0.3528
8.1162 3.6099 0.3311
8.1156 3.7034 0.3093
8.1150 3.7977 0.2875
8.1143 3.8930 0.2656
8.1137 3.9891 0.2436
8.1131 4.0861 0.2216
8.1125 4.1841 0.1995
8.1138 4.2841 0.1774
8.1065 4.3805 0.1550
8.0992 4.4778 0.1325
8.0917 4.5760 0.1100
8.0842 4.6751 0.0874
8.0735 4.7734 0.0647
8.0610 4.8714 0.0420
8.0484 4.9704 0.0192
8.0357 5.0703 -0.0037
8.0228 5.1711 -0.0266
8.0099 5.2729 -0.0496
8.0051 5.3813 -0.0728
3.7079 -5.0908 2.9254
3.7816 -5.0768 2.9275
3.8558 -5.0625 2.9296
3.9305 -5.0478 2.9318
4.0058 -5.0327 2.9340
4.0816 -5.0173 2.9363
4.1580 -5.0015 2.9386
4.2350 -4.9853 2.9409
4.3126 -4.9687 2.9433
4.3908 -4.9517 2.9458
4.4695 -4.9343 2.9483
4.5490 -4.9165 2.9508
4.6291 -4.8982 2.9534
4.7099 -4.8796 2.9560
4.7914 -4.8604 2.9587
4.8735 -4.8409 2.9615
4.9565 -4.8208 2.9643
5.0401 -4.8003 2.9672
5.1246 -4.7794 2.9701
5.2098 -4.7579 2.9730
5.2959 -4.7359 2.9761
5.3827 -4.7134 2.9791
5.4424 -4.6663 2.9670
5.5587 -4.6665 2.9853
5.6480 -4.6423 2.9885
5.7383 -4.6176 2.9918
5.8295 -4.5922 2.9951
5.9217 -4.5663 2.9985
6.0142 -4.5393 3.0016
6.1076 -4.5115 3.0048
6.2019 -4.4830 3.0079
6.2968 -4.4536 3.0109
6.3821 -4.4163 3.0090
6.3904 -4.3256 2.9710
6.3986 -4.2361 2.9336
6.4114 -4.1508 2.8990
6.4907 -4.1085 2.8946
6.5880 -4.0764 2.8980
6.6870 -4.0439 2.9016
6.7872 -4.0107 2.9053
6.8887 -3.9766 2.9091
6.9916 -3.9418 2.9129
7.0957 -3.9062 2.9169
7.2013 -3.8697 2.9209
7.3084 -3.8323 2.9250
7.4169 -3.7941 2.9293
7.5269 -3.7550 2.9336
7.6385 -3.7150 2.9380
7.7517 -3.6739 2.9426
7.8666 -3.6319 2.9472
7.9833 -3.5889 2.9520
8.1017 -3.5448 2.9568
8.1458 -3.4672 2.9344
8.1452 -3.3711 2.8962
8.1447 -3.2758 2.8586
8.1441 -3.1815 2.8215
8.1436 -3.0879 2.7850
8.1430 -2.9953 2.7489
8.1425 -2.9034 2.7134
8.1419 -2.8122 2.6784
8.1414 -2.7219 2.6438
8.1409 -2.6322 2.6097
8.1404 -2.5432 2.5760
8.1398 -2.4548 2.5428
8.1393 -2.3671 2.5100
8.1388 -2.2800 2.4777
8.1383 -2.1935 2.4457
8.1378 -2.1075 2.4141
8.1373 -2.0221 2.3829
8.1368 -1.9372 2.3520
8.1363 -1.8527 2.3216
8.1378 -1.7692 2.2920
8.1394 -1.6861 2.2628
8.1390 -1.6030 2.2334
8.1386 -1.5203 2.2042
8.1382 -1.4380 2.1754
8.1378 -1.3560 2.1470
8.1374 -1.2744 2.1188
8.1370 -1.1931 2.0909
8.1367 -1.1121 2.0632
8.1363 -1.0314 2.0359
8.1359 -0.9510 2.0088
8.1355 -0.8709 1.9820
8.1351 -0.7909 1.9554
8.1347 -0.7112 1.9291
8.1343 -0.6317 1.9031
8.1340 -0.5524 1.8772
8.1336 -0.4732 1.8516
8.1332 -0.3942 1.8262
8.1328 -0.3154 1.8011
8.1324 -0.2366 1.7761
8.1320 -0.1580 1.7514
8.1317 -0.0794 1.7268
8.1313 -0.0009 1.7025
8.1309 0.0775 1.6783
8.1305 0.1559 1.6544
8.1301 0.2343 1.6306
8.1297 0.3126 1.6069
8.1294 0.3910 1.5835
8.1290 0.4694 1.5602
8.1286 0.5478 1.5371
8.1282 0.6263 1.5141
8.1278 0.7049 1.4913
8.1274 0.7836 1.4686
8.1271 0.8623 1.4461
8.1267 0.9412 1.4237
8.1263 1.0202 1.4014
8.1259 1.0994 1.3793
8.1255 1.1788 1.3573
8.1305 1.2591 1.3362
8.1300 1.3389 1.3144
8.1295 1.4188 1.2927
8.1290 1.4991 1.2712
8.1285 1.5795 1.2497
8.1279 1.6603 1.2283
8.1274 1.7413 1.2070
8.1269 1.8226 1.1858
8.1264 1.9043 1.1647
8.1259 1.9863 1.1437
8.1253 2.0686 1.1228
8.1248 2.1513 1.1019
8.1243 2.2344 1.0811
8.1237 2.3180 1.0604
8.1232 2.4020 1.0398
8.1227 2.4864 1.0192
8.1221 2.5713 0.9986
8.1216 2.6567 0.9782
8.1210 2.7426 0.9578
8.1205 2.8291 0.9374
8.1199 2.9161 0.9171
8.1193 3.0037 0.8968
8.1188 3.0919 0.8765
8.1182 3.1808 0.8563
8.1176 3.2703 0.8361
8.1170 3.3605 0.8160
8.1165 3.4514 0.7958
8.1159 3.5430 0.7757
8.1153 3.6354 0.7556
8.1147 3.7286 0.7355
8.1140 3.8226 0.7154
8.1134 3.9174 0.6953
8.1128 4.0131 0.6752
8.1122 4.1098 0.6551
8.1116 4.2073 0.6350
8.1121 4.3065 0.6150
8.1049 4.4025 0.5944
8.0975 4.4993 0.5737
8.0901 4.5970 0.5531
8.0827 4.6956 0.5325
8.0710 4.7928 0.5116
8.0586 4.8903 0.4907
8.0461 4.9887 0.4698
8.0334 5.0880 0.4489
8.0207 5.1882 0.4279
8.0078 5.2894 0.4070
8.0048 5.3983 0.3866
8.0032 5.5095 0.3661
3.4009 -4.5828 2.9761
3.4672 -4.5680 2.9782
3.5340 -4.5528 2.9804
3.6011 -4.5372 2.9826
3.6687 -4.5212 2.9848
3.7366 -4.5049 2.9871
3.8050 -4.4882 2.9894
3.8738 -4.4711 2.9918
3.9431 -4.4536 2.9942
4.0129 -4.4357 2.9967
4.0831 -4.4174 2.9992
4.1538 -4.3986 3.0018
4.2250 -4.3795 3.0044
4.2967 -4.3599 3.0071
4.3689 -4.3398 3.0098
4.4417 -4.3193 3.0126
4.5149 -4.2984 3.0154
4.5888 -4.2770 3.0182
4.6632 -4.2551 3.0212
4.7382 -4.2327 3.0242
4.8139 -4.2098 3.0272
4.8901 -4.1865 3.0303
4.9670 -4.1626 3.0335
5.0445 -4.1382 3.0367
5.1226 -4.1133 3.0400
5.2015 -4.0878 3.0433
5.2810 -4.0617 3.0467
5.3613 -4.0351 3.0502
5.4160 -3.9886 3.0390
5.4973 -3.9609 3.0425
5.6065 -3.9518 3.0610
5.6898 -3.9228 3.0648
5.7739 -3.8932 3.0686
5.8588 -3.8629 3.0725
5.9444 -3.8318 3.0764
6.0297 -3.7994 3.0797
6.1158 -3.7662 3.0832
6.2028 -3.7323 3.0867
6.2906 -3.6978 3.0902
6.3769 -3.6610 3.0927
6.3846 -3.5790 3.0571
6.3921 -3.4979 3.0222
6.3996 -3.4175 2.9878
6.4487 -3.3598 2.9732
6.5383 -3.3222 2.9771
6.6292 -3.2840 2.9812
6.7212 -3.2451 2.9854
6.8144 -3.2053 2.9898
6.9087 -3.1647 2.9943
7.0041 -3.1231 2.9988
7.1008 -3.0806 3.0035
7.1986 -3.0372 3.0082
7.2969 -2.9925 3.0128
7.3963 -2.9468 3.0174
7.4969 -2.9000 3.0220
7.5989 -2.8521 3.0268
7.7022 -2.8032 3.0317
7.8068 -2.7532 3.0367
7.9129 -2.7020 3.0418
8.0204 -2.6497 3.0471
8.1295 -2.5962 3.0524
8.1406 -2.5107 3.0210
8.1401 -2.4222 2.9857
8.1396 -2.3343 2.9508
8.1391 -2.2471 2.9165
8.1386 -2.1604 2.8826
8.1380 -2.0743 2.8492
8.1375 -1.9888 2.8162
8.1370 -1.9037 2.7837
8.1365 -1.8192 2.7515
8.1390 -1.7358 2.7208
8.1386 -1.6522 2.6895
8.1382 -1.5690 2.6586
8.1378 -1.4862 2.6281
8.1374 -1.4038 2.5979
8.1370 -1.3218 2.5681
8.1366 -1.2401 2.5386
8.1363 -1.1588 2.5095
8.1359 -1.0778 2.4807
8.1355 -0.9971 2.4523
8.1351 -0.9166 2.4242
8.1347 -0.8364 2.3963
8.1343 -0.7565 2.3688
8.1339 -0.6768 2.3416
8.1336 -0.5973 2.3147
8.1332 -0.5179 2.2880
8.1328 -0.4388 2.2616
8.1324 -0.3598 2.2355
8.1320 -0.2809 2.2097
8.1316 -0.2022 2.1841
8.1313 -0.1236 2.1588
8.1309 -0.0451 2.1337
8.1305 0.0334 2.1089
8.1301 0.1118 2.0842
8.1297 0.1902 2.0599
8.1294 0.2685 2.0357
8.1290 0.3468 2.0118
8.1286 0.4251 1.9880
8.1282 0.5035 1.9645
8.1278 0.5818 1.9412
8.1274 0.6603 1.9181
8.1271 0.7388 1.8952
8.1267 0.8174 1.8724
8.1263 0.8960 1.8499
8.1259 0.9748 1.8275
8.1255 1.0538 1.8053
8.1251 1.1329 1.7833
8.1247 1.2121 1.7614
8.1296 1.2923 1.7408
8.1291 1.3720 1.7193
8.1286 1.4519 1.6978
8.1280 1.5320 1.6766
8.1275 1.6123 1.6555
8.1270 1.6929 1.6345
8.1265 1.7738 1.6137
8.1260 1.8550 1.5930
8.1255 1.9365 1.5724
8.1249 2.0183 1.5520
8.1244 2.1005 1.5317
8.1239 2.1830 1.5115
8.1233 2.2660 1.4915
8.1228 2.3493 1.4715
8.1223 2.4331 1.4517
8.1217 2.5173 1.4320
8.1212 2.6020 1.4124
8.1206 2.6872 1.3929
8.1201 2.7729 1.3735
8.1195 2.8591 1.3542
8.1190 2.9459 1.3349
8.1184 3.0333 1.3158
8.1178 3.1213 1.2968
8.1173 3.2098 1.2778
8.1167 3.2991 1.2590
8.1161 3.3890 1.2402
8.1155 3.4796 1.2215
8.1149 3.5709 1.2029
8.1143 3.6630 1.1843
8.1137 3.7558 1.1658
8.1131 3.8494 1.1474
8.1125 3.9439 1.1290
8.1119 4.0393 1.1107
8.1112 4.1355 1.0924
8.1174 4.2363 1.0751
8.1103 4.3310 1.0561
8.1030 4.4265 1.0372
8.0957 4.5229 1.0183
8.0884 4.6201 0.9995
8.0806 4.7180 0.9806
8.0683 4.8142 0.9614
8.0560 4.9112 0.9422
8.0435 5.0090 0.9230
8.0309 5.1077 0.9040
8.0182 5.2073 0.8850
8.0061 5.3083 0.8661
8.0045 5.4175 0.8484
8.0029 5.5281 0.8307
8.0013 5.6402 0.8131
3.1329 -4.1402 3.0177
3.1931 -4.1250 3.0200
3.2537 -4.1095 3.0222
3.3145 -4.0937 3.0245
3.3757 -4.0774 3.0269
3.4372 -4.0608 3.0293
3.4990 -4.0438 3.0317
3.5612 -4.0264 3.0342
3.6237 -4.0086 3.0367
3.6865 -3.9904 3.0393
3.7497 -3.9718 3.0419
3.8133 -3.9528 3.0445
3.8772 -3.9334 3.0472
3.9416 -3.9135 3.0500
4.0063 -3.8932 3.0528
4.0714 -3.8725 3.0556
4.1369 -3.8513 3.0585
4.2029 -3.8296 3.0614
4.2693 -3.8075 3.0644
4.3361 -3.7849 3.0674
4.4033 -3.7619 3.0705
4.4711 -3.7383 3.0736
4.5392 -3.7142 3.0768
4.6079 -3.6896 3.0800
4.6769 -3.6645 3.0833
4.7464 -3.6388 3.0866
4.8165 -3.6126 3.0899
4.8870 -3.5858 3.0933
4.9581 -3.5585 3.0968
5.0298 -3.5306 3.1003
5.1019 -3.5022 3.1039
5.1747 -3.4731 3.1076
5.2481 -3.4435 3.1113
5.3220 -3.4133 3.1151
5.3966 -3.3824 3.1190
5.4453 -3.3347 3.1078
5.5476 -3.3188 3.1269
5.6241 -3.2860 3.1310
5.7012 -3.2526 3.1352
5.7790 -3.2184 3.1394
5.8575 -3.1835 3.1438
5.9367 -3.1479 3.1481
6.0154 -3.1110 3.1519
6.0948 -3.0733 3.1558
6.1750 -3.0348 3.1598
6.2552 -2.9953 3.1636
6.3361 -2.9550 3.1674
6.3763 -2.8950 3.1507
6.3832 -2.8202 3.1180
6.3900 -2.7460 3.0858
6.3984 -2.6731 3.0549
6.4544 -2.6200 3.0469
6.5363 -2.5766 3.0510
6.6193 -2.5324 3.0553
6.7033 -2.4874 3.0598
6.7882 -2.4415 3.0643
6.8739 -2.3946 3.0690
6.9606 -2.3467 3.0738
7.0483 -2.2978 3.0786
7.1369 -2.2480 3.0836
7.2264 -2.1970 3.0886
7.3170 -2.1450 3.0938
7.4087 -2.0919 3.0990
7.5014 -2.0377 3.1044
7.5952 -1.9823 3.1099
7.6901 -1.9258 3.1155
7.7861 -1.8680 3.1212
7.8834 -1.8090 3.1271
7.9818 -1.7487 3.1330
8.0815 -1.6870 3.1391
8.1378 -1.6152 3.1282
8.1374 -1.5319 3.0956
8.1370 -1.4491 3.0636
8.1366 -1.3667 3.0319
8.1362 -1.2846 3.0007
8.1358 -1.2029 2.9698
8.1354 -1.1215 2.9394
8.1350 -1.0405 2.9093
8.1347 -0.9598 2.8797
8.1343 -0.8793 2.8504
8.1339 -0.7991 2.8214
8.1335 -0.7192 2.7928
8.1331 -0.6394 2.7646
8.1327 -0.5599 2.7367
8.1324 -0.4806 2.7091
8.1320 -0.4015 2.6819
8.1316 -0.3225 2.6550
8.1312 -0.2437 2.6284
8.1308 -0.1650 2.6021
8.1305 -0.0864 2.5760
8.1301 -0.0079 2.5503
8.1297 0.0705 2.5249
8.1293 0.1489 2.4997
8.1289 0.2272 2.4749
8.1285 0.3054 2.4503
8.1282 0.3837 2.4259
8.1278 0.4620 2.4018
8.1274 0.5402 2.3780
8.1270 0.6186 2.3544
8.1266 0.6969 2.3310
8.1263 0.7753 2.3079
8.1259 0.8538 2.2850
8.1255 0.9324 2.2624
8.1251 1.0111 2.2400
8.1247 1.0900 2.2178
8.1243 1.1690 2.1958
8.1291 1.2489 2.1754
8.1286 1.3282 2.1538
8.1281 1.4078 2.1324
8.1276 1.4875 2.1111
8.1271 1.5675 2.0901
8.1266 1.6477 2.0693
8.1260 1.7281 2.0487
8.1255 1.8089 2.0282
8.1250 1.8899 2.0080
8.1245 1.9713 1.9879
8.1240 2.0529 1.9680
8.1234 2.1350 1.9482
8.1229 2.2173 1.9287
8.1224 2.3001 1.9093
8.1218 2.3833 1.8900
8.1213 2.4669 1.8710
8.1208 2.5509 1.8520
8.1202 2.6354 1.8333
8.1197 2.7204 1.8147
8.1191 2.8058 1.7962
8.1186 2.8918 1.7779
8.1180 2.9784 1.7597
8.1174 3.0655 1.7417
8.1169 3.1532 1.7238
8.1163 3.2415 1.7061
8.1157 3.3305 1.6884
8.1151 3.4201 1.6710
8.1146 3.5104 1.6536
8.1140 3.6014 1.6364
8.1134 3.6932 1.6193
8.1128 3.7857 1.6023
8.1121 3.8790 1.5855
8.1115 3.9731 1.5687
8.1109 4.0681 1.5521
8.1103 4.1640 1.5356
8.1154 4.2638 1.5203
8.1082 4.3581 1.5028
8.1010 4.4531 1.4855
8.0938 4.5490 1.4683
8.0864 4.6458 1.4512
8.0775 4.7425 1.4339
8.0653 4.8381 1.4162
8.0530 4.9346 1.3986
8.0406 5.0319 1.3812
8.0281 5.1300 1.3639
8.0155 5.2291 1.3467
8.0058 5.3311 1.3301
8.0042 5.4396 1.3150
8.0026 5.5496 1.3000
8.0010 5.6610 1.2851
7.9993 5.7738 1.2703
2.8959 -3.7495 3.0520
2.9508 -3.7342 3.0541
3.0059 -3.7185 3.0564
3.0612 -3.7024 3.0586
3.1167 -3.6860 3.0609
3.1725 -3.6692 3.0632
3.2286 -3.6521 3.0656
3.2849 -3.6345 3.0680
3.3414 -3.6166 3.0705
3.3982 -3.5983 3.0730
3.4553 -3.5796 3.0755
3.5127 -3.5605 3.0781
3.5704 -3.5410 3.0807
3.6283 -3.5210 3.0834
3.6865 -3.5007 3.0861
3.7450 -3.4799 3.0888
3.8038 -3.4587 3.0916
3.8630 -3.4370 3.0945
3.9224 -3.4149 3.0974
3.9822 -3.3924 3.1003
4.0423 -3.3694 3.1033
4.1027 -3.3459 3.1063
4.1635 -3.3220 3.1094
4.2246 -3.2976 3.1125
4.2861 -3.2726 3.1157
4.3479 -3.2472 3.1190
4.4101 -3.2213 3.1222
4.4727 -3.1949 3.1256
4.5357 -3.1679 3.1290
4.5991 -3.1405 3.1324
4.6628 -3.1124 3.1360
4.7270 -3.0839 3.1395
4.7916 -3.0547 3.1432
4.8566 -3.0250 3.1468
4.9221 -2.9947 3.1506
4.9880 -2.9639 3.1544
5.0543 -2.9324 3.1583
5.1211 -2.9003 3.1622
5.1884 -2.8676 3.1662
5.2562 -2.8343 3.1703
5.3244 -2.8003 3.1744
5.3931 -2.7656 3.1787
5.4375 -2.7179 3.1685
5.5322 -2.6943 3.1873
5.6025 -2.6576 3.1917
5.6733 -2.6202 3.1962
5.7447 -2.5821 3.2008
5.8167 -2.5432 3.2055
5.8892 -2.5035 3.2102
5.9616 -2.4628 3.2146
6.0335 -2.4209 3.2185
6.1060 -2.3782 3.2226
6.1791 -2.3347 3.2267
6.2527 -2.2904 3.2309
6.3270 -2.2453 3.2351
6.3710 -2.1888 3.2239
6.3774 -2.1193 3.1939
6.3837 -2.0503 3.1643
6.3899 -1.9816 3.1352
6.4114 -1.9180 3.1139
6.4860 -1.8697 3.1185
6.5613 -1.8205 3.1232
6.6377 -1.7705 3.1281
6.7147 -1.7194 3.1331
6.7924 -1.6674 3.1383
6.8709 -1.6144 3.1435
6.9497 -1.5603 3.1487
7.0286 -1.5049 3.1536
7.1082 -1.4485 3.1586
7.1885 -1.3910 3.1638
7.2696 -1.3323 3.1690
7.3515 -1.2725 3.1743
7.4341 -1.2115 3.1797
7.5176 -1.1494 3.1853
7.6019 -1.0859 3.1909
7.6870 -1.0213 3.1967
7.7730 -0.9553 3.2025
7.8599 -0.8880 3.2085
7.9477 -0.8193 3.2146
8.0364 -0.7493 3.2209
8.1261 -0.6778 3.2272
8.1323 -0.5986 3.2004
8.1319 -0.5191 3.1715
8.1315 -0.4399 3.1429
8.1311 -0.3608 3.1147
8.1307 -0.2818 3.0868
8.1304 -0.2030 3.0593
8.1300 -0.1244 3.0322
8.1296 -0.0458 3.0054
8.1292 0.0326 2.9789
8.1289 0.1110 2.9528
8.1285 0.1893 2.9270
8.1281 0.2675 2.9016
8.1277 0.3458 2.8764
8.1273 0.4240 2.8516
8.1270 0.5021 2.8270
8.1266 0.5803 2.8028
8.1262 0.6586 2.7788
8.1258 0.7369 2.7552
8.1254 0.8152 2.7318
8.1250 0.8936 2.7087
8.1247 0.9721 2.6859
8.1243 1.0507 2.6633
8.1239 1.1294 2.6410
8.1235 1.2083 2.6190
8.1281 1.2881 2.5988
8.1276 1.3673 2.5772
8.1271 1.4468 2.5559
8.1266 1.5264 2.5348
8.1261 1.6062 2.5140
8.1256 1.6863 2.4934
8.1250 1.7666 2.4730
8.1245 1.8472 2.4529
8.1240 1.9281 2.4329
8.1235 2.0093 2.4133
8.1230 2.0908 2.3938
8.1224 2.1727 2.3746
8.1219 2.2549 2.3555
8.1214 2.3375 2.3367
8.1208 2.4204 2.3181
8.1203 2.5038 2.2997
8.1198 2.5877 2.2815
8.1192 2.6720 2.2635
8.1187 2.7567 2.2458
8.1181 2.8420 2.2282
8.1176 2.9278 2.2108
8.1170 3.0141 2.1936
8.1164 3.1010 2.1766
8.1159 3.1884 2.1598
8.1153 3.2765 2.1432
8.1147 3.3652 2.1267
8.1141 3.4545 2.1105
8.1135 3.5445 2.0944
8.1129 3.6352 2.0785
8.1124 3.7267 2.0629
8.1118 3.8189 2.0473
8.1111 3.9119 2.0320
8.1105 4.0056 2.0168
8.1099 4.1003 2.0019
8.1093 4.1958 1.9871
8.1130 4.2945 1.9735
8.1059 4.3883 1.9575
8.0988 4.4830 1.9416
8.0915 4.5785 1.9260
8.0843 4.6747 1.9105
8.0739 4.7701 1.8945
8.0618 4.8653 1.8783
8.0496 4.9612 1.8623
8.0373 5.0580 1.8465
8.0248 5.1555 1.8309
8.0123 5.2540 1.8154
8.0054 5.3572 1.8015
8.0038 5.4652 1.7889
8.0022 5.5746 1.7765
8.0006 5.6853 1.7642
7.9990 5.7975 1.7521
7.9973 5.9111 1.7402
2.6849 -3.4021 3.0810
2.7352 -3.3870 3.0834
2.7858 -3.3716 3.0857
2.8365 -3.3558 3.0881
2.8874 -3.3396 3.0905
2.9385 -3.3231 3.0930
2.9897 -3.3062 3.0955
3.0411 -3.2888 3.0979
3.0925 -3.2710 3.1003
3.1442 -3.2528 3.1027
3.1961 -3.2342 3.1051
3.2481 -3.2152 3.1076
3.3004 -3.1958 3.1102
3.3529 -3.1761 3.1127
3.4056 -3.1559 3.1154
3.4585 -3.1354 3.1180
3.5116 -3.1144 3.1207
3.5650 -3.0930 3.1235
3.6186 -3.0712 3.1262
3.6725 -3.0489 3.1291
3.7265 -3.0262 3.1319
3.7808 -3.0031 3.1349
3.8354 -2.9795 3.1378
3.8902 -2.9555 3.1408
3.9453 -2.9310 3.1439
4.0006 -2.9061 3.1470
4.0562 -2.8806 3.1502
4.1121 -2.8547 3.1534
4.1683 -2.8283 3.1566
4.2247 -2.8014 3.1599
4.2814 -2.7741 3.1633
4.3384 -2.7461 3.1667
4.3957 -2.7177 3.1702
4.4533 -2.6888 3.1737
4.5112 -2.6593 3.1773
4.5695 -2.6293 3.1809
4.6280 -2.5987 3.1846
4.6869 -2.5675 3.1883
4.7460 -2.5358 3.1922
4.8056 -2.5035 3.1960
4.8654 -2.4706 3.1999
4.9256 -2.4371 3.2039
4.9862 -2.4030 3.2080
5.0471 -2.3683 3.2121
5.1084 -2.3329 3.2163
5.1701 -2.2969 3.2205
5.2321 -2.2602 3.2248
5.2945 -2.2229 3.2292
5.3573 -2.1849 3.2337
5.3958 -2.1364 3.2235
5.4592 -2.0972 3.2280
5.5481 -2.0667 3.2475
5.6126 -2.0258 3.2522
5.6775 -1.9843 3.2570
5.7427 -1.9419 3.2620
5.8085 -1.8988 3.2669
5.8747 -1.8549 3.2720
5.9409 -1.8100 3.2769
6.0064 -1.7641 3.2813
6.0724 -1.7172 3.2857
6.1387 -1.6696 3.2902
6.2055 -1.6211 3.2948
6.2726 -1.5718 3.2994
6.3395 -1.5214 3.3037
6.3675 -1.4611 3.2878
6.3732 -1.3957 3.2607
6.3788 -1.3306 3.2340
6.3843 -1.2657 3.2077
6.3965 -1.2023 3.1850
6.4507 -1.1465 3.1835
6.5176 -1.0921 3.1882
6.5852 -1.0367 3.1930
6.6534 -0.9804 3.1980
6.7221 -0.9230 3.2031
6.7914 -0.8646 3.2082
6.8611 -0.8052 3.2135
6.9313 -0.7447 3.2189
7.0021 -0.6831 3.2243
7.0734 -0.6203 3.2299
7.1452 -0.5564 3.2355
7.2176 -0.4914 3.2413
7.2906 -0.4251 3.2472
7.3641 -0.3577 3.2531
7.4383 -0.2890 3.2592
7.5129 -0.2190 3.2654
7.5883 -0.1477 3.2717
7.6632 -0.0750 3.2777
7.7381 -0.0011 3.2835
7.8135 0.0743 3.2895
7.8896 0.1510 3.2955
7.9662 0.2292 3.3017
8.0435 0.3088 3.3079
8.1213 0.3898 3.3143
8.1265 0.4683 3.2912
8.1261 0.5464 3.2661
8.1257 0.6245 3.2413
8.1253 0.7026 3.2169
8.1249 0.7808 3.1929
8.1246 0.8590 3.1691
8.1242 0.9374 3.1457
8.1238 1.0158 3.1226
8.1234 1.0943 3.0999
8.1230 1.1729 3.0774
8.1276 1.2524 3.0571
8.1270 1.3313 3.0352
8.1265 1.4104 3.0135
8.1260 1.4897 2.9922
8.1255 1.5692 2.9712
8.1250 1.6489 2.9505
8.1245 1.7289 2.9300
8.1240 1.8090 2.9098
8.1235 1.8895 2.8899
8.1230 1.9702 2.8703
8.1224 2.0512 2.8509
8.1219 2.1326 2.8319
8.1214 2.2143 2.8130
8.1209 2.2963 2.7945
8.1203 2.3787 2.7762
8.1198 2.4615 2.7582
8.1193 2.5447 2.7404
8.1187 2.6284 2.7229
8.1182 2.7125 2.7056
8.1176 2.7970 2.6886
8.1171 2.8821 2.6718
8.1165 2.9676 2.6553
8.1160 3.0537 2.6390
8.1154 3.1403 2.6229
8.1148 3.2275 2.6072
8.1142 3.3153 2.5916
8.1137 3.4038 2.5763
8.1131 3.4928 2.5612
8.1125 3.5826 2.5464
8.1119 3.6730 2.5318
8.1113 3.7642 2.5174
8.1107 3.8560 2.5033
8.1101 3.9487 2.4894
8.1095 4.0422 2.4758
8.1089 4.1364 2.4624
8.1174 4.2364 2.4520
8.1104 4.3291 2.4371
8.1033 4.4226 2.4225
8.0962 4.5168 2.4081
8.0890 4.6118 2.3940
8.0818 4.7076 2.3801
8.0699 4.8016 2.3651
8.0579 4.8963 2.3503
8.0457 4.9917 2.3358
8.0334 5.0879 2.3215
8.0211 5.1849 2.3074
8.0086 5.2828 2.2936
8.0050 5.3876 2.2827
8.0034 5.4950 2.2725
8.0018 5.6038 2.2626
8.0002 5.7139 2.2530
7.9985 5.8255 2.2436
7.9969 5.9385 2.2344
8.0331 6.0816 2.2361
2.4920 -3.0861 3.1020
2.5381 -3.0711 3.1042
2.5844 -3.0559 3.1065
2.6308 -3.0402 3.1088
2.6773 -3.0242 3.1111
2.7240 -3.0079 3.1134
2.7708 -2.9912 3.1158
2.8178 -2.9742 3.1182
2.8649 -2.9568 3.1206
2.9121 -2.9390 3.1231
2.9595 -2.9209 3.1256
3.0070 -2.9024 3.1282
3.0547 -2.8835 3.1307
3.1025 -2.8642 3.1333
3.1505 -2.8445 3.1360
3.1986 -2.8245 3.1387
3.2469 -2.8041 3.1414
3.2954 -2.7832 3.1441
3.3440 -2.7620 3.1469
3.3928 -2.7403 3.1497
3.4418 -2.7183 3.1526
3.4909 -2.6958 3.1555
3.5402 -2.6728 3.1584
3.5897 -2.6495 3.1614
3.6393 -2.6257 3.1644
3.6892 -2.6015 3.1674
3.7392 -2.5768 3.1705
3.7894 -2.5517 3.1736
3.8398 -2.5261 3.1768
3.8904 -2.5001 3.1800
3.9412 -2.4735 3.1833
3.9922 -2.4465 3.1865
4.0433 -2.4190 3.1899
4.0947 -2.3911 3.1933
4.1463 -2.3626 3.1967
4.1981 -2.3336 3.2002
4.2501 -2.3041 3.2037
4.3023 -2.2741 3.2072
4.3548 -2.2435 3.2109
4.4074 -2.2124 3.2145
4.4603 -2.1808 3.2182
4.5134 -2.1486 3.2220
4.5667 -2.1159 3.2258
4.6202 -2.0826 3.2296
4.6740 -2.0487 3.2335
4.7280 -2.0142 3.2375
4.7823 -1.9792 3.2415
4.8368 -1.9435 3.2456
4.8915 -1.9072 3.2497
4.9465 -1.8703 3.2539
5.0018 -1.8328 3.2581
5.0573 -1.7946 3.2624
5.1130 -1.7558 3.2667
5.1690 -1.7163 3.2711
5.2253 -1.6762 3.2756
5.2819 -1.6353 3.2801
5.3387 -1.5938 3.2847
5.3739 -1.5452 3.2761
5.4310 -1.5024 3.2808
5.4884 -1.4589 3.2855
5.5687 -1.4204 3.3037
5.6269 -1.3752 3.3086
5.6854 -1.3293 3.3136
5.7442 -1.2825 3.3186
5.8048 -1.2353 3.3246
5.8660 -1.1873 3.3308
6.1615 -0.9319 3.3545
5.9271 -1.1384 3.3369
6.2207 -0.8781 3.3591
5.9852 -1.0880 3.3412
6.2803 -0.8235 3.3638
6.0437 -1.0368 3.3456
6.3402 -0.7680 3.3685
6.1024 -0.9848 3.3500
6.3629 -0.7074 3.3537
6.3680 -0.6448 3.3298
6.4674 -0.3374 3.2532
6.3730 -0.5824 3.3062
6.5269 -0.2769 3.2583
6.3779 -0.5200 3.2830
6.5869 -0.2155 3.2637
6.3828 -0.4577 3.2601
6.6473 -0.1530 3.2692
6.4082 -0.3968 3.2481
6.7073 -0.0895 3.2744
6.7671 -0.0249 3.2795
7.0702 0.3143 3.3062
6.8271 0.0408 3.2847
7.1316 0.3856 3.3118
6.8875 0.1075 3.2899
7.1933 0.4580 3.3175
6.9481 0.1753 3.2953
7.2554 0.5316 3.3233
7.0090 0.2442 3.3007
7.3177 0.6065 3.3292
7.3803 0.6826 3.3352
7.6978 1.0828 3.3666
7.4432 0.7600 3.3412
7.7621 1.1669 3.3731
7.5064 0.8387 3.3474
7.8268 1.2525 3.3799
7.5699 0.9187 3.3537
7.8916 1.3395 3.3866
7.6337 1.0001 3.3601
7.9548 1.4276 3.3927
8.0183 1.5172 3.3989
8.1224 1.9364 3.3421
8.0820 1.6083 3.4051
8.1219 2.0170 3.3227
8.1239 1.6963 3.4023
8.1213 2.0979 3.3036
8.1234 1.7761 3.3819
8.1208 2.1791 3.2848
8.1229 1.8561 3.3618
8.1203 2.2606 3.2663
8.1198 2.3424 3.2482
8.1171 2.7576 3.1621
8.1192 2.4247 3.2304
8.1165 2.8420 3.1457
8.1187 2.5073 3.2128
8.1160 2.9268 3.1297
8.1182 2.5903 3.1956
8.1154 3.0121 3.1140
8.1176 2.6737 3.1787
8.1149 3.0980 3.0986
8.1143 3.1844 3.0834
8.1114 3.6254 3.0122
8.1137 3.2714 3.0686
8.1108 3.7155 2.9988
8.1131 3.3589 3.0540
8.1102 3.8064 2.9857
8.1126 3.4471 3.0398
8.1096 3.8980 2.9730
8.1120 3.5359 3.0258
8.1090 3.9903 2.9605
8.1084 4.0834 2.9483
8.0933 4.5552 2.8875
8.1077 4.1774 2.9364
8.0861 4.6498 2.8749
8.1144 4.2760 2.9274
8.0772 4.7442 2.8619
8.1074 4.3684 2.9138
8.0653 4.8376 2.8481
8.1004 4.4614 2.9005
8.0533 4.9318 2.8347
8.0412 5.0267 2.8216
8.0029 5.5299 2.7688
8.0290 5.1224 2.8088
8.0013 5.6381 2.7614
8.0167 5.2189 2.7963
7.9997 5.7476 2.7543
8.0060 5.3173 2.7847
7.9981 5.8585 2.7475
8.0044 5.4230 2.7766
8.0007 5.9741 2.7425
8.0457 6.1236 2.7524
8.0918 6.2768 2.7629
2.3181 -2.8014 3.1209
2.3606 -2.7867 3.1230
2.4031 -2.7716 3.1252
2.4457 -2.7563 3.1273
2.4884 -2.7406 3.1295
2.5312 -2.7245 3.1318
2.5741 -2.7082 3.1340
2.6171 -2.6915 3.1363
2.6602 -2.6744 3.1387
2.7034 -2.6570 3.1410
2.7467 -2.6393 3.1434
2.7901 -2.6212 3.1458
2.8336 -2.6027 3.1483
2.8772 -2.5839 3.1507
2.9209 -2.5647 3.1532
2.9647 -2.5452 3.1558
3.0087 -2.5253 3.1583
3.0527 -2.5050 3.1610
3.0969 -2.4843 3.1636
3.1412 -2.4632 3.1663
3.1855 -2.4418 3.1690
3.2300 -2.4199 3.1717
3.2746 -2.3977 3.1745
3.3194 -2.3750 3.1773
3.3642 -2.3520 3.1801
3.4092 -2.3285 3.1830
3.4543 -2.3046 3.1859
3.4995 -2.2803 3.1889
3.5448 -2.2556 3.1919
3.5903 -2.2304 3.1949
3.6359 -2.2048 3.1979
3.6816 -2.1788 3.2010
3.7275 -2.1523 3.2042
3.7735 -2.1254 3.2074
3.8196 -2.0980 3.2106
3.8658 -2.0701 3.2138
3.9122 -2.0418 3.2171
3.9587 -2.0129 3.2205
4.0054 -1.9837 3.2239
4.0522 -1.9539 3.2273
4.0991 -1.9236 3.2307
4.1461 -1.8928 3.2343
4.1933 -1.8615 3.2378
4.2407 -1.8297 3.2414
4.2882 -1.7974 3.2450
4.3358 -1.7646 3.2487
4.3836 -1.7312 3.2525
4.5762 -1.5922 3.2679
4.4315 -1.6973 3.2562
4.6247 -1.5560 3.2718
4.4796 -1.6628 3.2601
4.6734 -1.5193 3.2759
4.5278 -1.6278 3.2639
4.7222 -1.4819 3.2799
4.8203 -1.4054 3.2882
4.7712 -1.4440 3.2841
4.8696 -1.3663 3.2925
5.0683 -1.2033 3.3099
4.9191 -1.3265 3.2967
5.1184 -1.1610 3.3144
4.9687 -1.2861 3.3011
5.1686 -1.1180 3.3190
5.0184 -1.2450 3.3055
5.2190 -1.0742 3.3236
5.3203 -0.9847 3.3330
5.2696 -1.0298 3.3283
5.3711 -0.9389 3.3378
5.5786 -0.7487 3.3590
5.4002 -0.8888 3.3291
5.6318 -0.6994 3.3651
5.4512 -0.8417 3.3340
5.6853 -0.6492 3.3712
5.5255 -0.7973 3.3531
5.7389 -0.5983 3.3774
5.8469 -0.4939 3.3900
5.7928 -0.5465 3.3837
5.9011 -0.4404 3.3965
6.1078 -0.2171 3.4161
5.9533 -0.3859 3.4016
6.1596 -0.1592 3.4210
6.0046 -0.3305 3.4064
6.2111 -0.1004 3.4258
6.0561 -0.2742 3.4112
6.2621 -0.0406 3.4304
6.3555 0.0813 3.4348
6.3132 0.0200 3.4350
6.3598 0.1426 3.4143
6.3764 0.3879 3.3357
6.3640 0.2039 3.3942
6.3879 0.4499 3.3207
6.3682 0.2652 3.3744
6.4275 0.5144 3.3205
6.3723 0.3265 3.3549
6.4772 0.5805 3.3255
6.5769 0.7157 3.3359
6.5269 0.6476 3.3306
6.6271 0.7848 3.3413
6.8284 1.0719 3.3638
6.6773 0.8550 3.3468
6.8789 1.1464 3.3696
6.7276 0.9262 3.3524
6.9294 1.2220 3.3755
6.7780 0.9985 3.3581
6.9800 1.2987 3.3815
7.0786 1.4551 3.3925
7.0296 1.3764 3.3871
7.1277 1.5350 3.3980
7.3236 1.8662 3.4208
7.1767 1.6160 3.4036
7.3725 1.9521 3.4267
7.2257 1.6982 3.4092
7.4213 2.0392 3.4326
7.2747 1.7816 3.4150
7.4701 2.1275 3.4387
7.5674 2.3082 3.4511
7.5188 2.2172 3.4448
7.6159 2.4005 3.4574
7.8090 2.7833 3.4836
7.6644 2.4941 3.4638
7.8547 2.8817 3.4894
7.7127 2.5891 3.4703
8.0355 3.2892 3.5134
7.9003 2.9815 3.4953
7.7609 2.6855 3.4769
8.0801 3.3947 3.5196
7.9456 3.0826 3.5012
8.1096 3.7636 3.4826
8.1114 3.4960 3.5203
7.9907 3.1852 3.5073
8.1179 4.2299 3.4318
8.1090 3.8542 3.4708
8.1108 3.5846 3.5074
8.0829 4.6934 3.3717
8.1110 4.3212 3.4191
8.1084 3.9455 3.4593
8.1102 3.6738 3.4948
8.0719 4.7861 3.3592
8.1041 4.4131 3.4067
8.1078 4.0376 3.4482
8.0240 5.1623 3.3115
8.0601 4.8790 3.3467
8.0970 4.5058 3.3947
8.1072 4.1304 3.4374
8.0117 5.2582 3.3004
8.0481 4.9727 3.3346
8.0900 4.5992 3.3830
8.0007 5.6783 3.2759
8.0054 5.3590 3.2922
8.0361 5.0671 3.3228
7.9991 5.7873 3.2713
8.0038 5.4642 3.2864
7.9975 5.8976 3.2671
8.0023 5.5706 3.2810
8.0159 6.0244 3.2715
8.0608 6.1736 3.2871
8.1068 6.3266 3.3036
8.1540 6.4835 3.3210
2.1600 -2.5424 3.1381
2.1991 -2.5280 3.1401
2.2383 -2.5133 3.1421
2.2775 -2.4983 3.1442
2.3168 -2.4830 3.1463
2.3562 -2.4673 3.1484
2.3956 -2.4514 3.1506
2.4351 -2.4351 3.1528
2.4747 -2.4185 3.1550
2.5143 -2.4016 3.1572
2.5540 -2.3843 3.1595
2.5938 -2.3667 3.1618
2.6336 -2.3488 3.1641
2.6735 -2.3305 3.1665
2.7135 -2.3118 3.1688
2.7535 -2.2929 3.1712
2.7936 -2.2736 3.1737
2.8338 -2.2539 3.1762
2.8740 -2.2338 3.1786
2.9143 -2.2134 3.1812
2.9547 -2.1927 3.1837
2.9951 -2.1716 3.1863
3.0357 -2.1501 3.1889
3.0763 -2.1282 3.1916
3.1170 -2.1060 3.1943
3.1577 -2.0833 3.1970
3.1985 -2.0603 3.1998
3.2394 -2.0369 3.2025
3.2804 -2.0131 3.2054
3.3215 -1.9889 3.2082
3.3626 -1.9643 3.2111
3.4038 -1.9392 3.2140
3.4451 -1.9138 3.2170
3.4864 -1.8880 3.2199
3.5279 -1.8617 3.2230
3.5694 -1.8350 3.2260
3.6109 -1.8079 3.2291
3.6526 -1.7803 3.2323
3.6943 -1.7523 3.2354
3.7362 -1.7239 3.2386
3.7780 -1.6950 3.2419
3.8200 -1.6656 3.2452
3.8620 -1.6358 3.2485
3.9042 -1.6055 3.2518
3.9464 -1.5748 3.2552
3.9886 -1.5436 3.2587
4.0310 -1.5119 3.2621
4.0734 -1.4797 3.2657
4.1159 -1.4470 3.2692
4.1585 -1.4138 3.2728
4.2011 -1.3801 3.2765
4.2439 -1.3459 3.2802
4.2867 -1.3111 3.2839
4.3295 -1.2759 3.2877
4.3725 -1.2401 3.2915
4.4155 -1.2038 3.2953
4.4586 -1.1669 3.2993
4.5017 -1.1295 3.3032
4.5450 -1.0915 3.3072
4.5883 -1.0530 3.3112
4.6316 -1.0139 3.3153
4.6751 -0.9742 3.3195
4.7186 -0.9339 3.3237
4.7621 -0.8931 3.3279
4.8058 -0.8516 3.3322
4.8495 -0.8095 3.3365
4.8932 -0.7668 3.3409
4.9370 -0.7235 3.3454
4.9809 -0.6796 3.3499
5.0249 -0.6350 3.3544
5.0688 -0.5897 3.3590
5.1129 -0.5439 3.3636
5.1570 -0.4973 3.3683
5.2011 -0.4501 3.3731
5.2453 -0.4022 3.3779
5.2906 -0.3536 3.3834
5.3362 -0.3044 3.3892
5.3819 -0.2544 3.3951
5.4037 -0.2028 3.3860
5.4494 -0.1516 3.3919
5.5194 -0.1000 3.4130
5.5654 -0.0470 3.4191
5.6115 0.0068 3.4253
5.6575 0.0614 3.4316
5.7037 0.1168 3.4379
5.7488 0.1730 3.4436
5.7930 0.2299 3.4489
5.8371 0.2877 3.4542
5.8814 0.3462 3.4596
5.9250 0.4056 3.4647
5.9676 0.4656 3.4693
6.0101 0.5265 3.4740
6.0526 0.5882 3.4787
6.0951 0.6508 3.4835
6.1375 0.7141 3.4883
6.1798 0.7784 3.4932
6.2221 0.8434 3.4982
6.2643 0.9094 3.5032
6.3064 0.9762 3.5083
6.3485 1.0439 3.5135
6.3523 1.1059 3.4977
6.3557 1.1680 3.4821
6.3591 1.2303 3.4667
6.3624 1.2928 3.4517
6.3656 1.3555 3.4369
6.3687 1.4184 3.4224
6.3718 1.4815 3.4082
6.3846 1.5473 3.3995
6.4188 1.6189 3.4024
6.4565 1.6923 3.4073
6.4940 1.7667 3.4123
6.5313 1.8420 3.4173
6.5686 1.9183 3.4226
6.6057 1.9956 3.4278
6.6426 2.0739 3.4332
6.6793 2.1532 3.4386
6.7158 2.2334 3.4441
6.7519 2.3147 3.4497
6.7879 2.3970 3.4553
