ply
format ascii 1.0
element vertex 2096
property float32 x
property float32 y
property float32 z
end_header
-0.2641 -14.3719 1.6228
1.4665 -14.4097 1.6144
1.1752 -14.3944 1.6173
1.6130 -14.4188 1.6127
2.0434 -14.3618 1.5966
2.8113 -14.5257 1.5930
1.7600 -14.4287 1.6108
2.9654 -14.5436 1.5898
2.2054 -14.4644 1.6042
1.9077 -14.4397 1.6087
3.1206 -14.5625 1.5864
3.5942 -14.6257 1.5751
2.3554 -14.4782 1.6017
3.7549 -14.6490 1.5709
3.2771 -14.5824 1.5828
2.5064 -14.4930 1.5990
3.9171 -14.6734 1.5666
3.4350 -14.6035 1.5790
4.0810 -14.6991 1.5620
2.6583 -14.5089 1.5961
4.2466 -14.7259 1.5572
4.4139 -14.7539 1.5522
5.2797 -14.9089 1.5235
4.5832 -14.7830 1.5470
6.2043 -15.0974 1.4885
5.4594 -14.9437 1.5170
4.7541 -14.8126 1.5415
6.3976 -15.1397 1.4806
5.6416 -14.9799 1.5103
4.9271 -14.8434 1.5358
5.1023 -14.8755 1.5298
6.4668 -14.8906 1.4441
5.8264 -15.0176 1.5033
6.5466 -14.6754 1.4108
6.0139 -15.0567 1.4960
6.9442 -14.7742 1.3942
6.7435 -14.7236 1.4026
7.1479 -14.8253 1.3853
7.3554 -14.8783 1.3760
7.5670 -14.9333 1.3664
7.7827 -14.9903 1.3565
8.0029 -15.0494 1.3462
8.2157 -15.0890 1.3335
8.2130 -14.7362 1.2861
8.2103 -14.3961 1.2401
8.2078 -14.0679 1.1953
8.2000 -13.7422 1.1512
8.1985 -13.4375 1.1090
8.1971 -13.1427 1.0680
-11.3401 -6.4768 0.1735
-11.3391 -6.6227 0.2069
-11.3381 -6.7703 0.2405
-11.3371 -6.9196 0.2743
-11.3361 -7.0708 0.3084
-11.3351 -7.2238 0.3427
-11.3341 -7.3788 0.3773
-11.3330 -7.5357 0.4121
-11.3281 -7.6921 0.4470
-11.3274 -7.8536 0.4825
-11.3267 -8.0173 0.5182
-11.3261 -8.1833 0.5542
-11.3254 -8.3517 0.5906
-11.3247 -8.5227 0.6274
-11.3239 -8.6962 0.6645
-11.3232 -8.8724 0.7019
-11.3225 -9.0514 0.7398
-11.3217 -9.2333 0.7781
-11.3209 -9.4181 0.8169
-11.3202 -9.6061 0.8561
-11.3194 -9.7973 0.8958
-11.3185 -9.9918 0.9359
-11.3177 -10.1898 0.9766
-11.3169 -10.3914 1.0178
-11.3160 -10.5967 1.0596
-11.3164 -10.8072 1.1021
-11.3154 -11.0203 1.1450
-11.3142 -11.2376 1.1886
-11.3131 -11.4592 1.2329
-11.3120 -11.6854 1.2778
-11.3108 -11.9163 1.3235
-11.3096 -12.1521 1.3699
-11.3083 -12.3930 1.4171
-11.3071 -12.6393 1.4651
-11.3058 -12.8912 1.5140
-11.3045 -13.1488 1.5638
-11.3031 -13.4126 1.6145
-11.1273 -13.4714 1.6405
-10.8511 -13.4045 1.6506
-10.5815 -13.3387 1.6602
-10.3191 -13.2753 1.6695
-10.0636 -13.2142 1.6784
-9.8146 -13.1553 1.6869
-9.4441 -13.4765 1.7748
-9.5722 -13.0990 1.6953
-9.2380 -13.4646 1.7879
-9.4625 -13.2219 1.7264
-9.0108 -13.4168 1.7958
-8.3550 -13.2788 1.8174
-8.7874 -13.3692 1.8032
-8.1454 -13.2360 1.8240
-8.5168 -13.2421 1.7994
-7.9399 -13.1945 1.8305
-7.3470 -13.0784 1.8486
-7.7385 -13.1545 1.8367
-7.1565 -13.0422 1.8542
-7.5409 -13.1158 1.8428
-6.9694 -13.0073 1.8597
-6.4268 -12.9094 1.8749
-6.7855 -12.9735 1.8649
-6.2518 -12.8789 1.8796
-6.6047 -12.9409 1.8700
-6.0794 -12.8494 1.8841
-5.5776 -12.7670 1.8969
-5.9097 -12.8210 1.8885
-5.4150 -12.7414 1.9009
-5.7424 -12.7935 1.8928
-5.2546 -12.7167 1.9047
-4.7857 -12.6476 1.9153
-5.0963 -12.6928 1.9083
-4.6332 -12.6262 1.9186
-4.9400 -12.6698 1.9119
-4.4824 -12.6056 1.9217
-4.0401 -12.5483 1.9305
-4.3334 -12.5858 1.9248
-3.8957 -12.5307 1.9332
-4.1860 -12.5667 1.9277
-3.7527 -12.5137 1.9358
-3.3317 -12.4669 1.9429
-3.6111 -12.4975 1.9382
-3.1937 -12.4526 1.9450
-3.4708 -12.4819 1.9406
-3.0569 -12.4390 1.9471
-2.6525 -12.4017 1.9526
-2.9211 -12.4259 1.9490
-2.5196 -12.3905 1.9543
-2.7864 -12.4135 1.9509
-2.3876 -12.3798 1.9559
-1.9960 -12.3513 1.9601
-2.2563 -12.3697 1.9574
-1.8669 -12.3429 1.9613
-2.1258 -12.3602 1.9588
-1.7384 -12.3351 1.9624
-0.7507 -6.8168 1.0879
-1.6104 -12.3278 1.9634
-0.6809 -6.8166 1.0888
-0.8206 -6.8175 1.0869
-0.6114 -6.8166 1.0896
-0.4035 -6.8190 1.0920
-0.5420 -6.8171 1.0904
-0.3344 -6.8205 1.0927
-0.4727 -6.8179 1.0912
-0.2653 -6.8224 1.0934
-0.0581 -6.8301 1.0953
-0.1962 -6.8246 1.0941
0.0110 -6.8334 1.0958
-0.1272 -6.8272 1.0947
0.0802 -6.8371 1.0964
0.2885 -6.8502 1.0977
0.1495 -6.8411 1.0969
0.3583 -6.8553 1.0981
0.2190 -6.8455 1.0973
0.4282 -6.8608 1.0985
0.6394 -6.8796 1.0994
0.4984 -6.8667 1.0988
0.7104 -6.8866 1.0997
0.5688 -6.8729 1.0991
0.7817 -6.8940 1.0999
1.7777 -12.3255 1.9601
0.8534 -6.9018 1.1000
1.9061 -12.3326 1.9589
0.9254 -6.9100 1.1002
2.0227 -12.2652 1.9456
2.4265 -12.3667 1.9528
2.1649 -12.3486 1.9560
2.5584 -12.3766 1.9511
2.2953 -12.3573 1.9545
2.6912 -12.3871 1.9492
3.0952 -12.4222 1.9431
2.8249 -12.3982 1.9473
3.2319 -12.4351 1.9409
2.9596 -12.4099 1.9453
3.3697 -12.4486 1.9386
3.7904 -12.4931 1.9309
3.5087 -12.4628 1.9361
3.9332 -12.5092 1.9282
3.6489 -12.4776 1.9336
4.0774 -12.5261 1.9253
4.5192 -12.5809 1.9160
4.2231 -12.5436 1.9223
4.6697 -12.6007 1.9126
4.3703 -12.5619 1.9192
4.8220 -12.6212 1.9092
5.2902 -12.6876 1.8980
4.9762 -12.6425 1.9056
5.4504 -12.7114 1.8939
5.1322 -12.6647 1.9018
5.6127 -12.7361 1.8898
6.1137 -12.8157 1.8764
5.7773 -12.7617 1.8855
6.2857 -12.8441 1.8716
5.9442 -12.7882 1.8810
6.4402 -12.8334 1.8609
6.4561 -12.5506 1.8106
6.5553 -12.4366 1.7847
6.7322 -12.4689 1.7795
6.9126 -12.5031 1.7743
7.0962 -12.5384 1.7689
7.2833 -12.5749 1.7633
7.4739 -12.6127 1.7575
7.6683 -12.6518 1.7515
7.8665 -12.6923 1.7453
8.0688 -12.7341 1.7389
-11.3412 -6.3049 0.7583
-11.3403 -6.4498 0.7949
-11.3393 -6.5964 0.8319
-11.3383 -6.7448 0.8692
-11.3373 -6.8949 0.9068
-11.3363 -7.0469 0.9447
-11.3353 -7.2007 0.9831
-11.3342 -7.3566 1.0218
-11.3332 -7.5145 1.0609
-11.3292 -7.6725 1.1001
-11.3285 -7.8350 1.1401
-11.3278 -7.9998 1.1805
-11.3272 -8.1669 1.2214
-11.3265 -8.3365 1.2627
-11.3257 -8.5087 1.3046
-11.3250 -8.6835 1.3470
-11.3243 -8.8610 1.3899
-11.3236 -9.0414 1.4334
-11.3228 -9.2248 1.4775
-11.3220 -9.4111 1.5221
-11.3213 -9.6007 1.5675
-11.3205 -9.7936 1.6134
-11.3197 -9.9899 1.6601
-11.3188 -10.1897 1.7075
-11.3180 -10.3932 1.7556
-11.3171 -10.6005 1.8045
-11.3161 -10.8117 1.8541
-11.3149 -11.0269 1.9047
-11.3138 -11.2465 1.9560
-11.1635 -11.3193 1.9818
-10.9037 -11.2775 1.9872
-10.6510 -11.2372 1.9924
-10.4049 -11.1982 1.9974
-10.1651 -11.1606 2.0023
-9.9314 -11.1243 2.0069
-9.7035 -11.0892 2.0114
-9.4942 -11.0705 2.0185
-9.4701 -11.2677 2.0649
-9.4302 -11.4502 2.1086
-9.2156 -11.4200 2.1129
-9.0056 -11.3907 2.1172
-8.8002 -11.3624 2.1213
-8.5480 -11.2677 2.1126
-8.4020 -11.3084 2.1290
-8.2089 -11.2828 2.1327
-8.0195 -11.2579 2.1363
-7.8338 -11.2338 2.1398
-7.6516 -11.2105 2.1431
-7.4726 -11.1879 2.1464
-7.2969 -11.1661 2.1495
-7.1243 -11.1449 2.1526
-6.9545 -11.1243 2.1555
-6.7876 -11.1045 2.1584
-6.6235 -11.0852 2.1611
-6.4619 -11.0665 2.1638
-6.3029 -11.0484 2.1664
-6.1462 -11.0309 2.1689
-5.9919 -11.0139 2.1713
-5.8398 -10.9975 2.1737
-5.6898 -10.9816 2.1759
-5.5419 -10.9661 2.1781
-5.3960 -10.9512 2.1802
-5.2519 -10.9368 2.1823
-5.1097 -10.9228 2.1843
-4.9693 -10.9092 2.1862
-4.8305 -10.8961 2.1880
-4.6934 -10.8835 2.1898
-4.5578 -10.8712 2.1915
-4.4238 -10.8594 2.1932
-4.2911 -10.8479 2.1948
-4.1599 -10.8369 2.1963
-4.0300 -10.8262 2.1978
-3.9013 -10.8159 2.1993
-3.7739 -10.8060 2.2006
-3.6476 -10.7964 2.2020
-3.5225 -10.7872 2.2032
-3.3984 -10.7783 2.2045
-3.2754 -10.7698 2.2056
-3.1534 -10.7616 2.2068
-3.0323 -10.7537 2.2078
-2.9121 -10.7461 2.2089
-2.7927 -10.7389 2.2098
-2.6742 -10.7320 2.2108
-2.5564 -10.7254 2.2116
-2.4394 -10.7190 2.2125
-2.3231 -10.7130 2.2133
-2.2075 -10.7073 2.2140
-2.0925 -10.7018 2.2147
-1.9780 -10.6967 2.2154
-1.8642 -10.6918 2.2160
-1.7508 -10.6872 2.2166
-0.8771 -5.7203 1.1872
-0.8172 -5.7204 1.1879
-0.7575 -5.7207 1.1887
-0.6980 -5.7211 1.1894
-0.6387 -5.7217 1.1901
-0.5794 -5.7225 1.1907
-0.5203 -5.7234 1.1914
-0.4613 -5.7244 1.1920
-0.4024 -5.7257 1.1926
-0.3435 -5.7271 1.1932
-0.2846 -5.7286 1.1938
-0.2258 -5.7304 1.1944
-0.1671 -5.7323 1.1950
-0.1083 -5.7343 1.1955
-0.0495 -5.7365 1.1960
0.0094 -5.7389 1.1965
0.0683 -5.7415 1.1970
0.1273 -5.7442 1.1975
0.1863 -5.7471 1.1980
0.2455 -5.7501 1.1985
0.3048 -5.7534 1.1989
0.3642 -5.7568 1.1993
0.4237 -5.7603 1.1997
0.4835 -5.7641 1.2001
0.5434 -5.7680 1.2005
0.6036 -5.7721 1.2009
0.6639 -5.7764 1.2013
0.7245 -5.7809 1.2016
0.7854 -5.7855 1.2019
0.8466 -5.7904 1.2022
0.9080 -5.7954 1.2025
1.7853 -10.6785 2.2143
1.8986 -10.6826 2.2136
2.0004 -10.6234 2.1997
2.1267 -10.6915 2.2120
2.2417 -10.6963 2.2112
2.3573 -10.7015 2.2103
2.4735 -10.7070 2.2093
2.5904 -10.7127 2.2083
2.7081 -10.7187 2.2073
2.8265 -10.7251 2.2062
2.9458 -10.7317 2.2051
3.0659 -10.7387 2.2039
3.3088 -10.7536 2.2014
3.1869 -10.7459 2.2027
3.4317 -10.7615 2.2001
3.5556 -10.7697 2.1987
3.9340 -10.7966 2.1942
3.6806 -10.7783 2.1973
4.0626 -10.8062 2.1926
3.8068 -10.7873 2.1958
4.1923 -10.8162 2.1910
4.5898 -10.8486 2.1857
4.3234 -10.8266 2.1893
4.7252 -10.8602 2.1838
4.4559 -10.8374 2.1875
4.8621 -10.8721 2.1818
5.2829 -10.9106 2.1755
5.0006 -10.8845 2.1798
5.4267 -10.9244 2.1733
5.1409 -10.8974 2.1777
5.5393 -10.8736 2.1581
5.7201 -10.9533 2.1686
5.8698 -10.9684 2.1662
6.0216 -10.9841 2.1636
6.1757 -11.0003 2.1610
6.3321 -11.0170 2.1583
6.4317 -10.9337 2.1359
6.4457 -10.7093 2.0859
6.5453 -10.6310 2.0643
6.7056 -10.6499 2.0615
6.8691 -10.6701 2.0587
-11.3424 -6.1342 1.3388
-11.3414 -6.2782 1.3786
-11.3404 -6.4239 1.4189
-11.3394 -6.5712 1.4596
-11.3384 -6.7203 1.5008
-11.3374 -6.8712 1.5424
-11.3364 -7.0240 1.5844
-11.3354 -7.1788 1.6270
-11.3344 -7.3355 1.6700
-11.3333 -7.4944 1.7136
-11.3322 -7.6554 1.7578
-11.3296 -7.8176 1.8022
-11.3289 -7.9834 1.8475
-11.3282 -8.1517 1.8935
-11.3275 -8.3225 1.9401
-11.3268 -8.4959 1.9873
-11.3261 -8.6721 2.0352
-11.3254 -8.8510 2.0839
-11.3247 -9.0328 2.1332
-11.3239 -9.2176 2.1834
-11.3231 -9.4056 2.2343
-11.1631 -9.4619 2.2539
-10.9195 -9.4437 2.2556
-10.6823 -9.4261 2.2572
-10.4513 -9.4091 2.2588
-10.2261 -9.3927 2.2603
-10.0064 -9.3768 2.2618
-9.7921 -9.3614 2.2632
-9.5835 -9.3471 2.2647
-9.4896 -9.4425 2.2927
-9.4749 -9.6186 2.3403
-9.3700 -9.7047 2.3660
-9.1721 -9.6924 2.3675
-8.9692 -9.6705 2.3666
-8.7434 -9.6190 2.3583
-8.4669 -9.5049 2.3345
-8.3189 -9.5301 2.3446
-8.1509 -9.5296 2.3484
-7.9858 -9.5293 2.3521
-7.8235 -9.5290 2.3557
-7.6638 -9.5290 2.3593
-7.5067 -9.5290 2.3628
-7.3521 -9.5292 2.3662
-7.1968 -9.5255 2.3686
-7.0440 -9.5220 2.3709
-6.8925 -9.5174 2.3728
-6.7431 -9.5124 2.3746
-6.5959 -9.5077 2.3763
-6.4507 -9.5030 2.3780
-6.3070 -9.4973 2.3793
-6.1652 -9.4917 2.3806
-6.0255 -9.4864 2.3819
-5.8876 -9.4813 2.3831
-5.7517 -9.4763 2.3843
-5.6175 -9.4715 2.3855
-5.4849 -9.4667 2.3866
-5.3537 -9.4614 2.3875
-5.2240 -9.4563 2.3884
-5.0687 -9.4009 2.3765
-4.9693 -9.4465 2.3901
-4.8442 -9.4418 2.3909
-4.7205 -9.4373 2.3917
-4.5981 -9.4330 2.3925
-4.4770 -9.4288 2.3932
-4.3572 -9.4247 2.3940
-4.2386 -9.4208 2.3947
-4.1211 -9.4170 2.3954
-4.0048 -9.4134 2.3960
-3.8896 -9.4099 2.3967
-3.7754 -9.4065 2.3973
-3.6622 -9.4032 2.3979
-3.5499 -9.4001 2.3985
-3.4386 -9.3970 2.3991
-3.3280 -9.3937 2.3995
-3.2182 -9.3905 2.4000
-3.1093 -9.3874 2.4004
-3.0012 -9.3844 2.4008
-2.8938 -9.3815 2.4012
-2.7872 -9.3787 2.4015
-2.6812 -9.3761 2.4019
-2.5760 -9.3736 2.4022
-2.4713 -9.3711 2.4026
-2.3673 -9.3688 2.4029
-2.2639 -9.3666 2.4032
-2.1610 -9.3645 2.4034
-2.0586 -9.3625 2.4037
-1.9567 -9.3606 2.4040
-1.8553 -9.3588 2.4042
-1.7543 -9.3571 2.4044
-0.8679 -4.9096 1.2619
-0.8156 -4.9106 1.2625
-0.7635 -4.9117 1.2631
-0.7115 -4.9127 1.2636
-0.6597 -4.9139 1.2641
-0.6079 -4.9150 1.2647
-0.5563 -4.9163 1.2652
-0.5048 -4.9176 1.2657
-0.4533 -4.9189 1.2663
-0.4019 -4.9203 1.2668
-0.3506 -4.9217 1.2673
-0.2993 -4.9232 1.2678
-0.2480 -4.9248 1.2683
-0.1968 -4.9263 1.2688
-0.1456 -4.9280 1.2692
-0.0943 -4.9297 1.2697
-0.0431 -4.9315 1.2702
0.0082 -4.9333 1.2707
0.0595 -4.9351 1.2711
0.1109 -4.9371 1.2716
0.1623 -4.9390 1.2721
0.2138 -4.9411 1.2725
0.2654 -4.9431 1.2730
0.3171 -4.9453 1.2734
0.3689 -4.9475 1.2739
0.4209 -4.9498 1.2743
0.4729 -4.9521 1.2747
0.5252 -4.9545 1.2752
0.5776 -4.9569 1.2756
0.6301 -4.9594 1.2760
0.6829 -4.9620 1.2764
0.7358 -4.9646 1.2769
0.7890 -4.9673 1.2773
0.8424 -4.9701 1.2777
0.8961 -4.9729 1.2781
1.7866 -9.3578 2.4044
1.8877 -9.3595 2.4042
1.9778 -9.3077 2.3902
2.0913 -9.3633 2.4037
2.1938 -9.3650 2.4033
2.2968 -9.3669 2.4030
2.4003 -9.3688 2.4026
2.5044 -9.3709 2.4022
2.6092 -9.3730 2.4018
2.7146 -9.3753 2.4014
2.8206 -9.3777 2.4009
2.9273 -9.3802 2.4005
3.0348 -9.3827 2.4000
3.1431 -9.3854 2.3995
3.2521 -9.3882 2.3990
3.3619 -9.3912 2.3985
3.4727 -9.3942 2.3979
3.5843 -9.3974 2.3974
3.6968 -9.4006 2.3968
3.8103 -9.4040 2.3962
3.9249 -9.4076 2.3956
4.0405 -9.4112 2.3950
4.1571 -9.4150 2.3943
4.2750 -9.4189 2.3937
4.3940 -9.4230 2.3930
4.5142 -9.4272 2.3923
4.6357 -9.4315 2.3915
4.7585 -9.4360 2.3908
4.8826 -9.4406 2.3900
5.0082 -9.4454 2.3892
5.1353 -9.4503 2.3884
5.2639 -9.4554 2.3875
5.3941 -9.4607 2.3866
5.4941 -9.4116 2.3720
5.6594 -9.4717 2.3848
5.7947 -9.4775 2.3839
5.9318 -9.4835 2.3829
6.0709 -9.4896 2.3819
6.2119 -9.4960 2.3808
-11.3435 -5.9640 1.9175
-11.3425 -6.1071 1.9606
-11.3416 -6.2518 2.0042
-11.3406 -6.3982 2.0483
-11.3396 -6.5462 2.0930
-11.3386 -6.6961 2.1382
-11.3376 -6.8478 2.1840
-11.3366 -7.0015 2.2304
-11.3355 -7.1571 2.2774
-11.3345 -7.3148 2.3250
-11.3334 -7.4746 2.3733
-11.3324 -7.6366 2.4223
-11.3307 -7.8005 2.4719
-11.1207 -7.8203 2.4758
-10.8930 -7.8235 2.4746
-10.6710 -7.8267 2.4734
-10.4547 -7.8297 2.4722
-10.2436 -7.8325 2.4710
-10.0376 -7.8353 2.4699
-9.8365 -7.8380 2.4689
-9.6403 -7.8408 2.4679
-9.5040 -7.8895 2.4814
-9.4908 -8.0407 2.5272
-9.4758 -8.1929 2.5733
-9.2894 -8.1964 2.5727
-9.1069 -8.1997 2.5720
-8.9111 -8.1874 2.5666
-8.7092 -8.1652 2.5581
-8.5124 -8.1435 2.5498
-8.3202 -8.1221 2.5416
-8.1274 -8.0959 2.5320
-7.9395 -8.0703 2.5226
-7.7563 -8.0453 2.5135
-7.5775 -8.0208 2.5046
-7.4030 -7.9970 2.4959
-7.2453 -7.9877 2.4918
-7.1083 -7.9985 2.4940
-6.9733 -8.0090 2.4962
-6.8401 -8.0194 2.4983
-6.7088 -8.0295 2.5004
-6.5792 -8.0395 2.5025
-6.4513 -8.0494 2.5045
-6.3251 -8.0591 2.5066
-6.2004 -8.0686 2.5086
-6.0773 -8.0780 2.5106
-5.9556 -8.0872 2.5125
-5.8354 -8.0963 2.5145
-5.7165 -8.1053 2.5164
-5.5990 -8.1141 2.5183
-5.4827 -8.1228 2.5202
-5.3677 -8.1314 2.5221
-5.2539 -8.1398 2.5239
-5.1413 -8.1481 2.5257
-5.0070 -8.1193 2.5161
-4.9178 -8.1618 2.5286
-4.8068 -8.1671 2.5295
-4.6970 -8.1722 2.5304
-4.5882 -8.1773 2.5314
-4.4804 -8.1823 2.5323
-4.3736 -8.1873 2.5332
-4.2676 -8.1917 2.5340
-4.1620 -8.1953 2.5345
-4.0574 -8.1987 2.5350
-3.9537 -8.2021 2.5355
-3.8509 -8.2055 2.5360
-3.7489 -8.2088 2.5365
-3.6477 -8.2120 2.5370
-3.5473 -8.2152 2.5376
-3.4476 -8.2184 2.5381
-3.3486 -8.2215 2.5386
-3.2503 -8.2245 2.5391
-3.1525 -8.2268 2.5394
-3.0552 -8.2288 2.5396
-2.9585 -8.2308 2.5398
-2.8625 -8.2328 2.5400
-2.7670 -8.2347 2.5403
-2.6721 -8.2366 2.5405
-2.5778 -8.2384 2.5407
-2.4840 -8.2402 2.5410
-2.3907 -8.2420 2.5412
-2.2978 -8.2438 2.5414
-2.2054 -8.2455 2.5417
-2.1135 -8.2471 2.5419
-2.0219 -8.2488 2.5422
-1.9308 -8.2504 2.5424
-1.8400 -8.2519 2.5427
-0.9076 -4.2818 1.3192
-0.8611 -4.2835 1.3196
-0.8147 -4.2852 1.3201
-0.7684 -4.2869 1.3205
-0.7222 -4.2886 1.3209
-0.6762 -4.2902 1.3213
-0.6302 -4.2919 1.3218
-0.5844 -4.2935 1.3222
-0.5386 -4.2951 1.3226
-0.4929 -4.2967 1.3230
-0.4473 -4.2982 1.3234
-0.4017 -4.2998 1.3239
-0.3562 -4.3013 1.3243
-0.3107 -4.3028 1.3247
-0.2653 -4.3043 1.3252
-0.2199 -4.3058 1.3256
-0.1744 -4.3073 1.3260
-0.1290 -4.3088 1.3264
-0.0836 -4.3102 1.3269
-0.0382 -4.3117 1.3273
0.0073 -4.3131 1.3277
0.0527 -4.3145 1.3282
0.0983 -4.3159 1.3286
0.1438 -4.3173 1.3291
0.1895 -4.3186 1.3295
0.2352 -4.3200 1.3300
0.2809 -4.3213 1.3304
0.3268 -4.3227 1.3308
0.3727 -4.3240 1.3313
0.4188 -4.3253 1.3318
0.4650 -4.3266 1.3322
0.5113 -4.3279 1.3327
0.5577 -4.3292 1.3331
0.6043 -4.3305 1.3336
0.6510 -4.3317 1.3341
0.6978 -4.3330 1.3345
0.7449 -4.3342 1.3350
0.7921 -4.3354 1.3355
0.8396 -4.3367 1.3359
0.8872 -4.3379 1.3364
1.7823 -8.2709 2.5483
1.8733 -8.2708 2.5485
1.9541 -8.2255 2.5348
2.0567 -8.2704 2.5489
2.1489 -8.2702 2.5491
2.2416 -8.2697 2.5492
2.3347 -8.2690 2.5493
2.4283 -8.2683 2.5494
2.5224 -8.2676 2.5495
2.6171 -8.2669 2.5496
2.7123 -8.2661 2.5497
2.8081 -8.2653 2.5498
2.9044 -8.2645 2.5499
3.0015 -8.2636 2.5501
3.0991 -8.2627 2.5502
3.1975 -8.2618 2.5503
3.2965 -8.2608 2.5504
3.3963 -8.2598 2.5506
3.4969 -8.2588 2.5507
3.5982 -8.2577 2.5508
3.7004 -8.2567 2.5510
3.8034 -8.2555 2.5511
3.9073 -8.2544 2.5513
4.0121 -8.2531 2.5515
4.1179 -8.2519 2.5516
4.2246 -8.2506 2.5518
4.3324 -8.2493 2.5520
4.4411 -8.2479 2.5522
4.5510 -8.2465 2.5523
4.6621 -8.2451 2.5525
4.7742 -8.2436 2.5527
4.8876 -8.2421 2.5529
5.0023 -8.2405 2.5532
5.1182 -8.2389 2.5534
5.2355 -8.2372 2.5536
5.3542 -8.2355 2.5538
5.4438 -8.1880 2.5399
-11.3446 -5.7937 2.4970
-11.3436 -5.9358 2.5433
-11.3427 -6.0795 2.5902
-11.3417 -6.2249 2.6378
-11.2470 -6.3193 2.6637
-11.0300 -6.3427 2.6601
-10.8184 -6.3653 2.6565
-10.6121 -6.3872 2.6531
-10.4107 -6.4084 2.6498
-10.2140 -6.4289 2.6465
-10.0219 -6.4488 2.6434
-9.8341 -6.4681 2.6404
-9.6508 -6.4869 2.6375
-9.5140 -6.5345 2.6465
-9.5020 -6.6676 2.6903
-9.4897 -6.8023 2.7347
-9.3576 -6.8511 2.7446
-9.1863 -6.8687 2.7423
-9.0150 -6.8834 2.7390
-8.8299 -6.8841 2.7305
-8.6491 -6.8847 2.7222
-8.4725 -6.8851 2.7141
-8.2957 -6.8819 2.7049
-8.1221 -6.8779 2.6956
-7.9524 -6.8738 2.6865
-7.7865 -6.8696 2.6777
-7.6243 -6.8654 2.6690
-7.4655 -6.8612 2.6606
-7.3080 -6.8549 2.6516
-7.1517 -6.8464 2.6419
-6.9987 -6.8381 2.6325
-6.8490 -6.8298 2.6234
-6.7023 -6.8215 2.6144
-6.5587 -6.8132 2.6056
-6.4331 -6.8211 2.6032
-6.3181 -6.8382 2.6044
-6.2044 -6.8549 2.6056
-6.0921 -6.8712 2.6067
-5.9811 -6.8873 2.6079
-5.8713 -6.9030 2.6091
-5.7627 -6.9184 2.6103
-5.6553 -6.9335 2.6115
-5.5491 -6.9483 2.6126
-5.4439 -6.9628 2.6138
-5.3398 -6.9770 2.6150
-5.2367 -6.9910 2.6162
-5.1347 -7.0047 2.6173
-5.0336 -7.0181 2.6185
-4.9334 -7.0313 2.6197
-4.8342 -7.0442 2.6209
-4.7358 -7.0569 2.6220
-4.6382 -7.0693 2.6232
-4.5415 -7.0815 2.6244
-4.4456 -7.0935 2.6255
-4.3505 -7.1053 2.6267
-4.2561 -7.1168 2.6279
-4.1625 -7.1281 2.6291
-4.0695 -7.1393 2.6302
-3.9772 -7.1502 2.6314
-3.8856 -7.1609 2.6326
-3.7945 -7.1714 2.6338
-3.7042 -7.1817 2.6350
-3.6143 -7.1919 2.6361
-3.5251 -7.2018 2.6373
-3.4364 -7.2115 2.6385
-3.3474 -7.2194 2.6391
-3.2589 -7.2267 2.6395
-3.1709 -7.2339 2.6400
-3.0834 -7.2410 2.6404
-2.9964 -7.2479 2.6409
-2.9100 -7.2546 2.6414
-2.8239 -7.2612 2.6419
-2.7384 -7.2676 2.6424
-2.6533 -7.2739 2.6429
-2.5686 -7.2800 2.6434
-2.4843 -7.2860 2.6439
-2.4001 -7.2911 2.6442
-2.3163 -7.2959 2.6444
-2.2328 -7.3006 2.6446
-2.1497 -7.3051 2.6448
-2.0669 -7.3095 2.6450
-1.9845 -7.3138 2.6453
-1.9024 -7.3180 2.6455
-1.8206 -7.3220 2.6458
-0.8974 -3.7805 1.3655
-0.8556 -3.7829 1.3658
-0.8138 -3.7852 1.3661
-0.7722 -3.7875 1.3664
-0.7307 -3.7896 1.3667
-0.6893 -3.7918 1.3670
-0.6480 -3.7938 1.3674
-0.6067 -3.7959 1.3677
-0.5656 -3.7978 1.3680
-0.5245 -3.7997 1.3684
-0.4835 -3.8015 1.3687
-0.4425 -3.8033 1.3691
-0.4016 -3.8050 1.3694
-0.3607 -3.8067 1.3698
-0.3198 -3.8083 1.3701
-0.2790 -3.8098 1.3705
-0.2382 -3.8113 1.3709
-0.1974 -3.8127 1.3712
-0.1566 -3.8141 1.3716
-0.1159 -3.8154 1.3720
-0.0751 -3.8166 1.3724
-0.0343 -3.8179 1.3728
0.0065 -3.8190 1.3732
0.0474 -3.8201 1.3736
0.0882 -3.8211 1.3740
0.1291 -3.8221 1.3745
0.1701 -3.8230 1.3749
0.2111 -3.8239 1.3753
0.2521 -3.8247 1.3757
0.2933 -3.8255 1.3762
0.3345 -3.8262 1.3766
0.3757 -3.8268 1.3771
0.4171 -3.8274 1.3776
0.4586 -3.8279 1.3780
0.5001 -3.8284 1.3785
0.5418 -3.8288 1.3790
0.5836 -3.8292 1.3795
0.6255 -3.8295 1.3800
0.6675 -3.8298 1.3805
0.7097 -3.8300 1.3810
0.7520 -3.8301 1.3815
0.7945 -3.8302 1.3820
0.8372 -3.8302 1.3825
0.8800 -3.8302 1.3831
0.9230 -3.8301 1.3836
1.8572 -7.3626 2.6608
1.9298 -7.3211 2.6471
2.0126 -7.3189 2.6475
2.1070 -7.3557 2.6622
2.1910 -7.3532 2.6626
2.2754 -7.3505 2.6631
2.3602 -7.3478 2.6636
2.4454 -7.3449 2.6642
2.5311 -7.3419 2.6647
2.6172 -7.3387 2.6652
2.7039 -7.3355 2.6658
2.7910 -7.3321 2.6664
2.8787 -7.3286 2.6670
2.9669 -7.3249 2.6676
3.0557 -7.3211 2.6683
3.1451 -7.3172 2.6689
3.2350 -7.3132 2.6696
3.3256 -7.3090 2.6703
3.4169 -7.3047 2.6710
3.5088 -7.3002 2.6717
3.6014 -7.2956 2.6725
3.6948 -7.2908 2.6732
3.7889 -7.2859 2.6740
3.8837 -7.2808 2.6748
3.9794 -7.2756 2.6756
4.0758 -7.2702 2.6765
4.1732 -7.2646 2.6774
4.2714 -7.2589 2.6783
4.3705 -7.2530 2.6792
4.4705 -7.2470 2.6801
4.5715 -7.2407 2.6811
4.6736 -7.2343 2.6821
4.7766 -7.2277 2.6831
4.8807 -7.2209 2.6841
-10.3150 -5.1116 2.7999
-10.1334 -5.1481 2.7951
-9.9557 -5.1835 2.7904
-9.7818 -5.2179 2.7859
-9.6122 -5.2517 2.7817
-9.5200 -5.3258 2.7993
-9.5090 -5.4455 2.8410
-9.4978 -5.5664 2.8832
-9.3751 -5.6218 2.8916
-9.2153 -5.6527 2.8880
-9.0586 -5.6828 2.8844
-8.8658 -5.6872 2.8683
-8.7179 -5.7172 2.8658
-8.5111 -5.7054 2.8428
-8.3983 -5.7537 2.8504
-8.2389 -5.7678 2.8414
-8.0828 -5.7814 2.8326
-7.9299 -5.7945 2.8240
-7.7801 -5.8071 2.8156
-7.6332 -5.8192 2.8075
-7.4873 -5.8293 2.7987
-7.3421 -5.8374 2.7894
-7.1999 -5.8451 2.7803
-7.0604 -5.8524 2.7715
-6.9236 -5.8594 2.7628
-6.7893 -5.8661 2.7543
-6.6576 -5.8724 2.7460
-6.5250 -5.8754 2.7365
-6.3946 -5.8780 2.7271
-6.2668 -5.8804 2.7179
-6.1412 -5.8825 2.7089
-6.0178 -5.8844 2.7001
-5.8967 -5.8860 2.6915
-5.7941 -5.9042 2.6907
-5.6955 -5.9249 2.6912
-5.5978 -5.9452 2.6918
-5.5011 -5.9650 2.6923
-5.4054 -5.9845 2.6929
-5.3105 -6.0035 2.6935
-5.2166 -6.0222 2.6941
-5.1235 -6.0405 2.6947
-5.0312 -6.0585 2.6953
-4.9397 -6.0760 2.6959
-4.8491 -6.0933 2.6966
-4.7592 -6.1102 2.6972
-4.6700 -6.1267 2.6979
-4.5815 -6.1429 2.6985
-4.4938 -6.1588 2.6992
-4.4067 -6.1744 2.6999
-4.3203 -6.1897 2.7006
-4.2345 -6.2046 2.7013
-4.1494 -6.2193 2.7020
-4.0648 -6.2337 2.7028
-3.9808 -6.2478 2.7035
-3.8974 -6.2616 2.7042
-3.8145 -6.2751 2.7050
-3.7321 -6.2884 2.7058
-3.6503 -6.3014 2.7066
-3.5689 -6.3141 2.7073
-3.4881 -6.3266 2.7081
-3.4077 -6.3388 2.7090
-3.3277 -6.3507 2.7098
-3.2482 -6.3625 2.7106
-3.1691 -6.3739 2.7114
-3.0904 -6.3852 2.7123
-3.0121 -6.3962 2.7131
-2.9341 -6.4070 2.7140
-2.8566 -6.4175 2.7149
-2.7793 -6.4278 2.7158
-2.7024 -6.4379 2.7167
-2.6259 -6.4478 2.7176
-2.5496 -6.4575 2.7185
-2.4737 -6.4670 2.7194
-2.3980 -6.4762 2.7204
-2.3226 -6.4852 2.7213
-2.2475 -6.4941 2.7223
-2.1723 -6.5019 2.7229
-2.0972 -6.5087 2.7232
-2.0223 -6.5154 2.7236
-1.9477 -6.5218 2.7239
-1.8733 -6.5281 2.7243
-1.7991 -6.5342 2.7247
-0.8919 -3.3810 1.4087
-0.8529 -3.3805 1.4075
-0.8141 -3.3800 1.4063
-0.7755 -3.3795 1.4052
-0.7372 -3.3796 1.4044
-0.6996 -3.3822 1.4046
-0.6621 -3.3847 1.4049
-0.6247 -3.3871 1.4051
-0.5873 -3.3894 1.4054
-0.5499 -3.3916 1.4056
-0.5127 -3.3937 1.4059
-0.4755 -3.3958 1.4062
-0.4383 -3.3977 1.4064
-0.4012 -3.3996 1.4067
-0.3641 -3.4014 1.4070
-0.3270 -3.4030 1.4073
-0.2900 -3.4047 1.4076
-0.2530 -3.4062 1.4080
-0.2160 -3.4076 1.4083
-0.1790 -3.4090 1.4086
-0.1421 -3.4103 1.4090
-0.1051 -3.4115 1.4093
-0.0681 -3.4126 1.4097
-0.0311 -3.4136 1.4101
0.0059 -3.4145 1.4104
0.0429 -3.4154 1.4108
0.0800 -3.4162 1.4112
0.1171 -3.4169 1.4116
0.1542 -3.4175 1.4120
0.1914 -3.4180 1.4124
0.2286 -3.4184 1.4128
0.2658 -3.4188 1.4133
0.3032 -3.4191 1.4137
0.3405 -3.4193 1.4142
0.3780 -3.4194 1.4146
0.4155 -3.4194 1.4151
0.4531 -3.4193 1.4156
0.4908 -3.4192 1.4160
0.5286 -3.4190 1.4165
0.5665 -3.4187 1.4170
0.6044 -3.4183 1.4175
0.6425 -3.4178 1.4181
0.6807 -3.4172 1.4186
0.7190 -3.4165 1.4191
0.7575 -3.4158 1.4197
0.7960 -3.4149 1.4202
0.8347 -3.4140 1.4208
0.8736 -3.4130 1.4214
0.9126 -3.4119 1.4220
1.8396 -6.5924 2.7496
1.9055 -6.5554 2.7364
1.9811 -6.5517 2.7372
2.0676 -6.5814 2.7520
2.1443 -6.5774 2.7528
2.2212 -6.5732 2.7536
2.2986 -6.5688 2.7545
2.3763 -6.5642 2.7554
2.4544 -6.5594 2.7563
2.5329 -6.5545 2.7572
2.6118 -6.5493 2.7582
2.6912 -6.5440 2.7592
2.7710 -6.5384 2.7602
2.8512 -6.5327 2.7612
2.9319 -6.5268 2.7623
3.0131 -6.5206 2.7633
3.0948 -6.5143 2.7645
3.1770 -6.5077 2.7656
3.2598 -6.5009 2.7668
3.3432 -6.4939 2.7680
3.4271 -6.4867 2.7692
3.5116 -6.4793 2.7704
3.5967 -6.4716 2.7717
3.6824 -6.4637 2.7730
3.7688 -6.4555 2.7743
3.8559 -6.4472 2.7757
3.9436 -6.4385 2.7771
4.0321 -6.4297 2.7785
4.1213 -6.4205 2.7800
4.2113 -6.4111 2.7815
4.3021 -6.4015 2.7830
4.3936 -6.3915 2.7846
-9.3397 -4.4853 3.0194
-9.1922 -4.5285 3.0147
-9.0444 -4.5691 3.0093
-8.8584 -4.5875 2.9902
-8.6745 -4.6035 2.9707
-8.5042 -4.6235 2.9547
-8.3730 -4.6621 2.9515
-8.2438 -4.6999 2.9484
-8.1165 -4.7366 2.9453
-7.9912 -4.7725 2.9423
-7.8676 -4.8076 2.9394
-7.7377 -4.8367 2.9334
-7.6016 -4.8596 2.9244
-7.4680 -4.8819 2.9156
-7.3368 -4.9034 2.9070
-7.2080 -4.9243 2.8985
-7.0814 -4.9445 2.8903
-6.9569 -4.9641 2.8822
-6.8340 -4.9827 2.8740
-6.7105 -4.9986 2.8649
-6.5891 -5.0141 2.8560
-6.4698 -5.0289 2.8472
-6.3524 -5.0433 2.8387
-6.2371 -5.0572 2.8303
-6.1236 -5.0706 2.8221
-6.0107 -5.0827 2.8135
-5.8980 -5.0927 2.8043
-5.7871 -5.1024 2.7952
-5.6780 -5.1116 2.7864
-5.5707 -5.1205 2.7777
-5.4650 -5.1290 2.7691
-5.3624 -5.1385 2.7615
-5.2756 -5.1617 2.7616
-5.1896 -5.1845 2.7617
-5.1044 -5.2068 2.7618
-5.0199 -5.2287 2.7619
-4.9361 -5.2501 2.7621
-4.8529 -5.2712 2.7622
-4.7704 -5.2918 2.7624
-4.6886 -5.3120 2.7626
-4.6073 -5.3318 2.7628
-4.5267 -5.3512 2.7631
-4.4466 -5.3702 2.7633
-4.3672 -5.3889 2.7636
-4.2883 -5.4071 2.7639
-4.2099 -5.4251 2.7642
-4.1320 -5.4426 2.7645
-4.0547 -5.4598 2.7649
-3.9779 -5.4767 2.7652
-3.9015 -5.4932 2.7656
-3.8256 -5.5094 2.7660
-3.7502 -5.5253 2.7664
-3.6752 -5.5408 2.7668
-3.6006 -5.5560 2.7673
-3.5265 -5.5710 2.7677
-3.4527 -5.5856 2.7682
-3.3793 -5.5999 2.7687
-3.3063 -5.6139 2.7692
-3.2337 -5.6276 2.7697
-3.1615 -5.6410 2.7702
-3.0896 -5.6542 2.7708
-3.0180 -5.6670 2.7713
-2.9467 -5.6796 2.7719
-2.8758 -5.6919 2.7725
-2.8051 -5.7040 2.7731
-2.7348 -5.7158 2.7737
-2.6647 -5.7273 2.7744
-2.5949 -5.7385 2.7750
-2.5254 -5.7495 2.7757
-2.4561 -5.7603 2.7763
-2.3870 -5.7708 2.7770
-2.3182 -5.7810 2.7778
-2.2496 -5.7911 2.7785
-2.1812 -5.8008 2.7792
-2.1131 -5.8103 2.7800
-2.0451 -5.8196 2.7807
-1.9773 -5.8287 2.7815
-1.9097 -5.8375 2.7823
-1.8422 -5.8461 2.7831
-1.7749 -5.8545 2.7839
-1.7078 -5.8626 2.7848
-1.6408 -5.8706 2.7856
-0.9104 -3.3998 1.6116
-0.8705 -3.3992 1.6098
-0.8309 -3.3987 1.6081
-0.7914 -3.3981 1.6064
-0.7522 -3.3976 1.6049
-0.7132 -3.3970 1.6033
-0.6743 -3.3965 1.6019
-0.6356 -3.3960 1.6005
-0.5970 -3.3954 1.5993
-0.5586 -3.3949 1.5980
-0.5204 -3.3944 1.5969
-0.4822 -3.3939 1.5958
-0.4442 -3.3934 1.5948
-0.4063 -3.3930 1.5938
-0.3685 -3.3925 1.5930
-0.3308 -3.3920 1.5922
-0.2931 -3.3916 1.5914
-0.2556 -3.3911 1.5907
-0.2181 -3.3907 1.5901
-0.1807 -3.3902 1.5896
-0.1433 -3.3898 1.5891
-0.1059 -3.3894 1.5887
-0.0686 -3.3890 1.5884
-0.0313 -3.3885 1.5881
0.0060 -3.3881 1.5879
0.0432 -3.3877 1.5877
0.0805 -3.3873 1.5877
0.1177 -3.3870 1.5876
0.1550 -3.3866 1.5877
0.1924 -3.3862 1.5878
0.2297 -3.3858 1.5880
0.2671 -3.3855 1.5882
0.3045 -3.3851 1.5885
0.3421 -3.3847 1.5889
0.3796 -3.3844 1.5894
0.4173 -3.3841 1.5899
0.4550 -3.3837 1.5905
0.4928 -3.3834 1.5911
0.5308 -3.3831 1.5918
0.5688 -3.3827 1.5926
0.6070 -3.3824 1.5934
0.6453 -3.3821 1.5944
0.6837 -3.3818 1.5953
0.7223 -3.3815 1.5964
0.7610 -3.3812 1.5975
0.7999 -3.3809 1.5987
0.8390 -3.3806 1.6000
0.8782 -3.3803 1.6014
0.9177 -3.3800 1.6028
1.6830 -5.9412 2.8201
1.7520 -5.9371 2.8211
1.8213 -5.9327 2.8222
1.8908 -5.9282 2.8232
1.9511 -5.8947 2.8107
2.0209 -5.8897 2.8118
2.1011 -5.9131 2.8266
2.1717 -5.9076 2.8277
2.2427 -5.9019 2.8289
2.3140 -5.8960 2.8302
2.3856 -5.8899 2.8314
2.4575 -5.8835 2.8327
2.5298 -5.8768 2.8340
2.6025 -5.8700 2.8353
2.6755 -5.8628 2.8367
2.7490 -5.8555 2.8381
2.8227 -5.8477 2.8394
2.8968 -5.8395 2.8407
2.9713 -5.8310 2.8420
3.0462 -5.8223 2.8433
3.1216 -5.8133 2.8447
3.1974 -5.8041 2.8461
3.2737 -5.7945 2.8476
3.3504 -5.7847 2.8491
3.4277 -5.7747 2.8506
3.5055 -5.7643 2.8521
3.5838 -5.7537 2.8537
3.6627 -5.7427 2.8553
3.7421 -5.7315 2.8570
3.8221 -5.7199 2.8587
3.9027 -5.7081 2.8604
3.9839 -5.6959 2.8622
-8.0513 -3.7416 3.0262
-7.9363 -3.7859 3.0226
-7.8230 -3.8292 3.0190
-7.7111 -3.8715 3.0155
-7.6007 -3.9129 3.0121
-7.4918 -3.9533 3.0087
-7.3842 -3.9928 3.0054
-7.2781 -4.0315 3.0022
-7.1732 -4.0692 2.9991
-7.0633 -4.1025 2.9933
-6.9477 -4.1306 2.9846
-6.8339 -4.1580 2.9761
-6.7219 -4.1846 2.9677
-6.6117 -4.2105 2.9595
-6.5031 -4.2356 2.9514
-6.3962 -4.2601 2.9435
-6.2908 -4.2838 2.9358
-6.1845 -4.3053 2.9271
-6.0796 -4.3259 2.9184
-5.9762 -4.3459 2.9099
-5.8743 -4.3653 2.9015
-5.7739 -4.3841 2.8933
-5.6750 -4.4024 2.8853
-5.5774 -4.4201 2.8774
-5.4791 -4.4356 2.8686
-5.3819 -4.4504 2.8598
-5.2861 -4.4646 2.8511
-5.1916 -4.4785 2.8426
-5.0985 -4.4918 2.8343
-5.0066 -4.5047 2.8261
-4.9206 -4.5214 2.8207
-4.8442 -4.5458 2.8204
-4.7683 -4.5697 2.8202
-4.6931 -4.5932 2.8200
-4.6183 -4.6162 2.8198
-4.5441 -4.6388 2.8197
-4.4703 -4.6609 2.8195
-4.3971 -4.6826 2.8194
-4.3243 -4.7039 2.8193
-4.2520 -4.7248 2.8193
-4.1802 -4.7453 2.8192
-4.1088 -4.7653 2.8192
-4.0378 -4.7850 2.8192
-3.9673 -4.8043 2.8192
-3.8971 -4.8232 2.8193
-3.8274 -4.8418 2.8193
-3.7581 -4.8600 2.8194
-3.6891 -4.8778 2.8195
-3.6205 -4.8953 2.8197
-3.5522 -4.9124 2.8198
-3.4844 -4.9292 2.8200
-3.4168 -4.9456 2.8202
-3.3495 -4.9617 2.8204
-3.2826 -4.9775 2.8206
-3.2160 -4.9929 2.8208
-3.1497 -5.0081 2.8211
-3.0837 -5.0229 2.8214
-3.0179 -5.0374 2.8217
-2.9525 -5.0516 2.8220
-2.8873 -5.0655 2.8223
-2.8223 -5.0791 2.8227
-2.7576 -5.0924 2.8231
-2.6932 -5.1054 2.8235
-2.6290 -5.1181 2.8239
-2.5650 -5.1305 2.8243
-2.5012 -5.1427 2.8247
-2.4377 -5.1545 2.8252
-2.3743 -5.1661 2.8257
-2.3111 -5.1774 2.8262
-2.2482 -5.1885 2.8267
-2.1854 -5.1993 2.8272
-2.1228 -5.2098 2.8278
-2.0603 -5.2200 2.8283
-1.9980 -5.2300 2.8289
-1.9359 -5.2398 2.8295
-1.8739 -5.2493 2.8301
-1.8121 -5.2585 2.8308
-1.7503 -5.2675 2.8314
-1.6888 -5.2762 2.8321
-1.6273 -5.2847 2.8328
-1.5659 -5.2929 2.8335
-1.5047 -5.3009 2.8342
-1.4435 -5.3087 2.8350
-0.8892 -3.4191 1.8238
-0.8486 -3.4185 1.8214
-0.8083 -3.4178 1.8192
-0.7682 -3.4172 1.8171
-0.7283 -3.4166 1.8151
-0.6886 -3.4160 1.8131
-0.6490 -3.4155 1.8113
-0.6096 -3.4149 1.8096
-0.5704 -3.4143 1.8079
-0.5313 -3.4138 1.8064
-0.4923 -3.4133 1.8050
-0.4535 -3.4127 1.8036
-0.4148 -3.4122 1.8024
-0.3762 -3.4117 1.8012
-0.3377 -3.4112 1.8001
-0.2992 -3.4107 1.7992
-0.2609 -3.4102 1.7983
-0.2226 -3.4098 1.7975
-0.1844 -3.4093 1.7968
-0.1463 -3.4089 1.7962
-0.1081 -3.4084 1.7957
-0.0700 -3.4080 1.7952
-0.0320 -3.4076 1.7949
0.0061 -3.4071 1.7947
0.0441 -3.4067 1.7945
0.0821 -3.4063 1.7944
0.1202 -3.4059 1.7944
0.1583 -3.4056 1.7946
0.1964 -3.4052 1.7948
0.2345 -3.4048 1.7950
0.2727 -3.4044 1.7954
0.3109 -3.4041 1.7959
0.3492 -3.4037 1.7964
0.3875 -3.4034 1.7971
0.4260 -3.4031 1.7978
0.4645 -3.4028 1.7987
0.5031 -3.4024 1.7996
0.5419 -3.4021 1.8006
0.5807 -3.4018 1.8017
0.6197 -3.4015 1.8029
0.6588 -3.4013 1.8042
0.6981 -3.4010 1.8056
0.7375 -3.4007 1.8071
0.7771 -3.4004 1.8087
0.8169 -3.4002 1.8104
0.8568 -3.3999 1.8122
0.8970 -3.3997 1.8141
1.4848 -5.3850 2.8768
1.5478 -5.3804 2.8778
1.6111 -5.3755 2.8789
1.6745 -5.3704 2.8799
1.7381 -5.3650 2.8810
1.8019 -5.3594 2.8822
1.8660 -5.3535 2.8833
1.9209 -5.3216 2.8706
1.9851 -5.3152 2.8718
2.0595 -5.3344 2.8870
2.1245 -5.3276 2.8882
2.1897 -5.3205 2.8895
2.2552 -5.3131 2.8908
2.3210 -5.3054 2.8922
2.3871 -5.2975 2.8936
2.4534 -5.2894 2.8950
2.5201 -5.2809 2.8964
2.5870 -5.2722 2.8979
2.6543 -5.2632 2.8994
2.7220 -5.2539 2.9010
2.7899 -5.2443 2.9025
2.8582 -5.2345 2.9041
2.9269 -5.2243 2.9058
2.9959 -5.2139 2.9075
3.0653 -5.2032 2.9092
3.1351 -5.1921 2.9109
3.2053 -5.1808 2.9127
3.2760 -5.1691 2.9145
3.3470 -5.1571 2.9164
3.4185 -5.1448 2.9183
3.4904 -5.1322 2.9202
3.5628 -5.1192 2.9222
3.6356 -5.1059 2.9242
-7.1468 -3.2083 3.0692
-7.0516 -3.2517 3.0656
-6.9575 -3.2943 3.0620
-6.8645 -3.3360 3.0586
-6.7724 -3.3769 3.0552
-6.6814 -3.4168 3.0519
-6.5913 -3.4560 3.0487
-6.4966 -3.4914 3.0430
-6.3972 -3.5228 3.0346
-6.2992 -3.5534 3.0263
-6.2025 -3.5832 3.0183
-6.1071 -3.6123 3.0103
-6.0130 -3.6406 3.0025
-5.9201 -3.6682 2.9949
-5.8284 -3.6951 2.9874
-5.7363 -3.7204 2.9793
-5.6446 -3.7445 2.9709
-5.5542 -3.7679 2.9626
-5.4649 -3.7908 2.9546
-5.3768 -3.8130 2.9466
-5.2897 -3.8346 2.9388
-5.2037 -3.8556 2.9311
-5.1180 -3.8755 2.9232
-5.0321 -3.8939 2.9146
-4.9473 -3.9118 2.9062
-4.8635 -3.9291 2.8979
-4.7808 -3.9460 2.8898
-4.6990 -3.9623 2.8818
-4.6182 -3.9782 2.8740
-4.5455 -3.9998 2.8707
-4.4775 -4.0247 2.8703
-4.4100 -4.0492 2.8698
-4.3429 -4.0732 2.8694
-4.2762 -4.0968 2.8690
-4.2098 -4.1199 2.8686
-4.1439 -4.1426 2.8682
-4.0783 -4.1649 2.8679
-4.0130 -4.1867 2.8676
-3.9482 -4.2082 2.8673
-3.8836 -4.2292 2.8671
-3.8194 -4.2499 2.8669
-3.7556 -4.2701 2.8667
-3.6920 -4.2900 2.8665
-3.6288 -4.3094 2.8663
-3.5658 -4.3286 2.8662
-3.5031 -4.3473 2.8661
-3.4408 -4.3657 2.8660
-3.3787 -4.3837 2.8660
-3.3169 -4.4013 2.8659
-3.2553 -4.4186 2.8659
-3.1940 -4.4356 2.8659
-3.1330 -4.4522 2.8659
-3.0722 -4.4685 2.8660
-3.0116 -4.4844 2.8660
-2.9513 -4.5001 2.8661
-2.8912 -4.5154 2.8662
-2.8313 -4.5303 2.8664
-2.7716 -4.5450 2.8665
-2.7121 -4.5594 2.8667
-2.6529 -4.5734 2.8669
-2.5938 -4.5871 2.8671
-2.5349 -4.6006 2.8673
-2.4761 -4.6137 2.8676
-2.4176 -4.6266 2.8679
-2.3592 -4.6391 2.8682
-2.3010 -4.6514 2.8685
-2.2430 -4.6633 2.8688
-2.1851 -4.6750 2.8692
-2.1273 -4.6864 2.8695
-2.0697 -4.6976 2.8699
-2.0122 -4.7084 2.8703
-1.9549 -4.7190 2.8708
-1.8977 -4.7293 2.8712
-1.8405 -4.7393 2.8717
-1.7836 -4.7491 2.8722
-1.7267 -4.7586 2.8727
-1.6699 -4.7679 2.8732
-1.6132 -4.7769 2.8737
-1.5566 -4.7856 2.8743
-1.5001 -4.7940 2.8749
-1.4437 -4.8023 2.8755
-1.3874 -4.8102 2.8761
-1.3312 -4.8179 2.8767
-0.9090 -3.4402 2.0514
-0.8675 -3.4395 2.0484
-0.8263 -3.4388 2.0455
-0.7852 -3.4382 2.0428
-0.7444 -3.4375 2.0402
-0.7037 -3.4368 2.0377
-0.6633 -3.4362 2.0354
-0.6230 -3.4356 2.0332
-0.5829 -3.4350 2.0311
-0.5429 -3.4344 2.0291
-0.5031 -3.4338 2.0273
-0.4634 -3.4332 2.0256
-0.4238 -3.4327 2.0240
-0.3844 -3.4321 2.0225
-0.3450 -3.4316 2.0212
-0.3057 -3.4311 2.0199
-0.2666 -3.4306 2.0188
-0.2274 -3.4301 2.0178
-0.1884 -3.4296 2.0170
-0.1494 -3.4291 2.0162
-0.1105 -3.4287 2.0156
-0.0716 -3.4282 2.0150
-0.0327 -3.4278 2.0146
0.0062 -3.4273 2.0143
0.0451 -3.4269 2.0142
0.0839 -3.4265 2.0141
0.1228 -3.4261 2.0142
0.1617 -3.4257 2.0143
0.2006 -3.4253 2.0146
0.2396 -3.4250 2.0150
0.2786 -3.4246 2.0156
0.3176 -3.4243 2.0162
0.3567 -3.4239 2.0170
0.3959 -3.4236 2.0178
0.4352 -3.4233 2.0188
0.4746 -3.4230 2.0200
0.5141 -3.4227 2.0212
0.5537 -3.4224 2.0225
0.5934 -3.4221 2.0240
0.6333 -3.4219 2.0256
0.6733 -3.4216 2.0273
0.7134 -3.4214 2.0292
0.7537 -3.4211 2.0312
0.7942 -3.4209 2.0333
0.8349 -3.4207 2.0355
0.8758 -3.4205 2.0379
1.3129 -4.8975 2.9216
1.3708 -4.8930 2.9228
1.4289 -4.8881 2.9240
1.4872 -4.8831 2.9252
1.5456 -4.8778 2.9265
1.6041 -4.8722 2.9278
1.6629 -4.8663 2.9291
1.7218 -4.8602 2.9305
1.7809 -4.8539 2.9318
1.8402 -4.8472 2.9332
1.8910 -4.8183 2.9213
1.9504 -4.8112 2.9228
2.0100 -4.8038 2.9243
2.0794 -4.8180 2.9392
2.1397 -4.8100 2.9407
2.2002 -4.8017 2.9423
2.2610 -4.7932 2.9439
2.3221 -4.7843 2.9455
2.3833 -4.7752 2.9472
2.4449 -4.7658 2.9489
2.5067 -4.7560 2.9506
2.5688 -4.7460 2.9524
2.6311 -4.7357 2.9542
2.6937 -4.7250 2.9560
2.7566 -4.7141 2.9579
2.8197 -4.7026 2.9596
2.8831 -4.6907 2.9614
2.9468 -4.6786 2.9632
3.0108 -4.6661 2.9651
3.0751 -4.6533 2.9670
3.1398 -4.6402 2.9689
3.2047 -4.6267 2.9708
3.2701 -4.6128 2.9728
3.3358 -4.5987 2.9749
-6.4097 -2.7737 3.1041
-6.3295 -2.8157 3.1007
-6.2499 -2.8570 3.0973
-6.1710 -2.8974 3.0939
-6.0929 -2.9371 3.0906
-6.0101 -2.9734 3.0847
-5.9239 -3.0067 3.0767
-5.8387 -3.0393 3.0688
-5.7545 -3.0711 3.0611
-5.6713 -3.1021 3.0534
-5.5890 -3.1325 3.0460
-5.5076 -3.1621 3.0386
-5.4272 -3.1911 3.0314
-5.3467 -3.2188 3.0237
-5.2661 -3.2452 3.0157
-5.1863 -3.2710 3.0077
-5.1075 -3.2961 2.9999
-5.0295 -3.3207 2.9922
-4.9524 -3.3446 2.9847
-4.8762 -3.3680 2.9773
-4.8007 -3.3907 2.9700
-4.7244 -3.4118 2.9618
-4.6489 -3.4322 2.9537
-4.5741 -3.4521 2.9457
-4.5002 -3.4714 2.9378
-4.4271 -3.4903 2.9301
-4.3547 -3.5086 2.9224
-4.2830 -3.5265 2.9150
-4.2212 -3.5515 2.9138
-4.1603 -3.5765 2.9131
-4.0997 -3.6012 2.9125
-4.0394 -3.6253 2.9119
-3.9795 -3.6491 2.9114
-3.9198 -3.6724 2.9108
-3.8604 -3.6953 2.9103
-3.8012 -3.7178 2.9098
-3.7424 -3.7399 2.9094
-3.6837 -3.7615 2.9089
-3.6254 -3.7828 2.9085
-3.5673 -3.8037 2.9081
-3.5095 -3.8242 2.9078
-3.4518 -3.8443 2.9075
-3.3944 -3.8640 2.9072
-3.3373 -3.8834 2.9069
-3.2803 -3.9024 2.9066
-3.2236 -3.9210 2.9064
-3.1671 -3.9393 2.9062
-3.1108 -3.9572 2.9060
-3.0547 -3.9748 2.9058
-2.9988 -3.9920 2.9057
-2.9431 -4.0089 2.9056
-2.8875 -4.0254 2.9055
-2.8322 -4.0417 2.9054
-2.7770 -4.0575 2.9054
-2.7220 -4.0731 2.9054
-2.6671 -4.0883 2.9054
-2.6125 -4.1033 2.9054
-2.5579 -4.1179 2.9054
-2.5035 -4.1322 2.9055
-2.4493 -4.1462 2.9056
-2.3952 -4.1599 2.9057
-2.3413 -4.1732 2.9058
-2.2875 -4.1863 2.9060
-2.2338 -4.1991 2.9061
-2.1802 -4.2116 2.9063
-2.1268 -4.2238 2.9065
-2.0735 -4.2357 2.9068
-2.0202 -4.2473 2.9070
-1.9671 -4.2587 2.9073
-1.9141 -4.2698 2.9076
-1.8612 -4.2805 2.9079
-1.8085 -4.2911 2.9082
-1.7557 -4.3013 2.9086
-1.7031 -4.3112 2.9090
-1.6506 -4.3209 2.9094
-1.5981 -4.3304 2.9098
-1.5458 -4.3395 2.9102
-1.4935 -4.3484 2.9106
-1.4412 -4.3570 2.9111
-1.3891 -4.3654 2.9116
-1.3370 -4.3735 2.9121
-1.2849 -4.3813 2.9126
-1.2329 -4.3889 2.9132
-0.9302 -3.4629 2.2951
-0.8877 -3.4621 2.2914
-0.8455 -3.4613 2.2878
-0.8034 -3.4606 2.2844
-0.7616 -3.4598 2.2812
-0.7200 -3.4591 2.2781
-0.6786 -3.4584 2.2752
-0.6373 -3.4577 2.2724
-0.5963 -3.4571 2.2698
-0.5554 -3.4564 2.2674
-0.5146 -3.4558 2.2651
-0.4740 -3.4552 2.2630
-0.4335 -3.4546 2.2610
-0.3931 -3.4540 2.2592
-0.3529 -3.4534 2.2575
-0.3127 -3.4529 2.2560
-0.2726 -3.4523 2.2547
-0.2326 -3.4518 2.2534
-0.1927 -3.4513 2.2524
-0.1528 -3.4508 2.2515
-0.1130 -3.4503 2.2507
-0.0732 -3.4498 2.2501
-0.0334 -3.4494 2.2496
0.0063 -3.4489 2.2492
0.0461 -3.4485 2.2490
0.0858 -3.4481 2.2490
0.1256 -3.4477 2.2491
0.1653 -3.4473 2.2493
0.2051 -3.4469 2.2497
0.2450 -3.4465 2.2503
0.2849 -3.4462 2.2510
0.3248 -3.4458 2.2518
0.3648 -3.4455 2.2528
0.4049 -3.4452 2.2539
0.4451 -3.4449 2.2552
0.4854 -3.4446 2.2566
0.5258 -3.4444 2.2582
0.5663 -3.4441 2.2599
0.6070 -3.4438 2.2618
0.6478 -3.4436 2.2639
0.6887 -3.4434 2.2661
0.7298 -3.4432 2.2684
0.7711 -3.4430 2.2709
0.8126 -3.4428 2.2736
0.8542 -3.4426 2.2764
0.8961 -3.4425 2.2794
1.2172 -4.4661 2.9614
1.2709 -4.4614 2.9627
1.3245 -4.4562 2.9639
1.3783 -4.4508 2.9651
1.4323 -4.4451 2.9664
1.4863 -4.4391 2.9677
1.5405 -4.4329 2.9690
1.5949 -4.4264 2.9703
1.6493 -4.4196 2.9716
1.7039 -4.4126 2.9730
1.7587 -4.4052 2.9744
1.8137 -4.3976 2.9759
1.8688 -4.3898 2.9773
1.9153 -4.3617 2.9653
1.9705 -4.3533 2.9668
2.0351 -4.3645 2.9819
2.0909 -4.3554 2.9835
2.1469 -4.3461 2.9851
2.2031 -4.3365 2.9868
2.2595 -4.3266 2.9885
2.3161 -4.3164 2.9902
2.3728 -4.3059 2.9919
2.4299 -4.2951 2.9937
2.4871 -4.2840 2.9955
2.5446 -4.2726 2.9973
2.6022 -4.2608 2.9992
2.6602 -4.2487 3.0011
2.7183 -4.2363 3.0031
2.7768 -4.2236 3.0050
2.8354 -4.2105 3.0070
2.8943 -4.1971 3.0091
2.9535 -4.1834 3.0112
3.0130 -4.1693 3.0133
3.0728 -4.1549 3.0155
-5.7952 -2.4113 3.1333
-5.7264 -2.4516 3.1300
-5.6582 -2.4912 3.1267
-5.5848 -2.5276 3.1204
-5.5095 -2.5620 3.1127
-5.4350 -2.5957 3.1052
-5.3612 -2.6286 3.0978
-5.2881 -2.6608 3.0905
-5.2157 -2.6924 3.0833
-5.1440 -2.7232 3.0762
-5.0730 -2.7534 3.0692
-5.0021 -2.7826 3.0621
-4.9308 -2.8106 3.0543
-4.8601 -2.8379 3.0467
-4.7902 -2.8646 3.0392
-4.7209 -2.8907 3.0318
-4.6523 -2.9162 3.0245
-4.5843 -2.9411 3.0174
-4.5169 -2.9654 3.0103
-4.4493 -2.9887 3.0028
-4.3817 -3.0109 2.9950
-4.3148 -3.0326 2.9873
-4.2484 -3.0538 2.9797
-4.1827 -3.0744 2.9722
-4.1176 -3.0946 2.9648
-4.0530 -3.1142 2.9576
-3.9915 -3.1353 2.9522
-3.9364 -3.1606 2.9514
-3.8815 -3.1856 2.9506
-3.8268 -3.2101 2.9499
-3.7724 -3.2342 2.9491
-3.7182 -3.2579 2.9484
-3.6642 -3.2811 2.9478
-3.6104 -3.3040 2.9472
-3.5568 -3.3264 2.9465
-3.5034 -3.3485 2.9460
-3.4501 -3.3702 2.9454
-3.3971 -3.3914 2.9449
-3.3443 -3.4123 2.9444
-3.2916 -3.4328 2.9439
-3.2391 -3.4530 2.9435
-3.1868 -3.4727 2.9431
-3.1347 -3.4922 2.9427
-3.0827 -3.5112 2.9423
-3.0309 -3.5299 2.9420
-2.9792 -3.5482 2.9416
-2.9277 -3.5662 2.9413
-2.8763 -3.5839 2.9411
-2.8251 -3.6012 2.9408
-2.7740 -3.6182 2.9406
-2.7231 -3.6348 2.9404
-2.6722 -3.6511 2.9402
-2.6216 -3.6671 2.9401
-2.5710 -3.6828 2.9399
-2.5206 -3.6981 2.9398
-2.4703 -3.7132 2.9398
-2.4201 -3.7279 2.9397
-2.3700 -3.7423 2.9396
-2.3201 -3.7564 2.9396
-2.2702 -3.7702 2.9396
-2.2205 -3.7837 2.9397
-2.1708 -3.7969 2.9397
-2.1212 -3.8098 2.9398
-2.0718 -3.8224 2.9399
-2.0224 -3.8348 2.9400
-1.9731 -3.8468 2.9401
-1.9239 -3.8586 2.9403
-1.8748 -3.8700 2.9404
-1.8258 -3.8812 2.9406
-1.7768 -3.8921 2.9408
-1.7279 -3.9027 2.9411
-1.6791 -3.9131 2.9413
-1.6304 -3.9231 2.9416
-1.5817 -3.9329 2.9419
-1.5331 -3.9425 2.9422
-1.4845 -3.9517 2.9426
-1.4360 -3.9607 2.9429
-1.3875 -3.9694 2.9433
-1.3391 -3.9779 2.9437
-1.2908 -3.9861 2.9441
-1.2425 -3.9940 2.9446
-1.1942 -4.0017 2.9450
-1.1459 -4.0091 2.9455
-1.0977 -4.0163 2.9460
-0.9095 -3.4864 2.5533
-0.8662 -3.4855 2.5490
-0.6528 -3.4816 2.5302
-0.8231 -3.4847 2.5448
-0.6107 -3.4808 2.5270
-0.5687 -3.4801 2.5241
-0.7802 -3.4839 2.5409
-0.5270 -3.4795 2.5213
-0.7375 -3.4831 2.5371
-0.4854 -3.4788 2.5187
-0.4439 -3.4781 2.5163
-0.6950 -3.4823 2.5335
-0.4025 -3.4775 2.5141
-0.2382 -3.4752 2.5071
-0.3613 -3.4769 2.5121
-0.3202 -3.4763 2.5102
-0.1973 -3.4746 2.5058
-0.2791 -3.4757 2.5086
-0.1564 -3.4741 2.5047
-0.0342 -3.4726 2.5025
-0.1157 -3.4736 2.5038
0.0065 -3.4722 2.5021
0.0472 -3.4717 2.5019
-0.0749 -3.4731 2.5031
0.0879 -3.4713 2.5019
0.1286 -3.4709 2.5020
0.1693 -3.4705 2.5024
0.3736 -3.4688 2.5067
0.2100 -3.4701 2.5029
0.4146 -3.4685 2.5081
0.2508 -3.4698 2.5036
0.4558 -3.4682 2.5097
0.4971 -3.4679 2.5115
0.2917 -3.4694 2.5044
0.5384 -3.4677 2.5135
0.3326 -3.4691 2.5055
0.5800 -3.4674 2.5156
0.6216 -3.4672 2.5180
0.7898 -3.4665 2.5293
0.6634 -3.4670 2.5205
0.8323 -3.4664 2.5326
0.7054 -3.4668 2.5232
0.7475 -3.4667 2.5261
0.8751 -3.4663 2.5361
1.1799 -4.0706 2.9922
1.0805 -4.0797 2.9893
1.2297 -4.0657 2.9937
1.2796 -4.0605 2.9953
1.1301 -4.0753 2.9908
1.3297 -4.0550 2.9968
1.4301 -4.0432 3.0000
1.3799 -4.0493 2.9984
1.4805 -4.0370 3.0016
1.6834 -4.0090 3.0083
1.7344 -4.0013 3.0101
1.5310 -4.0304 3.0033
1.7856 -3.9933 3.0119
1.5817 -4.0235 3.0049
1.8369 -3.9850 3.0137
1.6324 -4.0164 3.0066
1.8884 -3.9765 3.0155
2.2003 -3.9183 3.0267
1.9319 -3.9510 3.0047
2.2527 -3.9073 3.0285
1.9833 -3.9415 3.0063
2.0438 -3.9490 3.0211
2.3053 -3.8959 3.0302
2.0959 -3.9392 3.0231
2.3580 -3.8842 3.0320
2.4109 -3.8722 3.0339
2.1481 -3.9291 3.0250
2.4640 -3.8599 3.0357
2.5173 -3.8473 3.0376
2.5708 -3.8343 3.0396
2.6244 -3.8210 3.0415
2.6783 -3.8074 3.0435
2.7324 -3.7934 3.0456
2.7866 -3.7791 3.0476
2.8411 -3.7644 3.0498
-5.2728 -2.1033 3.1581
-5.2070 -2.1392 3.1511
-5.1409 -2.1741 3.1438
-5.0754 -2.2082 3.1366
-5.0104 -2.2417 3.1295
-4.9459 -2.2745 3.1226
-4.8820 -2.3067 3.1157
-4.8185 -2.3382 3.1089
-4.7556 -2.3690 3.1022
-4.6928 -2.3991 3.0954
-4.6295 -2.4279 3.0880
-4.5666 -2.4562 3.0807
-4.5043 -2.4838 3.0735
-4.4425 -2.5109 3.0664
-4.3811 -2.5374 3.0594
-4.3203 -2.5634 3.0525
-4.2600 -2.5887 3.0457
-4.1998 -2.6134 3.0389
-4.1391 -2.6369 3.0313
-4.0789 -2.6599 3.0239
-4.0192 -2.6823 3.0166
-3.9600 -2.7042 3.0094
-3.9012 -2.7257 3.0023
-3.8429 -2.7466 2.9953
-3.7851 -2.7671 2.9883
-3.7326 -2.7908 2.9855
-3.6828 -2.8158 2.9846
-3.6330 -2.8405 2.9837
-3.5835 -2.8647 2.9829
-3.5342 -2.8885 2.9821
-3.4849 -2.9119 2.9813
-3.4358 -2.9349 2.9805
-3.3869 -2.9576 2.9798
-3.3381 -2.9798 2.9791
-3.2895 -3.0017 2.9785
-3.2409 -3.0232 2.9778
-3.1926 -3.0443 2.9772
-3.1443 -3.0650 2.9766
-3.0962 -3.0854 2.9761
-3.0482 -3.1054 2.9755
-3.0003 -3.1251 2.9750
-2.9526 -3.1444 2.9745
-2.9049 -3.1633 2.9741
-2.8574 -3.1819 2.9736
-2.8100 -3.2002 2.9732
-2.7627 -3.2181 2.9728
-2.7155 -3.2357 2.9725
-2.6684 -3.2530 2.9722
-2.6215 -3.2699 2.9718
-2.5746 -3.2866 2.9716
-2.5278 -3.3029 2.9713
-2.4811 -3.3188 2.9710
-2.4345 -3.3345 2.9708
-2.3880 -3.3498 2.9706
-2.3416 -3.3649 2.9705
-2.2952 -3.3796 2.9703
-2.2490 -3.3940 2.9702
-2.2028 -3.4081 2.9701
-2.1567 -3.4220 2.9700
-2.1107 -3.4355 2.9699
-2.0648 -3.4487 2.9699
-2.0189 -3.4616 2.9699
-1.9731 -3.4743 2.9699
-1.9274 -3.4867 2.9699
-1.8817 -3.4987 2.9700
-1.8361 -3.5105 2.9700
-1.7905 -3.5220 2.9701
-1.7450 -3.5332 2.9702
-1.6996 -3.5442 2.9704
-1.6542 -3.5549 2.9705
-1.6089 -3.5653 2.9707
-1.5636 -3.5754 2.9709
-1.5184 -3.5852 2.9711
-1.4732 -3.5948 2.9714
-1.4280 -3.6042 2.9716
-1.3829 -3.6132 2.9719
-1.3379 -3.6220 2.9722
-1.2928 -3.6305 2.9725
-1.2478 -3.6388 2.9729
-1.2028 -3.6468 2.9732
-1.1579 -3.6545 2.9736
-1.1130 -3.6620 2.9740
-1.0681 -3.6692 2.9744
-1.0232 -3.6762 2.9748
-0.9784 -3.6829 2.9753
-0.9336 -3.6893 2.9758
-0.8888 -3.6955 2.9763
-0.8439 -3.7015 2.9768
-0.7992 -3.7072 2.9773
-0.7544 -3.7126 2.9779
-0.7096 -3.7178 2.9785
-0.6649 -3.7228 2.9791
-0.6201 -3.7274 2.9797
-0.5754 -3.7319 2.9803
-0.5306 -3.7361 2.9810
-0.4859 -3.7400 2.9817
-0.4411 -3.7437 2.9824
-0.3963 -3.7472 2.9831
-0.3283 -3.5017 2.7860
-0.2862 -3.5011 2.7840
-0.2442 -3.5005 2.7823
-0.2022 -3.4999 2.7807
-0.1604 -3.4994 2.7794
-0.1186 -3.4988 2.7783
-0.0768 -3.4983 2.7775
-0.0351 -3.4978 2.7768
0.0067 -3.4974 2.7763
0.0484 -3.4969 2.7761
0.0901 -3.4965 2.7761
0.1318 -3.4961 2.7763
0.1735 -3.4957 2.7767
0.2153 -3.4953 2.7774
0.2571 -3.4949 2.7782
0.2990 -3.4946 2.7793
0.3410 -3.4943 2.7806
0.3830 -3.4940 2.7821
0.5947 -3.4928 2.7930
0.4251 -3.4937 2.7839
0.6375 -3.4926 2.7959
0.4673 -3.4935 2.7858
0.6804 -3.4925 2.7990
0.7768 -3.7498 3.0089
0.5097 -3.4932 2.7880
0.8225 -3.7465 3.0102
0.5521 -3.4930 2.7904
0.8683 -3.7430 3.0115
0.9142 -3.7392 3.0128
1.0985 -3.7213 3.0184
0.9602 -3.7351 3.0142
1.1448 -3.7162 3.0198
1.0062 -3.7307 3.0156
1.1911 -3.7108 3.0213
1.0523 -3.7262 3.0169
1.2375 -3.7051 3.0227
1.3307 -3.6930 3.0258
1.3774 -3.6865 3.0273
1.2841 -3.6992 3.0243
1.4242 -3.6797 3.0289
1.4711 -3.6727 3.0305
1.5652 -3.6578 3.0338
1.5181 -3.6654 3.0322
1.6124 -3.6499 3.0355
1.8024 -3.6155 3.0425
1.6598 -3.6418 3.0372
1.8502 -3.6062 3.0443
1.7072 -3.6333 3.0389
1.8904 -3.5820 3.0338
1.7547 -3.6246 3.0407
1.9382 -3.5721 3.0356
1.9862 -3.5620 3.0375
2.0425 -3.5659 3.0518
2.0910 -3.5551 3.0537
2.1395 -3.5440 3.0557
2.1882 -3.5325 3.0577
2.2370 -3.5207 3.0597
2.2860 -3.5087 3.0617
2.3351 -3.4963 3.0638
2.3844 -3.4835 3.0659
2.4338 -3.4705 3.0681
2.4834 -3.4571 3.0703
2.5331 -3.4433 3.0725
2.5830 -3.4293 3.0747
2.6331 -3.4149 3.0770
-4.8085 -1.8322 3.1709
-4.7507 -1.8664 3.1640
-4.6933 -1.9000 3.1573
-4.6363 -1.9330 3.1506
-4.5796 -1.9653 3.1440
-4.5233 -1.9970 3.1376
-4.4674 -2.0281 3.1312
-4.4115 -2.0585 3.1247
-4.3550 -2.0878 3.1176
-4.2990 -2.1166 3.1106
-4.2433 -2.1448 3.1037
-4.1880 -2.1724 3.0969
-4.1331 -2.1995 3.0902
-4.0785 -2.2260 3.0836
-4.0243 -2.2520 3.0770
-3.9705 -2.2775 3.0706
-3.9160 -2.3019 3.0635
-3.8617 -2.3257 3.0563
-3.8079 -2.3490 3.0493
-3.7544 -2.3718 3.0424
-3.7012 -2.3941 3.0355
-3.6485 -2.4159 3.0288
-3.5960 -2.4373 3.0221
-3.5448 -2.4588 3.0162
-3.4994 -2.4837 3.0152
-3.4541 -2.5083 3.0143
-3.4090 -2.5325 3.0133
-3.3639 -2.5563 3.0124
-3.3190 -2.5798 3.0115
-3.2741 -2.6028 3.0107
-3.2294 -2.6255 3.0099
-3.1847 -2.6477 3.0091
-3.1402 -2.6696 3.0083
-3.0957 -2.6912 3.0076
-3.0514 -2.7124 3.0069
-3.0071 -2.7332 3.0062
-2.9629 -2.7537 3.0055
-2.9188 -2.7738 3.0049
-2.8748 -2.7936 3.0043
-2.8308 -2.8130 3.0037
-2.7870 -2.8321 3.0032
-2.7432 -2.8509 3.0027
-2.6995 -2.8693 3.0021
-2.6559 -2.8874 3.0017
-2.6124 -2.9052 3.0012
-2.5689 -2.9226 3.0008
-2.5255 -2.9397 3.0004
-2.4822 -2.9565 3.0000
-2.4389 -2.9730 2.9996
-2.3958 -2.9892 2.9993
-2.3526 -3.0050 2.9990
-2.3096 -3.0206 2.9987
-2.2666 -3.0359 2.9984
-2.2237 -3.0508 2.9982
-2.1808 -3.0655 2.9980
-2.1380 -3.0798 2.9978
-2.0952 -3.0939 2.9976
-2.0525 -3.1076 2.9975
-2.0098 -3.1211 2.9973
-1.9672 -3.1343 2.9972
-1.9247 -3.1472 2.9971
-1.8822 -3.1598 2.9971
-1.8397 -3.1721 2.9970
-1.7973 -3.1842 2.9970
-1.7549 -3.1959 2.9970
-1.7126 -3.2074 2.9970
-1.6703 -3.2187 2.9971
-1.6280 -3.2296 2.9971
-1.5858 -3.2403 2.9972
-1.5436 -3.2507 2.9973
-1.5015 -3.2608 2.9974
-1.4594 -3.2707 2.9976
-1.4173 -3.2803 2.9978
-1.3752 -3.2896 2.9979
-1.3332 -3.2987 2.9982
-1.2912 -3.3075 2.9984
-1.2492 -3.3160 2.9986
-1.2072 -3.3243 2.9989
-1.1653 -3.3323 2.9992
-1.1234 -3.3401 2.9995
-1.0815 -3.3476 2.9998
-1.0396 -3.3549 3.0002
-0.9977 -3.3619 3.0005
-0.9559 -3.3686 3.0009
-0.9140 -3.3751 3.0013
-0.8722 -3.3814 3.0018
-0.8304 -3.3874 3.0022
-0.7886 -3.3931 3.0027
-0.7467 -3.3986 3.0032
-0.7049 -3.4039 3.0037
-0.6631 -3.4089 3.0042
