ply
format ascii 1.0
element vertex 1916
property float32 x
property float32 y
property float32 z
end_header
8.1438 -2.3212 -0.8559
8.1441 -2.2375 -0.8770
8.1443 -2.1542 -0.8981
8.1445 -2.0714 -0.9192
8.1448 -1.9889 -0.9405
8.1450 -1.9067 -0.9617
8.1452 -1.8250 -0.9831
8.1455 -1.7435 -1.0045
8.1457 -1.6624 -1.0260
8.1459 -1.5816 -1.0475
8.1462 -1.5010 -1.0691
8.1464 -1.4208 -1.0908
8.1466 -1.3407 -1.1126
8.1468 -1.2609 -1.1345
8.1471 -1.1813 -1.1564
8.1473 -1.1019 -1.1785
8.1475 -1.0227 -1.2007
8.1478 -0.9436 -1.2229
8.1480 -0.8647 -1.2453
8.1482 -0.7859 -1.2678
8.1484 -0.7072 -1.2904
8.1486 -0.6286 -1.3132
8.1489 -0.5501 -1.3360
8.1491 -0.4717 -1.3590
8.1628 -0.3939 -1.3844
8.1630 -0.3155 -1.4077
8.1633 -0.2370 -1.4312
8.1636 -0.1585 -1.4548
8.1639 -0.0801 -1.4786
8.1642 -0.0016 -1.5025
8.1645 0.0770 -1.5266
8.1648 0.1556 -1.5509
8.1651 0.2343 -1.5753
8.1654 0.3131 -1.6000
8.1657 0.3920 -1.6248
8.1660 0.4710 -1.6498
8.1663 0.5502 -1.6750
8.1666 0.6295 -1.7004
8.1669 0.7090 -1.7260
8.1672 0.7887 -1.7519
8.1675 0.8686 -1.7779
8.1678 0.9488 -1.8042
8.1681 1.0291 -1.8307
8.1687 1.1907 -1.8845
8.1684 1.1098 -1.8575
8.1691 1.2719 -1.9118
8.1700 1.5176 -1.9952
8.1694 1.3535 -1.9393
8.1703 1.6002 -2.0235
8.1697 1.4353 -1.9671
8.1706 1.6831 -2.0522
8.1713 1.8504 -2.1104
8.1709 1.7665 -2.0811
8.1716 1.9347 -2.1400
8.1726 2.1905 -2.2308
8.1719 2.0194 -2.1699
8.1729 2.2768 -2.2617
8.1722 2.1047 -2.2002
8.1732 2.3637 -2.2930
8.1739 2.5392 -2.3568
8.1736 2.4511 -2.3247
8.1808 2.6300 -2.3912
8.1814 2.9003 -2.4911
8.1817 2.9918 -2.5252
8.1810 2.7194 -2.4240
8.1819 3.0841 -2.5598
8.1812 2.8095 -2.4573
8.1821 3.1773 -2.5949
8.1823 3.2712 -2.6305
8.1833 3.6558 -2.7779
8.1826 3.3660 -2.6666
8.1835 3.7544 -2.8161
8.1828 3.4617 -2.7032
8.1838 3.8540 -2.8549
8.1831 3.5583 -2.7403
8.1840 3.9546 -2.8943
8.1843 4.0564 -2.9343
8.1853 4.4752 -3.1007
8.1845 4.1593 -2.9749
8.1856 4.5831 -3.1441
8.1848 4.2633 -3.0162
8.1859 4.6924 -3.1881
8.1851 4.3686 -3.0581
8.1862 4.8030 -3.2330
8.1864 4.9152 -3.2786
8.1876 5.3795 -3.4694
8.1867 5.0288 -3.3250
8.1879 5.4998 -3.5194
8.1870 5.1441 -3.3723
8.1873 5.2609 -3.4204
8.1859 5.6203 -3.5692
8.1699 5.8583 -3.6665
8.1779 5.7385 -3.6174
8.1618 5.9798 -3.7165
8.1237 6.3450 -3.8660
8.1525 6.1023 -3.7669
8.1090 6.4688 -3.9168
8.1382 6.2228 -3.8160
8.0941 6.5944 -3.9686
8.0835 6.8680 -4.0850
8.0844 6.7263 -4.0239
8.1373 7.5154 -4.3744
8.0826 7.0123 -4.1475
8.2067 7.7390 -4.4818
8.0818 7.1594 -4.2114
8.2788 7.9712 -4.5935
8.0808 7.3094 -4.2767
8.7335 8.5860 -4.9241
8.1446 -2.2084 -0.4730
8.1448 -2.1250 -0.4950
8.1450 -2.0419 -0.5170
8.1453 -1.9593 -0.5389
8.1455 -1.8770 -0.5609
8.1457 -1.7951 -0.5830
8.1460 -1.7135 -0.6050
8.1462 -1.6323 -0.6271
8.1464 -1.5513 -0.6491
8.1467 -1.4707 -0.6713
8.1469 -1.3903 -0.6934
8.1471 -1.3101 -0.7156
8.1474 -1.2302 -0.7379
8.1476 -1.1505 -0.7602
8.1478 -1.0710 -0.7825
8.1480 -0.9917 -0.8049
8.1482 -0.9125 -0.8274
8.1485 -0.8335 -0.8499
8.1487 -0.7547 -0.8725
8.1489 -0.6759 -0.8952
8.1491 -0.5973 -0.9180
8.1494 -0.5187 -0.9408
8.1496 -0.4402 -0.9638
8.1623 -0.3624 -0.9883
8.1626 -0.2839 -1.0115
8.1629 -0.2054 -1.0348
8.1632 -0.1269 -1.0582
8.1635 -0.0484 -1.0817
8.1638 0.0301 -1.1053
8.1640 0.1087 -1.1290
8.1644 0.1873 -1.1529
8.1646 0.2660 -1.1769
8.1649 0.3448 -1.2010
8.1652 0.4237 -1.2253
8.1655 0.5027 -1.2498
8.1658 0.5818 -1.2743
8.1661 0.6611 -1.2991
8.1664 0.7406 -1.3240
8.1667 0.8203 -1.3491
8.1670 0.9001 -1.3743
8.1673 0.9802 -1.3998
8.1676 1.0605 -1.4254
8.1680 1.1411 -1.4512
8.1683 1.2220 -1.4773
8.1686 1.3031 -1.5035
8.1689 1.3846 -1.5300
8.1692 1.4664 -1.5566
8.1695 1.5485 -1.5835
8.1698 1.6310 -1.6106
8.1701 1.7139 -1.6380
8.1704 1.7972 -1.6656
8.1708 1.8809 -1.6935
8.1711 1.9651 -1.7217
8.1714 2.0497 -1.7501
8.1717 2.1348 -1.7788
8.1720 2.2204 -1.8078
8.1724 2.3066 -1.8370
8.1727 2.3933 -1.8666
8.1730 2.4806 -1.8965
8.1734 2.5685 -1.9268
8.1801 2.6591 -1.9588
8.1803 2.7483 -1.9898
8.1805 2.8381 -2.0210
8.1807 2.9287 -2.0526
8.1810 3.0200 -2.0846
8.1812 3.1121 -2.1170
8.1814 3.2049 -2.1498
8.1816 3.2986 -2.1830
8.1819 3.3931 -2.2166
8.1828 3.7802 -2.3556
8.1830 3.8794 -2.3915
8.1821 3.4885 -2.2507
8.1833 3.9797 -2.4280
8.1835 4.0810 -2.4650
8.1823 3.5848 -2.2852
8.1838 4.1835 -2.5025
8.1825 3.6820 -2.3202
8.1840 4.2871 -2.5405
8.1843 4.3920 -2.5792
8.1848 4.6055 -2.6583
8.1845 4.4981 -2.6184
8.1851 4.7142 -2.6988
8.1859 5.0489 -2.8242
8.1862 5.1635 -2.8674
8.1853 4.8243 -2.7399
8.1864 5.2797 -2.9114
8.1856 4.9359 -2.7817
8.1867 5.3975 -2.9561
8.1870 5.5171 -3.0016
8.1608 5.9937 -3.1815
8.1510 6.1149 -3.2273
8.1848 5.6367 -3.0470
8.1368 6.2345 -3.2721
8.1769 5.7541 -3.0911
8.1225 6.3557 -3.3177
8.1079 6.4785 -3.3641
8.1689 5.8731 -3.1360
8.0931 6.6031 -3.4112
8.0826 7.0181 -3.5733
8.0843 6.7345 -3.4618
8.0817 7.1639 -3.6308
8.0835 6.8750 -3.5170
8.0808 7.3125 -3.6895
8.2067 7.7390 -3.8713
8.1380 7.5176 -3.7766
8.2781 7.9689 -3.9699
8.7208 8.5700 -4.2522
8.1453 -2.0969 -0.0946
8.1455 -2.0137 -0.1175
8.1458 -1.9309 -0.1403
8.1460 -1.8485 -0.1631
8.1462 -1.7665 -0.1859
8.1465 -1.6848 -0.2086
8.1467 -1.6034 -0.2314
8.1469 -1.5223 -0.2541
8.1471 -1.4415 -0.2768
8.1474 -1.3610 -0.2994
8.1476 -1.2808 -0.3221
8.1478 -1.2008 -0.3448
8.1481 -1.1210 -0.3675
8.1483 -1.0414 -0.3902
8.1485 -0.9620 -0.4130
8.1487 -0.8828 -0.4357
8.1490 -0.8037 -0.4585
8.1492 -0.7248 -0.4813
8.1494 -0.6460 -0.5041
8.1496 -0.5673 -0.5270
8.1498 -0.4887 -0.5499
8.1501 -0.4102 -0.5729
8.1618 -0.3322 -0.5967
8.1621 -0.2536 -0.6198
8.1624 -0.1751 -0.6430
8.1627 -0.0966 -0.6663
8.1630 -0.0181 -0.6896
8.1633 0.0604 -0.7130
8.1636 0.1390 -0.7364
8.1639 0.2176 -0.7600
8.1642 0.2963 -0.7836
8.1645 0.3750 -0.8074
8.1648 0.4539 -0.8312
8.1651 0.5329 -0.8552
8.1654 0.6120 -0.8792
8.1657 0.6913 -0.9034
8.1660 0.7707 -0.9277
8.1663 0.8503 -0.9521
8.1666 0.9301 -0.9767
8.1669 1.0102 -1.0014
8.1672 1.0904 -1.0262
8.1675 1.1710 -1.0512
8.1684 1.4142 -1.1271
8.1678 1.2517 -1.0763
8.1687 1.4959 -1.1527
8.1681 1.3328 -1.1016
8.1690 1.5779 -1.1785
8.1696 1.7431 -1.2307
8.1699 1.8263 -1.2571
8.1693 1.6603 -1.2045
8.1703 1.9099 -1.2837
8.1709 2.0784 -1.3376
8.1706 1.9939 -1.3105
8.1722 2.4213 -1.4480
8.1712 2.1633 -1.3648
8.1725 2.5085 -1.4763
8.1715 2.2488 -1.3923
8.1792 2.5981 -1.5059
8.1794 2.6865 -1.5347
8.1719 2.3348 -1.4200
8.1796 2.7755 -1.5638
8.1798 2.8651 -1.5932
8.1805 3.1383 -1.6831
8.1800 2.9555 -1.6228
8.1807 3.2309 -1.7137
8.1802 3.0465 -1.6528
8.1813 3.5135 -1.8077
8.1809 3.3243 -1.7447
8.1816 3.6095 -1.8398
8.1811 3.4185 -1.7760
8.1818 3.7064 -1.8723
8.1823 3.9031 -1.9384
8.1820 3.8042 -1.9051
8.1825 4.0029 -1.9721
8.1833 4.3091 -2.0759
8.1828 4.1039 -2.0062
8.1835 4.4135 -2.1114
8.1830 4.2059 -2.0408
8.1838 4.5191 -2.1475
8.1843 4.7341 -2.2211
8.1840 4.6259 -2.1840
8.1845 4.8437 -2.2588
8.1853 5.1810 -2.3753
8.1848 4.9546 -2.2970
8.1851 5.0671 -2.3358
8.1856 5.2965 -2.4153
8.1859 5.4137 -2.4560
8.1838 5.6512 -2.5386
8.1862 5.5325 -2.4974
8.1760 5.7678 -2.5789
8.1498 6.1257 -2.7027
8.1681 5.8860 -2.6197
8.1357 6.2443 -2.7436
8.1600 6.0058 -2.6612
8.1214 6.3646 -2.7851
8.0923 6.6099 -2.8701
8.1069 6.4864 -2.8273
8.0843 6.7409 -2.9161
8.0817 7.1664 -3.0677
8.0834 6.8802 -2.9656
8.0808 7.3136 -3.1203
8.0826 7.0220 -3.0161
8.1379 7.5172 -3.1968
8.2765 7.9637 -3.3658
8.2059 7.7363 -3.2797
8.7013 8.5451 -3.6008
9.1745 9.1957 -3.8637
9.1027 9.3122 -3.9017
8.1409 10.9297 -4.4418
8.1460 -1.9863 0.2810
8.1462 -1.9033 0.2572
8.1465 -1.8207 0.2335
8.1467 -1.7386 0.2099
8.1469 -1.6567 0.1864
8.1472 -1.5752 0.1629
8.1474 -1.4940 0.1395
8.1476 -1.4132 0.1162
8.1479 -1.3325 0.0929
8.1481 -1.2522 0.0696
8.1483 -1.1721 0.0464
8.1485 -1.0922 0.0232
8.1488 -1.0126 0.0001
8.1490 -0.9331 -0.0230
8.1492 -0.8538 -0.0461
8.1494 -0.7747 -0.0692
8.1497 -0.6957 -0.0923
8.1499 -0.6168 -0.1154
8.1501 -0.5381 -0.1384
8.1503 -0.4594 -0.1615
8.1610 -0.3814 -0.1848
8.1613 -0.3028 -0.2079
8.1616 -0.2242 -0.2310
8.1619 -0.1457 -0.2542
8.1622 -0.0672 -0.2773
8.1625 0.0113 -0.3006
8.1628 0.0898 -0.3238
8.1631 0.1684 -0.3471
8.1634 0.2470 -0.3704
8.1637 0.3257 -0.3938
8.1640 0.4044 -0.4172
8.1643 0.4833 -0.4407
8.1646 0.5622 -0.4642
8.1649 0.6413 -0.4878
8.1652 0.7205 -0.5115
8.1655 0.7999 -0.5353
8.1658 0.8795 -0.5591
8.1661 0.9592 -0.5831
8.1664 1.0392 -0.6071
8.1667 1.1194 -0.6312
8.1670 1.1998 -0.6554
8.1673 1.2805 -0.6798
8.1676 1.3615 -0.7042
8.1679 1.4428 -0.7288
8.1682 1.5244 -0.7535
8.1685 1.6063 -0.7783
8.1688 1.6886 -0.8033
8.1691 1.7713 -0.8284
8.1694 1.8543 -0.8537
8.1698 1.9378 -0.8791
8.1701 2.0217 -0.9047
8.1704 2.1060 -0.9305
8.1707 2.1908 -0.9564
8.1710 2.2761 -0.9825
8.1714 2.3619 -1.0088
8.1717 2.4483 -1.0353
8.1720 2.5352 -1.0620
8.1785 2.6247 -1.0897
8.1787 2.7128 -1.1169
8.1789 2.8016 -1.1442
8.1791 2.8910 -1.1718
8.1793 2.9811 -1.1996
8.1795 3.0719 -1.2277
8.1798 3.1634 -1.2561
8.1800 3.2557 -1.2847
8.1802 3.3488 -1.3136
8.1804 3.4427 -1.3427
8.1806 3.5374 -1.3722
8.1809 3.6331 -1.4020
8.1811 3.7296 -1.4321
8.1813 3.8271 -1.4625
8.1815 3.9255 -1.4933
8.1818 4.0250 -1.5244
8.1820 4.1255 -1.5558
8.1822 4.2271 -1.5877
8.1825 4.3298 -1.6199
8.1827 4.4337 -1.6526
8.1830 4.5388 -1.6856
8.1832 4.6452 -1.7191
8.1835 4.7528 -1.7530
8.1837 4.8618 -1.7874
8.1840 4.9722 -1.8222
8.1843 5.0840 -1.8576
8.1845 5.1973 -1.8934
8.1848 5.3121 -1.9298
8.1851 5.4285 -1.9667
8.1853 5.5466 -2.0042
8.1829 5.6645 -2.0416
8.1751 5.7803 -2.0782
8.1673 5.8977 -2.1153
8.1593 6.0167 -2.1529
8.1486 6.1353 -2.1904
8.1346 6.2530 -2.2276
8.1205 6.3723 -2.2653
8.1061 6.4932 -2.3036
8.0916 6.6157 -2.3424
8.0842 6.7460 -2.3839
8.0834 6.8841 -2.4282
8.0826 7.0247 -2.4732
8.0817 7.1678 -2.5192
8.0808 7.3136 -2.5660
8.1372 7.5151 -2.6324
8.2045 7.7320 -2.7039
8.2744 7.9570 -2.7783
8.6778 8.5152 -2.9687
14.0281 22.8947 -7.7745
13.9261 23.2639 -7.8939
13.8040 23.6101 -8.0054
13.5954 23.8151 -8.0692
13.0358 23.3939 -7.9209
12.8699 23.6694 -8.0088
8.1467 -1.8759 0.6554
8.1470 -1.7932 0.6308
8.1472 -1.7109 0.6062
8.1474 -1.6290 0.5818
8.1477 -1.5473 0.5575
8.1479 -1.4660 0.5334
8.1481 -1.3851 0.5093
8.1483 -1.3043 0.4853
8.1486 -1.2239 0.4614
8.1488 -1.1437 0.4375
8.1490 -1.0638 0.4138
8.1493 -0.9840 0.3901
8.1495 -0.9045 0.3665
8.1497 -0.8251 0.3430
8.1499 -0.7460 0.3195
8.1501 -0.6669 0.2961
8.1504 -0.5880 0.2728
8.1506 -0.5092 0.2494
8.1508 -0.4305 0.2261
8.1606 -0.3524 0.2031
8.1609 -0.2737 0.1799
8.1612 -0.1952 0.1567
8.1615 -0.1166 0.1335
8.1618 -0.0381 0.1103
8.1621 0.0404 0.0871
8.1623 0.1189 0.0640
8.1626 0.1974 0.0408
8.1629 0.2760 0.0176
8.1632 0.3547 -0.0055
8.1635 0.4334 -0.0287
8.1638 0.5122 -0.0519
8.1641 0.5911 -0.0752
8.1644 0.6702 -0.0984
8.1647 0.7493 -0.1217
8.1650 0.8287 -0.1450
8.1653 0.9082 -0.1684
8.1656 0.9879 -0.1918
8.1659 1.0678 -0.2152
8.1662 1.1479 -0.2387
8.1665 1.2283 -0.2623
8.1668 1.3089 -0.2859
8.1671 1.3898 -0.3096
8.1674 1.4710 -0.3334
8.1677 1.5524 -0.3572
8.1680 1.6343 -0.3812
8.1683 1.7164 -0.4052
8.1686 1.7990 -0.4293
8.1689 1.8819 -0.4536
8.1693 1.9652 -0.4779
8.1696 2.0489 -0.5024
8.1699 2.1331 -0.5269
8.1702 2.2178 -0.5516
8.1705 2.3029 -0.5765
8.1709 2.3885 -0.6014
8.1712 2.4747 -0.6265
8.1715 2.5614 -0.6518
8.1778 2.6506 -0.6777
8.1780 2.7386 -0.7033
8.1782 2.8271 -0.7291
8.1784 2.9163 -0.7550
8.1786 3.0061 -0.7811
8.1789 3.0966 -0.8074
8.1791 3.1879 -0.8339
8.1793 3.2799 -0.8606
8.1795 3.3727 -0.8876
8.1797 3.4663 -0.9147
8.1799 3.5607 -0.9421
8.1801 3.6560 -0.9697
8.1804 3.7522 -0.9976
8.1806 3.8493 -1.0257
8.1808 3.9473 -1.0541
8.1810 4.0464 -1.0828
8.1813 4.1465 -1.1117
8.1815 4.2477 -1.1410
8.1817 4.3499 -1.1706
8.1820 4.4534 -1.2005
8.1822 4.5580 -1.2307
8.1825 4.6638 -1.2612
8.1827 4.7709 -1.2921
8.1830 4.8793 -1.3234
8.1832 4.9891 -1.3551
8.1835 5.1002 -1.3871
8.1837 5.2129 -1.4196
8.1840 5.3270 -1.4525
8.1843 5.4428 -1.4858
8.1845 5.5601 -1.5196
8.1820 5.6772 -1.5533
8.1743 5.7923 -1.5865
8.1665 5.9088 -1.6201
8.1586 6.0269 -1.6542
8.1475 6.1443 -1.6880
8.1337 6.2612 -1.7217
8.1196 6.3795 -1.7558
8.1054 6.4994 -1.7904
8.0910 6.6209 -1.8254
8.0842 6.7506 -1.8627
8.0834 6.8875 -1.9020
8.0826 7.0268 -1.9419
8.0817 7.1686 -1.9826
8.0808 7.3131 -2.0240
8.1364 7.5124 -2.0806
8.2030 7.7270 -2.1415
8.2721 7.9496 -2.2046
8.6529 8.4837 -2.3542
14.0612 22.7888 -6.3921
13.7929 22.8728 -6.4176
13.8737 23.5469 -6.6087
13.6472 23.7130 -6.6573
13.2050 23.4969 -6.5985
13.0619 23.8093 -6.6880
12.5987 23.5329 -6.6121
8.1475 -1.7655 1.0303
8.1477 -1.6830 1.0048
8.1479 -1.6009 0.9794
8.1482 -1.5192 0.9542
8.1484 -1.4378 0.9292
8.1486 -1.3567 0.9042
8.1488 -1.2759 0.8795
8.1491 -1.1954 0.8548
8.1493 -1.1151 0.8303
8.1495 -1.0351 0.8059
8.1497 -0.9553 0.7817
8.1500 -0.8757 0.7575
8.1502 -0.7963 0.7335
8.1504 -0.7170 0.7095
8.1506 -0.6380 0.6857
8.1509 -0.5590 0.6619
8.1511 -0.4802 0.6383
8.1513 -0.4015 0.6147
8.1601 -0.3232 0.5918
8.1604 -0.2446 0.5683
8.1607 -0.1660 0.5449
8.1610 -0.0875 0.5216
8.1613 -0.0089 0.4983
8.1616 0.0696 0.4751
8.1619 0.1481 0.4520
8.1622 0.2266 0.4288
8.1625 0.3052 0.4057
8.1628 0.3838 0.3827
8.1631 0.4625 0.3597
8.1634 0.5412 0.3367
8.1637 0.6201 0.3137
8.1639 0.6991 0.2907
8.1642 0.7782 0.2678
8.1645 0.8575 0.2448
8.1648 0.9370 0.2219
8.1651 1.0166 0.1989
8.1654 1.0964 0.1760
8.1657 1.1764 0.1530
8.1660 1.2567 0.1300
8.1663 1.3372 0.1070
8.1666 1.4180 0.0840
8.1669 1.4991 0.0610
8.1672 1.5805 0.0379
8.1675 1.6622 0.0147
8.1678 1.7442 -0.0085
8.1682 1.8266 -0.0317
8.1685 1.9094 -0.0550
8.1688 1.9926 -0.0783
8.1691 2.0762 -0.1017
8.1694 2.1602 -0.1252
8.1697 2.2447 -0.1488
8.1700 2.3296 -0.1724
8.1703 2.4151 -0.1962
8.1707 2.5011 -0.2200
8.1770 2.5895 -0.2441
8.1772 2.6766 -0.2681
8.1774 2.7642 -0.2923
8.1776 2.8525 -0.3165
8.1778 2.9415 -0.3409
8.1780 3.0311 -0.3654
8.1782 3.1213 -0.3900
8.1784 3.2123 -0.4148
8.1786 3.3040 -0.4398
8.1788 3.3965 -0.4648
8.1790 3.4898 -0.4901
8.1792 3.5839 -0.5155
8.1794 3.6788 -0.5411
8.1797 3.7747 -0.5669
8.1799 3.8714 -0.5928
8.1801 3.9691 -0.6190
8.1803 4.0677 -0.6453
8.1805 4.1674 -0.6719
8.1808 4.2681 -0.6987
8.1810 4.3699 -0.7258
8.1812 4.4729 -0.7531
8.1815 4.5770 -0.7806
8.1817 4.6823 -0.8084
8.1819 4.7888 -0.8364
8.1822 4.8967 -0.8648
8.1824 5.0059 -0.8934
8.1827 5.1164 -0.9224
8.1829 5.2284 -0.9516
8.1832 5.3419 -0.9812
8.1835 5.4569 -1.0112
8.1837 5.5735 -1.0414
8.1812 5.6898 -1.0717
8.1735 5.8041 -1.1017
8.1658 5.9199 -1.1320
8.1579 6.0371 -1.1626
8.1465 6.1533 -1.1930
8.1327 6.2693 -1.2234
8.1188 6.3868 -1.2542
8.1047 6.5057 -1.2853
8.0904 6.6262 -1.3167
8.0842 6.7552 -1.3499
8.0834 6.8910 -1.3845
8.0825 7.0291 -1.4196
8.0817 7.1696 -1.4552
8.0808 7.3128 -1.4915
8.1356 7.5099 -1.5389
8.2016 7.7224 -1.5896
8.2699 7.9426 -1.6420
8.6294 8.4538 -1.7551
14.9810 22.5658 -4.9906
14.1897 22.3365 -4.9604
14.1386 22.7593 -5.0643
13.7703 22.6731 -5.0548
13.9987 23.5819 -5.2672
13.7188 23.6508 -5.2922
13.3969 23.6428 -5.2997
13.1082 23.6881 -5.3189
12.9213 23.9179 -5.3793
12.6507 23.9944 -5.4051
8.1482 -1.6544 1.4073
8.1484 -1.5722 1.3809
8.1486 -1.4903 1.3547
8.1489 -1.4088 1.3287
8.1491 -1.3277 1.3029
8.1493 -1.2468 1.2772
8.1496 -1.1662 1.2518
8.1498 -1.0858 1.2265
8.1500 -1.0057 1.2014
8.1502 -0.9259 1.1764
8.1505 -0.8462 1.1516
8.1507 -0.7667 1.1270
8.1509 -0.6875 1.1025
8.1511 -0.6083 1.0781
8.1513 -0.5294 1.0539
8.1516 -0.4505 1.0298
8.1593 -0.3721 1.0068
8.1596 -0.2934 0.9829
8.1599 -0.2148 0.9591
8.1602 -0.1362 0.9355
8.1605 -0.0577 0.9120
8.1608 0.0208 0.8885
8.1611 0.0993 0.8652
8.1614 0.1778 0.8419
8.1617 0.2563 0.8188
8.1620 0.3349 0.7957
8.1623 0.4134 0.7727
8.1626 0.4921 0.7497
8.1629 0.5708 0.7269
8.1632 0.6497 0.7040
8.1635 0.7286 0.6813
8.1638 0.8077 0.6586
8.1641 0.8869 0.6359
8.1644 0.9663 0.6133
8.1647 1.0458 0.5908
8.1650 1.1255 0.5682
8.1653 1.2055 0.5457
8.1655 1.2857 0.5232
8.1658 1.3661 0.5008
8.1662 1.4468 0.4784
8.1665 1.5278 0.4559
8.1668 1.6090 0.4335
8.1671 1.6906 0.4111
8.1674 1.7725 0.3887
8.1677 1.8548 0.3663
8.1680 1.9374 0.3438
8.1683 2.0205 0.3214
8.1686 2.1039 0.2989
8.1689 2.1877 0.2765
8.1692 2.2721 0.2540
8.1695 2.3568 0.2314
8.1698 2.4421 0.2088
8.1702 2.5279 0.1862
8.1763 2.6160 0.1637
8.1765 2.7029 0.1409
8.1767 2.7904 0.1181
8.1769 2.8785 0.0953
8.1771 2.9671 0.0723
8.1773 3.0565 0.0493
8.1775 3.1465 0.0263
8.1777 3.2372 0.0031
8.1779 3.3286 -0.0202
8.1781 3.4208 -0.0435
8.1783 3.5138 -0.0669
8.1785 3.6075 -0.0905
8.1787 3.7021 -0.1142
8.1789 3.7976 -0.1379
8.1792 3.8940 -0.1619
8.1794 3.9913 -0.1859
8.1796 4.0895 -0.2101
8.1798 4.1888 -0.2344
8.1800 4.2891 -0.2589
8.1803 4.3904 -0.2835
8.1805 4.4929 -0.3083
8.1807 4.5965 -0.3333
8.1810 4.7013 -0.3585
8.1812 4.8073 -0.3838
8.1814 4.9146 -0.4094
8.1817 5.0232 -0.4352
8.1819 5.1331 -0.4612
8.1822 5.2445 -0.4874
8.1824 5.3573 -0.5138
8.1827 5.4716 -0.5405
8.1829 5.5875 -0.5675
8.1803 5.7030 -0.5945
8.1727 5.8165 -0.6214
8.1650 5.9315 -0.6485
8.1572 6.0479 -0.6759
8.1453 6.1629 -0.7031
8.1317 6.2780 -0.7305
8.1179 6.3945 -0.7581
8.1039 6.5126 -0.7859
8.0897 6.6321 -0.8139
8.0842 6.7606 -0.8432
8.0833 6.8952 -0.8733
8.0825 7.0321 -0.9038
8.0817 7.1714 -0.9347
8.0808 7.3132 -0.9660
8.1352 7.5086 -1.0046
8.2005 7.7190 -1.0456
8.2682 7.9370 -1.0879
8.6095 8.4284 -1.1684
22.2535 23.5675 -3.4039
15.0276 22.5099 -3.6671
14.8416 22.7171 -3.7199
14.6545 22.9256 -3.7727
13.7575 22.0018 -3.6381
13.8956 22.7230 -3.7748
13.7977 23.0765 -3.8508
13.7452 23.5180 -3.9416
13.3117 23.3069 -3.9227
13.3566 23.9371 -4.0452
13.0985 24.0357 -4.0779
12.2206 22.9679 -3.9116
12.3776 23.8347 -4.0743
8.1489 -1.5422 1.7881
8.1492 -1.4602 1.7608
8.1494 -1.3786 1.7337
8.1496 -1.2974 1.7069
8.1498 -1.2164 1.6803
8.1501 -1.1357 1.6539
8.1503 -1.0553 1.6278
8.1505 -0.9752 1.6018
8.1507 -0.8953 1.5761
8.1510 -0.8155 1.5506
8.1512 -0.7360 1.5252
8.1514 -0.6567 1.5001
8.1516 -0.5776 1.4752
8.1518 -0.4985 1.4504
8.1521 -0.4197 1.4258
8.1589 -0.3412 1.4025
8.1592 -0.2625 1.3782
8.1595 -0.1838 1.3541
8.1598 -0.1053 1.3301
8.1601 -0.0267 1.3063
8.1604 0.0517 1.2826
8.1606 0.1302 1.2590
8.1609 0.2087 1.2356
8.1612 0.2871 1.2123
8.1615 0.3657 1.1892
8.1618 0.4442 1.1661
8.1621 0.5228 1.1432
8.1624 0.6015 1.1204
8.1627 0.6803 1.0976
8.1630 0.7591 1.0750
8.1633 0.8381 1.0525
8.1636 0.9173 1.0301
8.1639 0.9966 1.0077
8.1642 1.0761 0.9854
8.1645 1.1557 0.9632
8.1648 1.2356 0.9411
8.1651 1.3157 0.9191
8.1654 1.3960 0.8971
8.1657 1.4766 0.8752
8.1660 1.5574 0.8533
8.1663 1.6386 0.8315
8.1666 1.7200 0.8097
8.1669 1.8018 0.7880
8.1672 1.8840 0.7663
8.1675 1.9664 0.7447
8.1678 2.0493 0.7231
8.1681 2.1326 0.7015
8.1684 2.2163 0.6799
8.1687 2.3004 0.6584
8.1690 2.3850 0.6368
8.1693 2.4701 0.6153
8.1697 2.5557 0.5938
8.1756 2.6436 0.5727
8.1758 2.7303 0.5512
8.1760 2.8175 0.5296
8.1762 2.9053 0.5081
8.1764 2.9938 0.4865
8.1766 3.0829 0.4650
8.1768 3.1726 0.4434
8.1770 3.2630 0.4217
8.1772 3.3542 0.4001
8.1774 3.4460 0.3784
8.1776 3.5387 0.3566
8.1778 3.6321 0.3348
8.1780 3.7264 0.3130
8.1782 3.8215 0.2911
8.1785 3.9175 0.2691
8.1787 4.0144 0.2471
8.1789 4.1123 0.2250
8.1791 4.2111 0.2028
8.1793 4.3110 0.1805
8.1795 4.4119 0.1582
8.1798 4.5139 0.1357
8.1800 4.6170 0.1132
8.1802 4.7213 0.0905
8.1804 4.8268 0.0677
8.1807 4.9335 0.0448
8.1809 5.0415 0.0218
8.1811 5.1509 -0.0014
8.1814 5.2616 -0.0247
8.1816 5.3738 -0.0481
8.1819 5.4874 -0.0717
8.1868 5.6058 -0.0956
8.1794 5.7172 -0.1194
8.1718 5.8300 -0.1434
8.1642 5.9442 -0.1676
8.1564 6.0598 -0.1918
8.1441 6.1735 -0.2161
8.1305 6.2878 -0.2406
8.1168 6.4035 -0.2651
8.1029 6.5206 -0.2898
8.0888 6.6391 -0.3147
8.0841 6.7672 -0.3401
8.0833 6.9007 -0.3659
8.0825 7.0365 -0.3920
8.0817 7.1746 -0.4184
8.0808 7.3151 -0.4451
8.1355 7.5094 -0.4753
8.2001 7.7178 -0.5069
8.2671 7.9337 -0.5394
8.5955 8.4107 -0.5907
22.2703 23.5554 -1.8515
14.8703 22.6343 -2.4088
14.7337 22.9143 -2.4655
14.1354 22.4666 -2.4431
13.5028 21.9371 -2.4099
13.9684 23.2024 -2.5740
13.7491 23.3559 -2.6156
13.1720 22.8886 -2.5867
13.0622 23.2247 -2.6477
13.2666 24.1426 -2.7757
12.3791 23.0640 -2.6733
12.3890 23.6399 -2.7617
11.9942 23.4471 -2.7599
8.1497 -1.4283 2.1744
8.1499 -1.3467 2.1462
8.1501 -1.2653 2.1183
8.1503 -1.1843 2.0906
8.1506 -1.1036 2.0632
8.1508 -1.0231 2.0361
8.1510 -0.9429 2.0092
8.1512 -0.8629 1.9826
8.1515 -0.7832 1.9563
8.1517 -0.7036 1.9302
8.1519 -0.6243 1.9043
8.1521 -0.5451 1.8787
8.1524 -0.4661 1.8532
8.1581 -0.3874 1.8293
8.1584 -0.3086 1.8043
8.1587 -0.2299 1.7795
8.1590 -0.1513 1.7549
8.1593 -0.0727 1.7305
8.1596 0.0058 1.7063
8.1599 0.0843 1.6823
8.1602 0.1627 1.6585
8.1605 0.2411 1.6348
8.1608 0.3196 1.6114
8.1611 0.3980 1.5880
8.1613 0.4765 1.5649
8.1616 0.5551 1.5419
8.1619 0.6337 1.5190
8.1622 0.7124 1.4963
8.1625 0.7913 1.4737
8.1628 0.8702 1.4513
8.1631 0.9493 1.4290
8.1634 1.0285 1.4068
8.1637 1.1079 1.3848
8.1640 1.1874 1.3628
8.1643 1.2672 1.3410
8.1646 1.3472 1.3193
8.1649 1.4274 1.2977
8.1652 1.5079 1.2763
8.1655 1.5886 1.2549
8.1658 1.6697 1.2336
8.1661 1.7510 1.2124
8.1664 1.8326 1.1913
8.1667 1.9146 1.1703
8.1670 1.9970 1.1493
8.1673 2.0797 1.1285
8.1676 2.1628 1.1077
8.1679 2.2463 1.0870
8.1682 2.3303 1.0663
8.1685 2.4147 1.0457
8.1688 2.4996 1.0252
8.1692 2.5850 1.0047
8.1750 2.6727 0.9850
8.1752 2.7591 0.9646
8.1753 2.8461 0.9442
8.1755 2.9337 0.9239
8.1757 3.0219 0.9036
8.1759 3.1107 0.8834
8.1761 3.2002 0.8632
8.1763 3.2904 0.8430
8.1765 3.3812 0.8228
8.1767 3.4728 0.8027
8.1769 3.5651 0.7825
8.1771 3.6582 0.7624
8.1773 3.7522 0.7423
8.1775 3.8469 0.7222
8.1777 3.9426 0.7021
8.1780 4.0391 0.6820
8.1782 4.1366 0.6618
8.1784 4.2350 0.6417
8.1786 4.3345 0.6215
8.1788 4.4349 0.6014
8.1790 4.5364 0.5811
8.1792 4.6391 0.5609
8.1795 4.7429 0.5406
8.1797 4.8478 0.5203
8.1799 4.9540 0.5000
8.1801 5.0615 0.4796
8.1804 5.1702 0.4591
8.1806 5.2804 0.4386
8.1808 5.3919 0.4180
8.1811 5.5049 0.3973
8.1857 5.6224 0.3768
8.1783 5.7331 0.3556
8.1708 5.8451 0.3344
8.1632 5.9586 0.3131
8.1555 6.0734 0.2918
8.1426 6.1858 0.2702
8.1292 6.2993 0.2486
8.1155 6.4141 0.2269
8.1017 6.5303 0.2052
8.0878 6.6479 0.1833
8.0841 6.7758 0.1617
8.0833 6.9082 0.1399
8.0825 7.0428 0.1180
8.0816 7.1797 0.0960
8.0808 7.3191 0.0738
8.1366 7.5132 0.0517
8.2007 7.7197 0.0292
8.2671 7.9335 0.0062
8.5896 8.4032 -0.0180
22.2825 23.5454 -0.3073
14.5164 21.9806 -1.0857
14.5705 22.5358 -1.1478
14.7506 23.8180 -1.2835
14.7000 23.2284 -1.2179
13.7414 22.6785 -1.2542
13.7120 23.1352 -1.3114
13.3200 23.5062 -1.3946
13.4900 23.2746 -1.3505
13.0126 23.4948 -1.4237
12.7086 23.4833 -1.4519
12.4068 23.4698 -1.4792
11.9086 23.0696 -1.4808
8.1504 -1.3123 2.5681
8.1507 -1.2309 2.5389
8.1509 -1.1498 2.5101
8.1511 -1.0691 2.4816
8.1513 -0.9885 2.4534
8.1515 -0.9083 2.4255
8.1518 -0.8283 2.3980
8.1520 -0.7485 2.3707
8.1522 -0.6689 2.3437
8.1524 -0.5896 2.3170
8.1527 -0.5104 2.2906
8.1529 -0.4313 2.2644
8.1576 -0.3526 2.2398
8.1579 -0.2738 2.2141
8.1582 -0.1951 2.1888
8.1585 -0.1165 2.1636
8.1588 -0.0380 2.1387
8.1591 0.0405 2.1141
8.1594 0.1189 2.0897
8.1597 0.1973 2.0655
8.1600 0.2757 2.0415
8.1603 0.3541 2.0177
8.1606 0.4325 1.9941
8.1609 0.5110 1.9708
8.1612 0.5895 1.9476
8.1615 0.6681 1.9246
8.1618 0.7467 1.9019
8.1621 0.8255 1.8793
8.1623 0.9043 1.8569
8.1626 0.9833 1.8346
8.1629 1.0625 1.8125
8.1632 1.1418 1.7906
8.1635 1.2212 1.7689
8.1638 1.3009 1.7473
8.1641 1.3808 1.7259
8.1644 1.4609 1.7047
8.1647 1.5413 1.6835
8.1650 1.6219 1.6626
8.1653 1.7028 1.6417
8.1656 1.7840 1.6210
8.1659 1.8655 1.6005
8.1662 1.9473 1.5800
8.1665 2.0295 1.5597
8.1668 2.1121 1.5395
8.1671 2.1950 1.5195
8.1674 2.2784 1.4995
8.1677 2.3622 1.4797
8.1680 2.4464 1.4600
8.1684 2.5311 1.4404
8.1741 2.6180 1.4218
8.1743 2.7038 1.4024
8.1745 2.7900 1.3830
8.1747 2.8768 1.3638
8.1749 2.9641 1.3446
8.1751 3.0521 1.3255
8.1752 3.1407 1.3065
8.1754 3.2299 1.2876
8.1756 3.3198 1.2688
8.1758 3.4103 1.2501
8.1760 3.5016 1.2314
8.1762 3.5936 1.2128
8.1764 3.6864 1.1943
8.1766 3.7800 1.1758
8.1768 3.8745 1.1574
8.1770 3.9698 1.1390
8.1772 4.0659 1.1208
8.1774 4.1630 1.1025
8.1776 4.2610 1.0843
8.1779 4.3601 1.0662
8.1781 4.4601 1.0481
8.1783 4.5612 1.0300
8.1785 4.6633 1.0120
8.1787 4.7666 0.9941
8.1789 4.8711 0.9761
8.1792 4.9768 0.9582
8.1794 5.0837 0.9403
8.1796 5.1919 0.9224
8.1798 5.3014 0.9046
8.1801 5.4123 0.8867
8.1803 5.5246 0.8689
8.1845 5.6411 0.8515
8.1771 5.7512 0.8329
8.1696 5.8625 0.8144
8.1621 5.9752 0.7958
8.1541 6.0890 0.7773
8.1409 6.2004 0.7583
8.1275 6.3130 0.7393
8.1140 6.4269 0.7203
8.1003 6.5422 0.7014
8.0865 6.6590 0.6825
8.0840 6.7868 0.6646
8.0832 6.9182 0.6468
8.0824 7.0518 0.6289
8.0816 7.1876 0.6110
8.0808 7.3257 0.5931
8.1390 7.5208 0.5793
8.2026 7.7256 0.5656
8.2683 7.9375 0.5517
8.5944 8.4092 0.5542
22.2964 23.5458 1.2359
32.4600 37.7337 1.4231
14.3330 22.0564 0.1251
14.3638 22.5755 0.0862
14.3715 23.0744 0.0465
14.1088 23.1457 0.0060
13.6396 22.8681 -0.0332
13.8121 23.6722 -0.0737
13.2131 23.1548 -0.1095
13.2642 23.7733 -0.1498
12.7218 23.3267 -0.1826
12.3185 23.1144 -0.2153
12.4476 23.9091 -0.2573
12.0672 23.7346 -0.2887
8.1512 -1.1936 2.9711
8.1514 -1.1125 2.9410
8.1517 -1.0316 2.9112
8.1519 -0.9511 2.8819
8.1521 -0.8708 2.8528
8.1523 -0.7908 2.8242
8.1525 -0.7110 2.7959
8.1528 -0.6314 2.7679
8.1530 -0.5520 2.7403
8.1532 -0.4728 2.7130
8.1568 -0.3940 2.6871
8.1571 -0.3150 2.6604
8.1574 -0.2362 2.6341
8.1577 -0.1576 2.6080
8.1580 -0.0790 2.5823
8.1583 -0.0005 2.5568
8.1586 0.0780 2.5316
8.1589 0.1564 2.5066
8.1592 0.2347 2.4820
8.1595 0.3131 2.4576
8.1598 0.3914 2.4334
8.1601 0.4698 2.4095
8.1604 0.5482 2.3859
8.1607 0.6266 2.3625
8.1610 0.7051 2.3393
8.1613 0.7837 2.3164
8.1616 0.8624 2.2937
8.1619 0.9411 2.2712
8.1622 1.0201 2.2490
8.1625 1.0991 2.2269
8.1627 1.1783 2.2051
8.1630 1.2577 2.1835
8.1633 1.3373 2.1621
8.1636 1.4170 2.1409
8.1639 1.4970 2.1198
8.1642 1.5773 2.0990
8.1645 1.6578 2.0784
8.1648 1.7385 2.0579
8.1651 1.8196 2.0376
8.1654 1.9010 2.0176
8.1657 1.9827 1.9976
8.1660 2.0647 1.9779
8.1663 2.1471 1.9583
8.1666 2.2299 1.9389
8.1669 2.3131 1.9197
8.1672 2.3967 1.9006
8.1675 2.4808 1.8816
8.1678 2.5653 1.8629
8.1734 2.6520 1.8454
8.1736 2.7375 1.8269
8.1738 2.8235 1.8086
8.1740 2.9101 1.7903
8.1742 2.9972 1.7723
8.1744 3.0849 1.7543
8.1746 3.1732 1.7365
8.1748 3.2622 1.7189
8.1749 3.3518 1.7013
8.1751 3.4421 1.6839
8.1753 3.5331 1.6667
8.1755 3.6248 1.6495
8.1757 3.7173 1.6325
8.1759 3.8106 1.6156
8.1761 3.9047 1.5988
8.1763 3.9996 1.5822
8.1765 4.0954 1.5656
8.1767 4.1921 1.5492
8.1769 4.2898 1.5329
8.1771 4.3884 1.5167
8.1773 4.4880 1.5006
8.1775 4.5887 1.4846
8.1778 4.6904 1.4688
8.1780 4.7932 1.4530
8.1782 4.8972 1.4373
8.1784 5.0023 1.4218
8.1786 5.1087 1.4063
8.1788 5.2164 1.3909
8.1791 5.3253 1.3756
8.1793 5.4356 1.3605
8.1795 5.5473 1.3454
8.1830 5.6627 1.3309
8.1757 5.7721 1.3148
8.1683 5.8828 1.2988
8.1608 5.9947 1.2829
8.1520 6.1071 1.2669
8.1388 6.2177 1.2503
8.1256 6.3295 1.2339
8.1122 6.4426 1.2176
8.0986 6.5571 1.2014
8.0848 6.6729 1.1852
8.0839 6.8011 1.1711
8.0831 6.9315 1.1571
8.0823 7.0640 1.1431
8.0815 7.1987 1.1293
8.0818 7.3367 1.1156
8.1429 7.5333 1.1103
8.2059 7.7365 1.1052
8.2712 7.9466 1.1002
8.6122 8.4319 1.1313
31.4535 31.3816 4.0801
31.8556 32.3883 4.0801
32.2660 33.4308 4.0801
22.2961 23.5418 2.7833
33.1119 35.6298 4.0801
32.7378 35.9013 3.9815
32.7239 36.5743 3.9277
32.4965 37.7320 3.7977
31.9593 37.8257 3.6848
31.3542 37.8297 3.5661
30.7583 37.8336 3.4506
30.1712 37.8375 3.3382
29.5926 37.8413 3.2287
29.0223 37.8451 3.1222
28.4598 37.8488 3.0185
27.8415 37.7662 2.9109
27.2975 37.7727 2.8130
26.8155 37.8568 2.7233
26.2824 37.8603 2.6301
25.7560 37.8638 2.5394
25.2360 37.8672 2.4511
24.7223 37.8706 2.3651
24.2148 37.8739 2.2814
23.7131 37.8772 2.1999
14.2859 23.3084 1.3049
13.7432 22.9090 1.2357
13.7277 23.3843 1.2149
13.2913 23.1422 1.1576
12.9332 23.0232 1.1083
12.9744 23.6201 1.0938
12.6436 23.5462 1.0485
12.3178 23.4731 1.0047
19.4311 37.9016 1.5585
18.9788 37.9045 1.4966
7.7432 -1.0178 3.2158
7.8312 -0.9516 3.2224
7.9201 -0.8842 3.2291
8.0100 -0.8153 3.2359
8.1009 -0.7450 3.2429
8.1531 -0.6699 3.2342
8.1533 -0.5903 3.2051
8.1536 -0.5110 3.1765
8.1538 -0.4318 3.1482
8.1563 -0.3529 3.1211
8.1566 -0.2740 3.0936
8.1569 -0.1952 3.0664
8.1572 -0.1165 3.0395
8.1575 -0.0380 3.0130
8.1578 0.0405 2.9869
8.1581 0.1189 2.9610
8.1584 0.1972 2.9355
8.1587 0.2755 2.9103
8.1590 0.3538 2.8854
8.1593 0.4321 2.8608
8.1596 0.5104 2.8364
8.1599 0.5887 2.8124
8.1602 0.6671 2.7887
8.1605 0.7455 2.7653
8.1608 0.8240 2.7421
8.1611 0.9026 2.7192
8.1614 0.9813 2.6966
8.1617 1.0601 2.6743
8.1620 1.1390 2.6522
8.1623 1.2182 2.6303
8.1626 1.2974 2.6088
8.1628 1.3769 2.5874
8.1631 1.4566 2.5663
8.1634 1.5364 2.5455
8.1637 1.6166 2.5249
8.1640 1.6969 2.5045
8.1643 1.7776 2.4844
8.1646 1.8585 2.4644
8.1649 1.9397 2.4447
8.1652 2.0213 2.4253
8.1655 2.1032 2.4060
8.1658 2.1854 2.3870
8.1661 2.2681 2.3682
8.1664 2.3511 2.3495
8.1667 2.4345 2.3311
8.1670 2.5184 2.3129
8.1726 2.6044 2.2964
8.1727 2.6892 2.2786
8.1729 2.7745 2.2609
8.1731 2.8603 2.2435
8.1733 2.9466 2.2262
8.1735 3.0335 2.2092
8.1737 3.1210 2.1923
8.1739 3.2091 2.1756
8.1740 3.2978 2.1591
8.1742 3.3872 2.1428
8.1744 3.4772 2.1267
8.1746 3.5679 2.1108
8.1748 3.6593 2.0950
8.1750 3.7515 2.0794
8.1752 3.8445 2.0641
8.1754 3.9383 2.0488
8.1756 4.0329 2.0338
8.1758 4.1283 2.0189
8.1760 4.2247 2.0043
8.1762 4.3219 1.9898
8.1764 4.4201 1.9754
8.1766 4.5194 1.9613
8.1768 4.6196 1.9473
8.1770 4.7209 1.9335
8.1772 4.8232 1.9198
8.1774 4.9267 1.9064
8.1776 5.0314 1.8931
8.1778 5.1372 1.8799
8.1780 5.2444 1.8670
8.1783 5.3528 1.8542
8.1785 5.4625 1.8416
8.1787 5.5736 1.8292
8.1813 5.6878 1.8175
8.1741 5.7965 1.8037
8.1667 5.9065 1.7902
8.1592 6.0177 1.7768
8.1494 6.1286 1.7631
8.1364 6.2384 1.7489
8.1232 6.3495 1.7349
8.1099 6.4618 1.7211
8.0964 6.5754 1.7075
8.0846 6.6919 1.6944
8.0838 6.8193 1.6839
8.0830 6.9487 1.6736
8.0822 7.0802 1.6634
8.0814 7.2139 1.6534
8.0880 7.3564 1.6451
8.1486 7.5517 1.6480
8.2112 7.7534 1.6513
8.2759 7.9620 1.6551
8.6460 8.4749 1.7197
20.6237 20.5965 4.0801
20.7322 21.0953 4.0801
20.8391 21.6040 4.0801
20.8338 22.0063 4.0586
20.4634 22.0236 3.9670
20.3580 22.3250 3.9277
20.4529 22.8544 3.9277
20.5453 23.3942 3.9277
20.6352 23.9445 3.9277
20.7225 24.5055 3.9277
20.8068 25.0773 3.9277
21.6986 26.6557 4.0801
21.7797 27.2727 4.0801
21.8572 27.9013 4.0801
21.9308 28.5418 4.0801
22.0005 29.1943 4.0801
22.0659 29.8589 4.0801
22.1268 30.5358 4.0801
22.1828 31.2249 4.0801
22.2340 31.9264 4.0801
22.2797 32.6404 4.0801
22.3198 33.3670 4.0801
22.3541 34.1062 4.0801
22.3822 34.8580 4.0801
22.4038 35.6225 4.0801
22.1402 35.9475 4.0294
21.6880 35.9653 3.9458
21.5883 36.5725 3.9277
13.6011 23.5440 2.4754
21.5651 38.1532 3.9277
20.9490 37.8903 3.8198
20.4880 37.8933 3.7414
20.0315 37.8963 3.6651
19.5792 37.8993 3.5909
19.1312 37.9023 3.5188
18.6872 37.9052 3.4487
18.2472 37.9081 3.3805
6.9132 -0.8016 3.2340
6.9851 -0.7409 3.2400
7.0575 -0.6790 3.2461
7.1305 -0.6160 3.2523
7.2041 -0.5519 3.2587
7.2783 -0.4865 3.2651
7.3532 -0.4200 3.2717
7.4287 -0.3521 3.2784
7.5048 -0.2830 3.2852
7.5816 -0.2126 3.2922
7.6578 -0.1408 3.2987
7.7343 -0.0677 3.3052
7.8114 0.0068 3.3119
7.8892 0.0827 3.3186
7.9676 0.1600 3.3255
8.0466 0.2388 3.3325
8.1264 0.3191 3.3397
8.1585 0.3986 3.3273
8.1588 0.4768 3.3021
8.1591 0.5551 3.2773
8.1594 0.6333 3.2528
8.1597 0.7116 3.2287
8.1600 0.7899 3.2049
8.1603 0.8683 3.1814
8.1606 0.9468 3.1583
8.1609 1.0254 3.1354
8.1612 1.1041 3.1129
8.1615 1.1830 3.0907
8.1618 1.2620 3.0688
8.1621 1.3412 3.0471
8.1624 1.4205 3.0258
8.1626 1.5001 3.0048
8.1629 1.5798 2.9840
8.1632 1.6598 2.9635
8.1635 1.7401 2.9434
8.1638 1.8206 2.9234
8.1641 1.9014 2.9038
8.1644 1.9824 2.8844
8.1647 2.0638 2.8654
8.1650 2.1456 2.8465
8.1653 2.2277 2.8280
8.1656 2.3101 2.8096
8.1659 2.3930 2.7916
8.1662 2.4763 2.7738
8.1665 2.5600 2.7563
8.1719 2.6457 2.7407
8.1720 2.7303 2.7236
8.1722 2.8154 2.7067
8.1724 2.9010 2.6901
8.1726 2.9872 2.6738
8.1728 3.0738 2.6577
8.1730 3.1611 2.6418
8.1731 3.2489 2.6262
8.1733 3.3374 2.6108
8.1735 3.4265 2.5957
8.1737 3.5162 2.5808
8.1739 3.6067 2.5661
8.1741 3.6978 2.5517
8.1743 3.7897 2.5375
8.1745 3.8824 2.5236
8.1746 3.9759 2.5099
8.1748 4.0701 2.4964
8.1750 4.1652 2.4832
8.1752 4.2612 2.4701
8.1754 4.3582 2.4574
8.1756 4.4560 2.4449
8.1758 4.5548 2.4326
8.1760 4.6546 2.4205
8.1762 4.7555 2.4087
8.1764 4.8574 2.3971
8.1766 4.9605 2.3858
8.1768 5.0647 2.3747
8.1770 5.1700 2.3639
8.1773 5.2766 2.3533
8.1775 5.3845 2.3429
8.1777 5.4937 2.3328
8.1865 5.6101 2.3254
8.1794 5.7170 2.3138
8.1721 5.8251 2.3023
8.1648 5.9344 2.2911
8.1574 6.0450 2.2802
8.1464 6.1542 2.2686
8.1334 6.2633 2.2567
8.1203 6.3736 2.2450
8.1071 6.4851 2.2337
8.0937 6.5979 2.2226
8.0844 6.7156 2.2129
8.0837 6.8421 2.2058
8.0829 6.9706 2.1991
8.0821 7.1012 2.1926
8.1565 7.5771 2.1957
8.0813 7.2338 2.1864
8.2187 7.7776 2.2074
8.0962 7.3830 2.1848
8.2830 7.9848 2.2198
8.6991 8.5424 2.3267
15.2832 15.2877 4.0801
15.3713 16.5568 4.0801
15.3866 16.8836 4.0801
15.3091 15.5992 4.0801
15.3991 17.2143 4.0801
15.3324 15.9146 4.0801
15.4086 17.5487 4.0801
15.3532 16.2337 4.0801
15.4150 17.8870 4.0801
15.4080 19.2772 4.0801
15.4183 18.2290 4.0801
15.4183 18.5747 4.0801
15.3975 19.6338 4.0801
15.4149 18.9241 4.0801
15.3834 19.9940 4.0801
15.3434 20.7249 4.0801
15.3654 20.3577 4.0801
15.3174 21.0954 4.0801
15.2873 21.4692 4.0801
15.0853 22.0384 4.0456
15.2528 21.8462 4.0801
14.7957 22.0510 3.9793
14.4509 22.8876 3.9277
14.5574 22.1365 3.9277
14.3904 23.2668 3.9277
14.3249 23.6484 3.9277
14.5065 22.5108 3.9277
14.2543 24.0321 3.9277
13.5851 23.3957 3.7633
13.4992 23.7525 3.7610
14.0110 25.1944 3.9277
14.4589 26.5778 4.0801
14.3574 26.9848 4.0801
14.2498 27.3930 4.0801
14.1361 27.8021 4.0801
14.0162 28.2118 4.0801
13.8899 28.6219 4.0801
13.7572 29.0321 4.0801
6.3936 -0.6385 3.3394
6.3992 -0.5760 3.3162
6.4047 -0.5137 3.2933
6.4160 -0.4518 3.2738
6.4620 -0.3920 3.2721
6.5226 -0.3322 3.2778
6.5837 -0.2714 3.2836
6.6453 -0.2096 3.2897
6.7065 -0.1468 3.2955
6.7676 -0.0828 3.3011
6.8291 -0.0178 3.3069
6.8908 0.0483 3.3128
6.9530 0.1155 3.3187
7.0154 0.1838 3.3248
7.0781 0.2533 3.3310
7.1412 0.3240 3.3372
7.2047 0.3959 3.3436
7.2684 0.4690 3.3501
7.3325 0.5433 3.3567
7.3970 0.6189 3.3634
7.4618 0.6959 3.3702
7.5269 0.7741 3.3771
7.5924 0.8537 3.3841
7.6583 0.9346 3.3913
7.7245 1.0170 3.3986
7.7911 1.1007 3.4060
7.8580 1.1860 3.4135
7.9249 1.2726 3.4210
7.9906 1.3605 3.4279
8.0566 1.4499 3.4350
8.1228 1.5408 3.4421
8.1624 1.6279 3.4381
8.1627 1.7078 3.4177
8.1630 1.7879 3.3976
8.1633 1.8683 3.3779
8.1636 1.9489 3.3584
8.1639 2.0299 3.3393
8.1642 2.1111 3.3205
8.1645 2.1927 3.3021
8.1648 2.2746 3.2839
8.1651 2.3569 3.2661
8.1654 2.4396 3.2485
8.1657 2.5227 3.2313
8.1710 2.6078 3.2163
8.1711 2.6918 3.1996
8.1713 2.7762 3.1832
8.1715 2.8611 3.1671
8.1717 2.9465 3.1513
8.1719 3.0324 3.1358
8.1720 3.1189 3.1206
8.1722 3.2059 3.1057
8.1724 3.2935 3.0910
8.1726 3.3817 3.0767
8.1728 3.4706 3.0627
8.1730 3.5601 3.0490
8.1731 3.6503 3.0355
8.1733 3.7412 3.0224
8.1735 3.8328 3.0095
8.1737 3.9251 2.9970
8.1739 4.0183 2.9847
8.1741 4.1122 2.9727
8.1743 4.2070 2.9610
8.1745 4.3027 2.9497
8.1747 4.3993 2.9386
8.1749 4.4968 2.9278
8.1751 4.5952 2.9174
8.1753 4.6946 2.9072
8.1754 4.7951 2.8973
8.1756 4.8966 2.8878
8.1758 4.9992 2.8785
8.1761 5.1030 2.8696
8.1762 5.2079 2.8610
8.1765 5.3140 2.8527
8.1767 5.4213 2.8447
8.1769 5.5300 2.8371
8.1842 5.6449 2.8322
8.1771 5.7512 2.8227
8.1699 5.8587 2.8135
8.1626 5.9674 2.8046
8.1553 6.0773 2.7961
8.1428 6.1847 2.7862
8.1299 6.2930 2.7765
8.1169 6.4026 2.7671
8.1038 6.5134 2.7581
8.0905 6.6254 2.7495
8.0819 7.1277 2.7338
8.0843 6.7447 2.7436
8.0811 7.2594 2.7314
8.1070 7.4176 2.7384
8.0835 6.8704 2.7399
8.1669 7.6108 2.7573
8.0827 6.9981 2.7367
8.2288 7.8102 2.7773
8.2928 8.0163 2.7985
12.0840 12.3397 4.0801
11.6390 11.4586 3.9277
12.0774 12.5605 4.0801
12.0884 12.1206 4.0801
12.0685 12.7831 4.0801
12.0438 13.2333 4.0801
12.0277 13.4608 4.0801
12.0573 13.0074 4.0801
12.0093 13.6900 4.0801
11.9646 14.1528 4.0801
11.9882 13.9206 4.0801
11.8430 15.0955 4.0801
11.9383 14.3864 4.0801
11.8055 15.3344 4.0801
11.7651 15.5745 4.0801
11.9093 14.6214 4.0801
11.7217 15.8157 4.0801
11.8776 14.8578 4.0801
11.6752 16.0579 4.0801
11.6256 16.3012 4.0801
11.4576 17.0359 4.0801
11.5728 16.5453 4.0801
11.3949 17.2823 4.0801
11.5168 16.7902 4.0801
11.1865 18.0243 4.0801
11.3289 17.5291 4.0801
11.1100 18.2722 4.0801
11.2595 17.7765 4.0801
11.0299 18.5204 4.0801
10.9462 18.7687 4.0801
10.8588 19.0169 4.0801
10.4713 20.0068 4.0801
10.7676 19.2649 4.0801
10.3647 20.2529 4.0801
10.6726 19.5126 4.0801
10.2543 20.4983 4.0801
10.1399 20.7426 4.0801
10.5739 19.7600 4.0801
10.0215 20.9859 4.0801
9.8991 21.2280 4.0801
5.8950 -0.4897 3.4144
5.9483 -0.4358 3.4202
6.0007 -0.3810 3.4254
6.0533 -0.3253 3.4307
6.1061 -0.2688 3.4362
6.1590 -0.2114 3.4416
6.2114 -0.1531 3.4468
6.2636 -0.0939 3.4520
6.3160 -0.0339 3.4571
6.3685 0.0271 3.4624
6.3875 0.0886 3.4496
6.3924 0.1500 3.4294
6.3972 0.2114 3.4096
6.4020 0.2728 3.3901
6.4067 0.3343 3.3709
6.4141 0.3961 3.3534
6.4428 0.4595 3.3472
6.4939 0.5252 3.3529
6.5452 0.5919 3.3587
6.5967 0.6597 3.3646
6.6485 0.7286 3.3706
6.7005 0.7984 3.3768
6.7525 0.8694 3.3831
6.8047 0.9414 3.3894
6.8569 1.0146 3.3959
6.9093 1.0889 3.4024
6.9617 1.1643 3.4091
7.0143 1.2409 3.4158
7.0657 1.3184 3.4220
7.1168 1.3970 3.4282
7.1680 1.4769 3.4345
7.2192 1.5579 3.4408
7.2704 1.6401 3.4473
7.3217 1.7236 3.4538
7.3730 1.8083 3.4605
7.4243 1.8943 3.4672
7.4756 1.9816 3.4741
7.5269 2.0702 3.4810
7.5782 2.1601 3.4881
7.6294 2.2514 3.4952
7.6807 2.3440 3.5025
7.7319 2.4381 3.5098
7.7831 2.5336 3.5173
7.8342 2.6305 3.5249
7.8848 2.7287 3.5323
7.9335 2.8278 3.5391
7.9822 2.9283 3.5460
8.0307 3.0303 3.5530
8.0790 3.1337 3.5601
8.1271 3.2386 3.5673
8.1717 3.3437 3.5731
8.1718 3.4317 3.5598
8.1720 3.5203 3.5469
8.1722 3.6096 3.5342
8.1724 3.6995 3.5220
8.1726 3.7901 3.5100
8.1728 3.8815 3.4985
8.1735 4.2546 3.4557
8.1729 3.9736 3.4873
8.1737 4.3499 3.4460
8.1731 4.0664 3.4764
8.1733 4.1601 3.4659
8.1739 4.4462 3.4365
8.1743 4.6414 3.4188
8.1741 4.5433 3.4275
8.1745 4.7404 3.4104
8.1750 5.0439 3.3877
8.1746 4.8405 3.4025
8.1752 5.1472 3.3809
8.1748 4.9416 3.3949
8.1758 5.4642 3.3628
8.1754 5.2516 3.3745
8.1760 5.5724 3.3575
8.1756 5.3573 3.3684
8.1815 5.6855 3.3549
8.1673 5.8981 3.3405
8.1744 5.7912 3.3475
8.1600 6.0062 3.3339
8.1257 6.3285 3.3116
8.1511 6.1143 3.3270
8.1128 6.4373 3.3044
8.0997 6.5474 3.2977
8.1385 6.2208 3.3191
8.0865 6.6586 3.2914
8.0840 6.7803 3.2900
8.0810 7.2917 3.2919
8.0833 6.9052 3.2897
8.1207 7.4618 3.3101
8.3576 8.1084 3.4167
8.1804 7.6542 3.3372
8.0825 7.0320 3.2899
8.2421 7.8529 3.3656
9.5951 9.4788 3.9277
9.5469 9.9567 3.9277
8.0817 7.1608 3.2906
9.4571 10.6049 3.9277
9.5808 9.6373 3.9277
9.5272 10.1176 3.9277
9.4300 10.7686 3.9277
9.6988 11.7006 4.0801
9.5393 12.3934 4.0801
9.4008 10.9331 3.9277
9.5647 9.7966 3.9277
9.5057 10.2793 3.9277
9.6622 11.8732 4.0801
9.4939 12.5676 4.0801
9.3697 11.0980 3.9277
9.4824 10.4417 3.9277
9.6234 12.0462 4.0801
9.3437 13.0917 4.0801
9.1099 13.7921 4.0801
9.4461 12.7421 4.0801
9.5825 12.2196 4.0801
9.2889 13.2667 4.0801
9.0454 13.9671 4.0801
8.8365 14.4907 4.0801
9.3961 12.9168 4.0801
8.5218 15.1833 4.0801
8.9783 14.1419 4.0801
9.2317 13.4419 4.0801
8.7617 14.6646 4.0801
8.1647 15.8651 4.0801
8.4365 15.3550 4.0801
8.9086 14.3165 4.0801
8.0687 16.0332 4.0801
9.1721 13.6170 4.0801
8.6843 14.8381 4.0801
8.3486 15.5259 4.0801
7.9700 16.2003 4.0801
8.2580 15.6959 4.0801
8.6044 15.0110 4.0801
7.8686 16.3662 4.0801
7.7645 16.5308 4.0801
7.6577 16.6941 4.0801
5.3486 -0.3501 3.4172
5.3932 -0.3003 3.4222
5.4161 -0.2489 3.4135
5.4606 -0.1979 3.4186
5.5052 -0.1462 3.4237
5.7066 0.0683 3.4588
5.8906 0.2962 3.4837
5.5721 -0.0941 3.4428
5.7515 0.1241 3.4643
5.9372 0.3553 3.4904
5.6169 -0.0407 3.4480
5.7976 0.1806 3.4705
5.9814 0.4150 3.4957
5.8441 0.2380 3.4771
5.6618 0.0134 3.4534
6.0253 0.4756 3.5009
6.0691 0.5370 3.5062
6.2443 0.7912 3.5282
6.1130 0.5993 3.5116
6.3898 1.0549 3.5351
6.2881 0.8570 3.5338
6.1568 0.6624 3.5170
6.3938 1.1171 3.5195
6.2006 0.7264 3.5226
6.3317 0.9236 3.5396
6.3978 1.1795 3.5041
6.4056 1.3050 3.4742
6.3754 0.9912 3.5454
6.4094 1.3680 3.4597
6.4018 1.2422 3.4890
6.4616 1.5686 3.4398
6.4131 1.4313 3.4455
6.6193 1.8688 3.4630
6.4263 1.4971 3.4367
6.5012 1.6422 3.4455
6.6585 1.9463 3.4690
6.7751 2.1852 3.4877
6.5406 1.7167 3.4512
6.6975 2.0249 3.4752
6.8135 2.2669 3.4940
6.8518 2.3497 3.5005
6.5800 1.7922 3.4570
6.7364 2.1045 3.4814
6.8898 2.4336 3.5070
7.0729 2.8682 3.5394
6.9276 2.5185 3.5137
7.2093 3.2341 3.5644
7.2424 3.3284 3.5708
7.1075 2.9580 3.5455
6.9651 2.6046 3.5204
7.2752 3.4238 3.5774
7.1418 3.0489 3.5518
7.0024 2.6918 3.5272
7.3075 3.5204 3.5840
7.1757 3.1409 3.5580
7.5713 4.4399 3.6439
7.0380 2.7795 3.5333
7.3395 3.6182 3.5906
7.4625 4.0211 3.6181
7.5962 4.5471 3.6502
7.6671 4.8757 3.6694
7.3709 3.7171 3.5974
7.7516 5.3305 3.6960
7.6206 4.6555 3.6565
7.4920 4.1248 3.6251
7.6893 4.9877 3.6760
7.4019 3.8173 3.6042
7.6442 4.7650 3.6630
7.7708 5.4472 3.7028
7.4325 3.9186 3.6111
7.5195 4.2290 3.6316
7.7109 5.1007 3.6826
7.7891 5.5650 3.7097
7.8191 5.8012 3.7216
7.8658 6.2854 3.7452
7.7316 5.2150 3.6893
7.5457 4.3338 3.6377
7.8750 6.4091 3.7513
7.8051 5.6829 3.7159
7.8322 5.9206 3.7275
7.8831 6.5339 3.7573
7.8960 6.7867 3.7696
7.8444 6.0411 3.7333
7.8901 6.6598 3.7635
7.9008 6.9147 3.7759
7.9310 7.8696 3.8356
7.9145 7.3108 3.7979
7.8556 6.1627 3.7393
7.9150 8.4356 3.8690
7.9044 7.0437 3.7821
7.9347 8.0152 3.8466
7.8553 8.9949 3.8934
7.9023 8.5741 3.8750
7.9223 7.4503 3.8081
7.8374 9.1376 3.9000
7.9048 7.1719 3.7875
7.8947 8.7208 3.8843
7.9261 8.1508 3.8523
7.8116 9.2737 3.9036
7.9271 7.5895 3.8175
7.8762 8.8580 3.8890
7.7522 9.5435 3.9093
7.7833 9.4092 3.9067
7.9276 8.2993 3.8637
7.9326 7.7318 3.8279
7.7193 9.6781 3.9118
7.7217 11.0276 4.0784
7.9173 10.4901 4.0775
7.4922 11.5557 4.0770
7.6844 9.8126 3.9142
7.6672 11.1602 4.0781
7.8718 10.6255 4.0781
7.2292 12.0722 4.0738
7.8243 10.7606 4.0786
7.6108 11.2924 4.0777
7.4295 11.6860 4.0763
7.6463 9.9454 3.9158
7.1582 12.1990 4.0727
7.7743 10.8948 4.0787
7.5524 11.4243 4.0774
7.3649 11.8156 4.0756
6.9312 12.5706 4.0680
7.0847 12.3241 4.0713
7.2982 11.9445 4.0748
6.8506 12.6907 4.0658
7.0091 12.4481 4.0698
6.7678 12.8091 4.0633
6.6819 12.9241 4.0601
6.5966 13.0430 4.0585
6.5126 13.1671 4.0588
6.4267 13.2901 4.0591
6.3387 13.4121 4.0593
6.2488 13.5329 4.0596
6.1569 13.6525 4.0599
