ply
format ascii 1.0
element vertex 2162
property float32 x
property float32 y
property float32 z
end_header
8.1277 -5.0169 -0.2492
8.1283 -4.9104 -0.2707
8.1290 -4.8052 -0.2923
8.1296 -4.7012 -0.3137
8.1302 -4.5983 -0.3350
8.1308 -4.4966 -0.3563
8.1314 -4.3959 -0.3775
8.1320 -4.2963 -0.3987
8.1326 -4.1977 -0.4198
8.1332 -4.1000 -0.4409
8.1337 -4.0033 -0.4619
8.1343 -3.9076 -0.4829
8.1348 -3.8127 -0.5038
8.1354 -3.7186 -0.5248
8.1359 -3.6254 -0.5457
8.1365 -3.5330 -0.5665
8.1370 -3.4413 -0.5874
8.1376 -3.3503 -0.6083
8.1381 -3.2601 -0.6291
8.1386 -3.1706 -0.6500
8.1392 -3.0817 -0.6708
8.1397 -2.9934 -0.6917
8.1415 -2.9063 -0.7127
8.1420 -2.8192 -0.7336
8.1424 -2.7327 -0.7545
8.1429 -2.6467 -0.7754
8.1433 -2.5612 -0.7963
8.1437 -2.4763 -0.8173
8.1442 -2.3918 -0.8383
8.1446 -2.3078 -0.8594
8.1450 -2.2242 -0.8805
8.1455 -2.1411 -0.9016
8.1459 -2.0583 -0.9228
8.1463 -1.9760 -0.9441
8.1467 -1.8939 -0.9654
8.1472 -1.8123 -0.9867
8.1476 -1.7310 -1.0082
8.1480 -1.6499 -1.0297
8.1484 -1.5692 -1.0513
8.1488 -1.4887 -1.0729
8.1492 -1.4085 -1.0947
8.1509 -1.0899 -1.1825
8.1496 -1.3285 -1.1165
8.1513 -1.0107 -1.2047
8.1500 -1.2488 -1.1384
8.1517 -0.9316 -1.2270
8.1505 -1.1692 -1.1604
8.1521 -0.8527 -1.2495
8.1541 -0.4598 -1.3634
8.1525 -0.7740 -1.2720
8.1545 -0.3814 -1.3866
8.1529 -0.6953 -1.2947
8.1549 -0.3031 -1.4099
8.1533 -0.6167 -1.3174
8.1553 -0.2247 -1.4334
8.1537 -0.5382 -1.3404
8.1557 -0.1463 -1.4570
8.1713 0.1677 -1.5558
8.1561 -0.0680 -1.4808
8.1718 0.2465 -1.5803
8.1565 0.0104 -1.5048
8.1723 0.3253 -1.6050
8.1708 0.0890 -1.5315
8.1727 0.4043 -1.6299
8.1732 0.4834 -1.6550
8.1751 0.8014 -1.7574
8.1737 0.5626 -1.6803
8.1756 0.8814 -1.7836
8.1742 0.6420 -1.7058
8.1761 0.9617 -1.8099
8.1746 0.7216 -1.7315
8.1771 1.1229 -1.8634
8.1766 1.0422 -1.8366
8.1776 1.2040 -1.8905
8.1781 1.2853 -1.9179
8.1786 1.3670 -1.9455
8.1791 1.4490 -1.9734
8.1811 1.7809 -2.0879
8.1796 1.5314 -2.0016
8.1816 1.8649 -2.1173
8.1821 1.9494 -2.1470
8.1801 1.6141 -2.0301
8.1827 2.0343 -2.1771
8.1832 2.1198 -2.2075
8.1806 1.6973 -2.0589
8.1837 2.2058 -2.2382
8.1853 2.4671 -2.3326
8.1842 2.2923 -2.2693
8.1858 2.5555 -2.3648
8.1848 2.3794 -2.3007
8.1864 2.6444 -2.3974
8.1875 2.8244 -2.4639
8.1869 2.7341 -2.4305
8.1880 2.9155 -2.4978
8.1961 3.1958 -2.6043
8.1953 3.0097 -2.5342
8.1966 3.2900 -2.6401
8.1957 3.1023 -2.5690
8.1970 3.3852 -2.6763
8.1980 3.5782 -2.7504
8.1975 3.4812 -2.7131
8.1984 3.6761 -2.7883
8.1998 3.9761 -2.9053
8.1989 3.7751 -2.8267
8.2003 4.0783 -2.9455
8.1994 3.8751 -2.8657
8.2018 4.3920 -3.0701
8.2008 4.1816 -2.9864
8.2023 4.4990 -3.1130
8.2013 4.2862 -3.0279
8.2029 4.6074 -3.1566
8.2039 4.8284 -3.2461
8.2034 4.7172 -3.2009
8.2044 4.9411 -3.2920
8.2061 5.2886 -3.4347
8.2050 5.0553 -3.3387
8.2067 5.4078 -3.4841
8.2056 5.1712 -3.3863
8.2073 5.5288 -3.5343
8.2085 5.7763 -3.6378
8.2079 5.6516 -3.5856
8.2091 5.9030 -3.6911
8.1914 6.2808 -3.8483
8.2076 6.0302 -3.7445
8.1831 6.4089 -3.9017
8.1729 6.5376 -3.9553
8.1995 6.1546 -3.7959
8.1581 6.6646 -4.0077
8.1431 6.7934 -4.0611
8.1072 7.3527 -4.2991
8.1279 6.9242 -4.1155
8.1066 7.5069 -4.3666
8.1125 7.0570 -4.1710
8.1060 7.6642 -4.4356
8.1078 7.2016 -4.2332
8.1382 7.8564 -4.5246
8.2130 8.0955 -4.6400
8.1290 -4.8908 0.1807
8.1296 -4.7850 0.1567
8.1302 -4.6805 0.1328
8.1308 -4.5771 0.1091
8.1314 -4.4749 0.0855
8.1320 -4.3738 0.0620
8.1326 -4.2737 0.0387
8.1332 -4.1747 0.0155
8.1360 -3.6937 -0.0990
8.1338 -4.0766 -0.0076
8.1366 -3.6002 -0.1216
8.1344 -3.9795 -0.0306
8.1371 -3.5074 -0.1442
8.1349 -3.8834 -0.0535
8.1355 -3.7881 -0.0763
8.1377 -3.4154 -0.1667
8.1382 -3.3242 -0.1891
8.1416 -2.9667 -0.2782
8.1387 -3.2337 -0.2114
8.1393 -3.1439 -0.2337
8.1421 -2.8787 -0.3004
8.1398 -3.0547 -0.2560
8.1425 -2.7914 -0.3225
8.1434 -2.6185 -0.3666
8.1430 -2.7047 -0.3446
8.1439 -2.5328 -0.3886
8.1452 -2.2788 -0.4546
8.1456 -2.1951 -0.4766
8.1460 -2.1118 -0.4986
8.1465 -2.0289 -0.5206
8.1469 -1.9463 -0.5426
8.1443 -2.4477 -0.4107
8.1473 -1.8642 -0.5646
8.1447 -2.3630 -0.4327
8.1477 -1.7824 -0.5867
8.1486 -1.6197 -0.6308
8.1490 -1.5389 -0.6529
8.1481 -1.7009 -0.6087
8.1494 -1.4583 -0.6750
8.1502 -1.2979 -0.7194
8.1498 -1.3780 -0.6972
8.1518 -0.9797 -0.8088
8.1506 -1.2180 -0.7417
8.1522 -0.9005 -0.8313
8.1526 -0.8216 -0.8539
8.1510 -1.1384 -0.7640
8.1530 -0.7427 -0.8765
8.1514 -1.0589 -0.7864
8.1534 -0.6640 -0.8993
8.1539 -0.5854 -0.9221
8.1551 -0.3499 -0.9910
8.1543 -0.5068 -0.9449
8.1547 -0.4283 -0.9679
8.1555 -0.2715 -1.0142
8.1567 -0.0363 -1.0844
8.1559 -0.1931 -1.0375
8.1699 0.0422 -1.1097
8.1563 -0.1147 -1.0609
8.1704 0.1208 -1.1335
8.1714 0.2782 -1.1815
8.1709 0.1994 -1.1575
8.1733 0.5943 -1.2792
8.1718 0.3570 -1.2057
8.1738 0.6737 -1.3040
8.1723 0.4360 -1.2301
8.1742 0.7532 -1.3290
8.1747 0.8330 -1.3542
8.1728 0.5151 -1.2546
8.1752 0.9130 -1.3795
8.1772 1.2353 -1.4827
8.1757 0.9932 -1.4050
8.1762 1.0736 -1.4307
8.1777 1.3166 -1.5091
8.1767 1.1543 -1.4566
8.1782 1.3982 -1.5356
8.1791 1.5624 -1.5893
8.1797 1.6451 -1.6166
8.1786 1.4801 -1.5624
8.1802 1.7281 -1.6440
8.1812 1.8955 -1.6997
8.1807 1.8116 -1.6718
8.1817 1.9798 -1.7280
8.1833 2.2358 -1.8144
8.1838 2.3222 -1.8438
8.1822 2.0647 -1.7565
8.1843 2.4091 -1.8735
8.1827 2.1500 -1.7853
8.1848 2.4967 -1.9036
8.1876 2.9440 -2.0588
8.1854 2.5848 -1.9339
8.1946 3.0380 -2.0926
8.1859 2.6736 -1.9646
8.1950 3.1303 -2.1252
8.1955 3.2235 -2.1581
8.1865 2.7630 -1.9957
8.1870 2.8532 -2.0271
8.1959 3.3175 -2.1915
8.1977 3.7023 -2.3293
8.1964 3.4123 -2.2253
8.1968 3.5081 -2.2595
8.1982 3.8009 -2.3650
8.1973 3.6047 -2.2942
8.1987 3.9006 -2.4011
8.1996 4.1030 -2.4749
8.1991 4.0012 -2.4377
8.2001 4.2059 -2.5126
8.2016 4.5219 -2.6292
8.2006 4.3100 -2.5509
8.2021 4.6298 -2.6693
8.2011 4.4153 -2.5898
8.2026 4.7391 -2.7100
8.2037 4.9618 -2.7935
8.2031 4.8497 -2.7514
8.2042 5.0754 -2.8362
8.2059 5.4259 -2.9690
8.2047 5.1906 -2.8797
8.2064 5.5461 -3.0148
8.2053 5.3074 -2.9240
8.2070 5.6682 -3.0615
8.2082 5.9179 -3.1574
8.2076 5.7921 -3.1090
8.2067 6.0442 -3.2059
8.1824 6.4200 -3.3490
8.1987 6.1677 -3.2528
8.1718 6.5473 -3.3975
8.1906 6.2929 -3.3004
8.1571 6.6732 -3.4452
8.1272 6.9306 -3.5432
8.1423 6.8010 -3.4938
8.1119 7.0622 -3.5936
8.1066 7.5083 -3.7698
8.1078 7.2059 -3.6500
8.1061 7.6641 -3.8318
8.1072 7.3556 -3.7092
8.1373 7.8538 -3.9106
8.2113 8.0903 -4.0122
8.2883 8.3364 -4.1182
8.1302 -4.7661 0.6056
8.1309 -4.6611 0.5792
8.1315 -4.5572 0.5529
8.1321 -4.4545 0.5269
8.1327 -4.3529 0.5011
8.1333 -4.2524 0.4755
8.1338 -4.1529 0.4501
8.1344 -4.0545 0.4248
8.1350 -3.9570 0.3998
8.1356 -3.8604 0.3749
8.1361 -3.7648 0.3501
8.1367 -3.6701 0.3255
8.1372 -3.5762 0.3011
8.1378 -3.4831 0.2768
8.1383 -3.3908 0.2526
8.1388 -3.2993 0.2286
8.1394 -3.2085 0.2046
8.1399 -3.1184 0.1808
8.1404 -3.0289 0.1571
8.1422 -2.9406 0.1335
8.1426 -2.8525 0.1100
8.1431 -2.7649 0.0865
8.1435 -2.6779 0.0632
8.1440 -2.5915 0.0399
8.1444 -2.5057 0.0167
8.1449 -2.4203 -0.0064
8.1453 -2.3355 -0.0295
8.1457 -2.2511 -0.0525
8.1462 -2.1672 -0.0754
8.1466 -2.0837 -0.0983
8.1470 -2.0006 -0.1212
8.1474 -1.9179 -0.1440
8.1479 -1.8356 -0.1668
8.1483 -1.7537 -0.1896
8.1487 -1.6721 -0.2123
8.1491 -1.5908 -0.2351
8.1495 -1.5098 -0.2578
8.1499 -1.4291 -0.2805
8.1504 -1.3487 -0.3032
8.1508 -1.2685 -0.3259
8.1512 -1.1886 -0.3486
8.1516 -1.1088 -0.3713
8.1520 -1.0293 -0.3940
8.1524 -0.9499 -0.4167
8.1528 -0.8707 -0.4395
8.1532 -0.7917 -0.4623
8.1536 -0.7128 -0.4851
8.1540 -0.6340 -0.5080
8.1544 -0.5553 -0.5309
8.1548 -0.4767 -0.5538
8.1552 -0.3982 -0.5768
8.1556 -0.3197 -0.5998
8.1560 -0.2413 -0.6230
8.1564 -0.1629 -0.6461
8.1568 -0.0844 -0.6694
8.1572 -0.0060 -0.6927
8.1695 0.0725 -0.7171
8.1700 0.1511 -0.7406
8.1705 0.2298 -0.7642
8.1710 0.3085 -0.7879
8.1714 0.3874 -0.8117
8.1719 0.4663 -0.8356
8.1734 0.7039 -0.9079
8.1724 0.5453 -0.8596
8.1738 0.7834 -0.9322
8.1729 0.6245 -0.8837
8.1743 0.8631 -0.9567
8.1753 1.0232 -1.0061
8.1748 0.9430 -0.9813
8.1758 1.1036 -1.0310
8.1763 1.1842 -1.0560
8.1772 1.3463 -1.1066
8.1768 1.2651 -1.0812
8.1777 1.4278 -1.1321
8.1792 1.6744 -1.2098
8.1782 1.5097 -1.1578
8.1797 1.7574 -1.2361
8.1787 1.5919 -1.1837
8.1802 1.8407 -1.2626
8.1812 2.0087 -1.3161
8.1807 1.9245 -1.2892
8.1818 2.0934 -1.3433
8.1833 2.3505 -1.4260
8.1823 2.1786 -1.3706
8.1838 2.4372 -1.4541
8.1828 2.2643 -1.3982
8.1844 2.5246 -1.4825
8.1854 2.7011 -1.5400
8.1849 2.6125 -1.5111
8.1860 2.7903 -1.5692
8.1940 3.0645 -1.6598
8.1865 2.8802 -1.5987
8.1944 3.1566 -1.6903
8.1871 2.9709 -1.6284
8.1948 3.2495 -1.7210
8.1957 3.4378 -1.7836
8.1953 3.3432 -1.7521
8.1961 3.5332 -1.8154
8.1975 3.8250 -1.9133
8.1966 3.6295 -1.8477
8.1980 3.9243 -1.9467
8.1970 3.7268 -1.8803
8.1984 4.0245 -1.9806
8.1994 4.2284 -2.0497
8.1989 4.1259 -2.0149
8.1999 4.3320 -2.0849
8.2013 4.6503 -2.1937
8.2004 4.4369 -2.1206
8.2019 4.7590 -2.2310
8.2008 4.5430 -2.1569
8.2024 4.8691 -2.2688
8.2034 5.0936 -2.3463
8.2029 4.9806 -2.3073
8.2040 5.2082 -2.3860
8.2056 5.5615 -2.5089
8.2045 5.3243 -2.4263
8.2062 5.6828 -2.5512
8.2051 5.4420 -2.4672
8.2068 5.8058 -2.5943
8.2073 5.9308 -2.6381
8.2059 6.0563 -2.6821
8.1709 6.5552 -2.8558
8.1980 6.1788 -2.7246
8.1563 6.6801 -2.8991
8.1899 6.3031 -2.7679
8.1818 6.4293 -2.8119
8.1115 7.0656 -3.0335
8.1416 6.8067 -2.9432
8.1078 7.2084 -3.0843
8.1266 6.9352 -2.9880
8.1072 7.3567 -3.1374
8.1061 7.6620 -3.2469
8.1066 7.5078 -3.1915
8.1357 7.8485 -3.3158
8.2089 8.0823 -3.4045
8.2850 8.3255 -3.4968
8.6855 8.9083 -3.7311
8.1315 -4.6424 1.0274
8.1321 -4.5380 0.9986
8.1327 -4.4348 0.9700
8.1333 -4.3327 0.9417
8.1339 -4.2318 0.9137
8.1345 -4.1319 0.8860
8.1350 -4.0330 0.8585
8.1356 -3.9351 0.8312
8.1362 -3.8382 0.8042
8.1367 -3.7422 0.7774
8.1373 -3.6471 0.7508
8.1378 -3.5529 0.7245
8.1384 -3.4595 0.6983
8.1389 -3.3669 0.6723
8.1395 -3.2750 0.6465
8.1400 -3.1839 0.6209
8.1405 -3.0936 0.5954
8.1411 -3.0039 0.5702
8.1428 -2.9153 0.5451
8.1432 -2.8269 0.5201
8.1437 -2.7391 0.4953
8.1441 -2.6519 0.4706
8.1445 -2.5653 0.4460
8.1450 -2.4792 0.4216
8.1454 -2.3937 0.3972
8.1458 -2.3086 0.3730
8.1463 -2.2241 0.3489
8.1467 -2.1400 0.3249
8.1471 -2.0563 0.3010
8.1476 -1.9731 0.2772
8.1480 -1.8903 0.2534
8.1484 -1.8078 0.2298
8.1488 -1.7257 0.2062
8.1492 -1.6440 0.1827
8.1497 -1.5626 0.1592
8.1501 -1.4815 0.1358
8.1505 -1.4007 0.1125
8.1509 -1.3202 0.0892
8.1513 -1.2399 0.0659
8.1517 -1.1598 0.0427
8.1521 -1.0800 0.0196
8.1525 -1.0004 -0.0036
8.1529 -0.9210 -0.0267
8.1534 -0.8417 -0.0498
8.1538 -0.7626 -0.0729
8.1542 -0.6837 -0.0960
8.1546 -0.6048 -0.1190
8.1550 -0.5261 -0.1421
8.1554 -0.4474 -0.1652
8.1558 -0.3689 -0.1883
8.1562 -0.2904 -0.2114
8.1566 -0.2119 -0.2345
8.1570 -0.1335 -0.2576
8.1574 -0.0550 -0.2808
8.1687 0.0234 -0.3044
8.1691 0.1020 -0.3276
8.1696 0.1806 -0.3509
8.1701 0.2592 -0.3743
8.1706 0.3380 -0.3977
8.1710 0.4168 -0.4211
8.1715 0.4957 -0.4446
8.1720 0.5747 -0.4682
8.1725 0.6539 -0.4919
8.1729 0.7332 -0.5156
8.1734 0.8127 -0.5394
8.1739 0.8923 -0.5633
8.1744 0.9722 -0.5872
8.1749 1.0523 -0.6113
8.1754 1.1326 -0.6355
8.1758 1.2131 -0.6598
8.1763 1.2940 -0.6842
8.1768 1.3751 -0.7087
8.1773 1.4565 -0.7333
8.1778 1.5383 -0.7581
8.1783 1.6203 -0.7829
8.1788 1.7028 -0.8080
8.1793 1.7856 -0.8332
8.1798 1.8688 -0.8585
8.1803 1.9525 -0.8840
8.1808 2.0366 -0.9096
8.1813 2.1211 -0.9355
8.1818 2.2061 -0.9615
8.1824 2.2916 -0.9876
8.1829 2.3777 -1.0140
8.1834 2.4643 -1.0406
8.1839 2.5514 -1.0674
8.1845 2.6392 -1.0944
8.1850 2.7275 -1.1216
8.1855 2.8165 -1.1490
8.1861 2.9062 -1.1767
8.1866 2.9966 -1.2047
8.1933 3.0899 -1.2338
8.1937 3.1818 -1.2622
8.1942 3.2744 -1.2909
8.1946 3.3678 -1.3199
8.1950 3.4620 -1.3492
8.1955 3.5571 -1.3788
8.1959 3.6531 -1.4087
8.1964 3.7500 -1.4390
8.1968 3.8479 -1.4695
8.1973 3.9468 -1.5004
8.1977 4.0466 -1.5317
8.1982 4.1476 -1.5633
8.1987 4.2496 -1.5953
8.1992 4.3528 -1.6277
8.1996 4.4572 -1.6605
8.2001 4.5627 -1.6937
8.2006 4.6696 -1.7273
8.2011 4.7778 -1.7614
8.2016 4.8873 -1.7960
8.2021 4.9982 -1.8310
8.2027 5.1105 -1.8665
8.2032 5.2244 -1.9026
8.2037 5.3399 -1.9392
8.2043 5.4569 -1.9763
8.2048 5.5756 -2.0140
8.2054 5.6961 -2.0522
8.2059 5.8184 -2.0911
8.2065 5.9425 -2.1307
8.2052 6.0671 -2.1703
8.1973 6.1888 -2.2089
8.1893 6.3121 -2.2480
8.1813 6.4373 -2.2878
8.1701 6.5619 -2.3273
8.1557 6.6858 -2.3666
8.1410 6.8114 -2.4064
8.1262 6.9388 -2.4469
8.1112 7.0680 -2.4879
8.1078 7.2096 -2.5333
8.1072 7.3565 -2.5805
8.1066 7.5062 -2.6287
8.1061 7.6589 -2.6778
8.1335 7.8416 -2.7375
8.2059 8.0728 -2.8139
8.2811 8.3131 -2.8934
8.6400 8.8507 -3.0761
8.1327 -4.5190 1.4480
8.1333 -4.4153 1.4168
8.1339 -4.3128 1.3859
8.1345 -4.2114 1.3553
8.1351 -4.1110 1.3251
8.1357 -4.0117 1.2952
8.1362 -3.9135 1.2657
8.1368 -3.8162 1.2364
8.1374 -3.7198 1.2074
8.1379 -3.6243 1.1787
8.1385 -3.5298 1.1503
8.1390 -3.4360 1.1222
8.1396 -3.3431 1.0943
8.1401 -3.2510 1.0667
8.1406 -3.1596 1.0392
8.1412 -3.0690 1.0121
8.1417 -2.9790 0.9851
8.1433 -2.8901 0.9585
8.1438 -2.8015 0.9320
8.1442 -2.7135 0.9056
8.1447 -2.6260 0.8794
8.1451 -2.5392 0.8535
8.1455 -2.4529 0.8277
8.1460 -2.3672 0.8021
8.1464 -2.2820 0.7766
8.1468 -2.1973 0.7513
8.1473 -2.1130 0.7261
8.1477 -2.0292 0.7011
8.1481 -1.9458 0.6763
8.1485 -1.8628 0.6515
8.1490 -1.7803 0.6269
8.1494 -1.6981 0.6024
8.1498 -1.6162 0.5781
8.1502 -1.5347 0.5538
8.1506 -1.4535 0.5296
8.1510 -1.3726 0.5056
8.1515 -1.2919 0.4816
8.1519 -1.2115 0.4577
8.1523 -1.1314 0.4339
8.1527 -1.0515 0.4102
8.1531 -0.9718 0.3866
8.1535 -0.8923 0.3630
8.1539 -0.8130 0.3395
8.1543 -0.7339 0.3160
8.1547 -0.6548 0.2926
8.1551 -0.5759 0.2692
8.1555 -0.4972 0.2459
8.1559 -0.4185 0.2226
8.1563 -0.3399 0.1994
8.1567 -0.2613 0.1762
8.1571 -0.1829 0.1530
8.1575 -0.1044 0.1298
8.1579 -0.0260 0.1066
8.1683 0.0525 0.0836
8.1687 0.1311 0.0604
8.1692 0.2097 0.0373
8.1697 0.2883 0.0141
8.1702 0.3670 -0.0091
8.1706 0.4458 -0.0323
8.1711 0.5247 -0.0555
8.1716 0.6037 -0.0788
8.1721 0.6828 -0.1020
8.1725 0.7621 -0.1253
8.1730 0.8415 -0.1487
8.1735 0.9211 -0.1720
8.1740 1.0009 -0.1955
8.1745 1.0809 -0.2190
8.1749 1.1611 -0.2425
8.1754 1.2416 -0.2661
8.1759 1.3224 -0.2898
8.1764 1.4034 -0.3135
8.1769 1.4847 -0.3373
8.1774 1.5664 -0.3612
8.1779 1.6483 -0.3852
8.1784 1.7307 -0.4093
8.1789 1.8134 -0.4334
8.1794 1.8964 -0.4577
8.1799 1.9799 -0.4821
8.1804 2.0639 -0.5066
8.1809 2.1483 -0.5312
8.1814 2.2331 -0.5560
8.1819 2.3185 -0.5809
8.1824 2.4043 -0.6059
8.1829 2.4907 -0.6311
8.1835 2.5777 -0.6564
8.1840 2.6652 -0.6819
8.1845 2.7534 -0.7075
8.1851 2.8421 -0.7334
8.1856 2.9316 -0.7594
8.1923 3.0239 -0.7861
8.1927 3.1148 -0.8125
8.1931 3.2063 -0.8391
8.1935 3.2987 -0.8659
8.1940 3.3918 -0.8929
8.1944 3.4857 -0.9202
8.1948 3.5805 -0.9477
8.1953 3.6761 -0.9754
8.1957 3.7727 -1.0034
8.1961 3.8702 -1.0316
8.1966 3.9686 -1.0601
8.1970 4.0681 -1.0889
8.1975 4.1686 -1.1180
8.1980 4.2702 -1.1474
8.1985 4.3729 -1.1770
8.1989 4.4768 -1.2071
8.1994 4.5819 -1.2374
8.1999 4.6882 -1.2681
8.2004 4.7958 -1.2992
8.2009 4.9048 -1.3306
8.2014 5.0151 -1.3624
8.2019 5.1268 -1.3946
8.2024 5.2400 -1.4272
8.2029 5.3548 -1.4603
8.2035 5.4711 -1.4938
8.2040 5.5891 -1.5278
8.2046 5.7088 -1.5622
8.2051 5.8302 -1.5971
8.2057 5.9535 -1.6326
8.2045 6.0774 -1.6682
8.1967 6.1981 -1.7030
8.1888 6.3206 -1.7383
8.1808 6.4447 -1.7740
8.1694 6.5681 -1.8095
8.1551 6.6910 -1.8449
8.1406 6.8155 -1.8808
8.1259 6.9418 -1.9171
8.1110 7.0698 -1.9540
8.1078 7.2104 -1.9943
8.1072 7.3559 -2.0360
8.1067 7.5041 -2.0785
8.1061 7.6553 -2.1218
8.1312 7.8341 -2.1727
8.2027 8.0627 -2.2376
8.2771 8.3003 -2.3049
8.5937 8.7921 -2.4429
8.1340 -4.3955 1.8692
8.1346 -4.2925 1.8355
8.1352 -4.1906 1.8023
8.1357 -4.0898 1.7695
8.1363 -3.9901 1.7371
8.1369 -3.8914 1.7051
8.1374 -3.7938 1.6734
8.1380 -3.6970 1.6421
8.1386 -3.6012 1.6112
8.1391 -3.5063 1.5806
8.1397 -3.4122 1.5504
8.1402 -3.3190 1.5205
8.1407 -3.2266 1.4909
8.1413 -3.1349 1.4615
8.1418 -3.0440 1.4325
8.1434 -2.9542 1.4040
8.1439 -2.8646 1.3755
8.1443 -2.7758 1.3473
8.1448 -2.6875 1.3193
8.1452 -2.5999 1.2916
8.1456 -2.5129 1.2641
8.1461 -2.4264 1.2369
8.1465 -2.3405 1.2099
8.1470 -2.2551 1.1831
8.1474 -2.1702 1.1565
8.1478 -2.0858 1.1301
8.1483 -2.0018 1.1039
8.1487 -1.9183 1.0779
8.1491 -1.8352 1.0521
8.1495 -1.7524 1.0264
8.1499 -1.6701 1.0009
8.1504 -1.5881 0.9756
8.1508 -1.5065 0.9505
8.1512 -1.4252 0.9254
8.1516 -1.3442 0.9006
8.1520 -1.2635 0.8758
8.1524 -1.1830 0.8512
8.1528 -1.1028 0.8268
8.1532 -1.0228 0.8024
8.1536 -0.9431 0.7782
8.1540 -0.8635 0.7541
8.1544 -0.7841 0.7300
8.1549 -0.7049 0.7061
8.1552 -0.6258 0.6823
8.1557 -0.5469 0.6586
8.1561 -0.4681 0.6349
8.1565 -0.3894 0.6114
8.1569 -0.3107 0.5879
8.1573 -0.2322 0.5645
8.1577 -0.1537 0.5411
8.1581 -0.0752 0.5178
8.1585 0.0032 0.4946
8.1679 0.0818 0.4719
8.1683 0.1603 0.4487
8.1688 0.2389 0.4256
8.1693 0.3175 0.4025
8.1698 0.3962 0.3795
8.1702 0.4749 0.3565
8.1707 0.5538 0.3335
8.1712 0.6327 0.3105
8.1717 0.7118 0.2875
8.1721 0.7910 0.2646
8.1726 0.8704 0.2416
8.1731 0.9499 0.2186
8.1736 1.0296 0.1957
8.1740 1.1096 0.1727
8.1745 1.1897 0.1497
8.1750 1.2701 0.1267
8.1755 1.3508 0.1037
8.1760 1.4317 0.0807
8.1765 1.5129 0.0576
8.1770 1.5945 0.0345
8.1775 1.6763 0.0113
8.1780 1.7585 -0.0119
8.1784 1.8411 -0.0352
8.1789 1.9240 -0.0585
8.1794 2.0074 -0.0819
8.1800 2.0912 -0.1053
8.1805 2.1754 -0.1288
8.1810 2.2601 -0.1524
8.1815 2.3453 -0.1761
8.1820 2.4309 -0.1999
8.1825 2.5171 -0.2237
8.1830 2.6039 -0.2477
8.1835 2.6912 -0.2718
8.1841 2.7792 -0.2960
8.1846 2.8677 -0.3203
8.1851 2.9569 -0.3447
8.1916 3.0490 -0.3695
8.1921 3.1395 -0.3942
8.1925 3.2308 -0.4191
8.1929 3.3228 -0.4441
8.1933 3.4157 -0.4692
8.1937 3.5093 -0.4945
8.1942 3.6037 -0.5200
8.1946 3.6990 -0.5457
8.1950 3.7952 -0.5715
8.1955 3.8923 -0.5976
8.1959 3.9904 -0.6238
8.1964 4.0895 -0.6503
8.1968 4.1896 -0.6770
8.1973 4.2907 -0.7039
8.1977 4.3930 -0.7310
8.1982 4.4964 -0.7584
8.1987 4.6010 -0.7860
8.1992 4.7067 -0.8139
8.1997 4.8138 -0.8421
8.2002 4.9222 -0.8706
8.2007 5.0319 -0.8993
8.2011 5.1430 -0.9284
8.2017 5.2556 -0.9578
8.2022 5.3697 -0.9875
8.2027 5.4853 -1.0176
8.2032 5.6025 -1.0480
8.2038 5.7214 -1.0788
8.2043 5.8421 -1.1100
8.2049 5.9645 -1.1416
8.2039 6.0876 -1.1734
8.1961 6.2075 -1.2046
8.1883 6.3290 -1.2361
8.1803 6.4522 -1.2681
8.1686 6.5743 -1.2999
8.1544 6.6962 -1.3316
8.1401 6.8197 -1.3638
8.1255 6.9449 -1.3963
8.1107 7.0718 -1.4291
8.1077 7.2113 -1.4646
8.1072 7.3554 -1.5011
8.1067 7.5023 -1.5382
8.1061 7.6519 -1.5759
8.1290 7.8270 -1.6190
8.1997 8.0531 -1.6728
8.2732 8.2879 -1.7285
8.5496 8.7363 -1.8292
8.1352 -4.2712 2.2928
8.1358 -4.1689 2.2567
8.1364 -4.0677 2.2211
8.1370 -3.9676 2.1860
8.1375 -3.8685 2.1514
8.1381 -3.7704 2.1172
8.1387 -3.6734 2.0835
8.1392 -3.5772 2.0502
8.1398 -3.4820 2.0173
8.1403 -3.3876 1.9848
8.1408 -3.2941 1.9527
8.1414 -3.2013 1.9210
8.1419 -3.1094 1.8897
8.1424 -3.0182 1.8587
8.1440 -2.9281 1.8283
8.1444 -2.8383 1.7979
8.1449 -2.7492 1.7679
8.1453 -2.6608 1.7382
8.1458 -2.5729 1.7089
8.1462 -2.4857 1.6798
8.1467 -2.3990 1.6510
8.1471 -2.3129 1.6225
8.1475 -2.2274 1.5942
8.1480 -2.1423 1.5662
8.1484 -2.0577 1.5385
8.1488 -1.9736 1.5110
8.1492 -1.8900 1.4838
8.1497 -1.8067 1.4568
8.1501 -1.7239 1.4300
8.1505 -1.6414 1.4034
8.1509 -1.5593 1.3771
8.1513 -1.4776 1.3509
8.1517 -1.3962 1.3249
8.1522 -1.3151 1.2992
8.1526 -1.2343 1.2736
8.1530 -1.1537 1.2482
8.1534 -1.0734 1.2230
8.1538 -0.9934 1.1979
8.1542 -0.9136 1.1730
8.1546 -0.8340 1.1483
8.1550 -0.7545 1.1237
8.1554 -0.6753 1.0992
8.1558 -0.5962 1.0749
8.1562 -0.5172 1.0507
8.1566 -0.4384 1.0266
8.1570 -0.3596 1.0027
8.1574 -0.2810 0.9789
8.1578 -0.2024 0.9552
8.1582 -0.1239 0.9316
8.1586 -0.0454 0.9081
8.1670 0.0331 0.8856
8.1675 0.1116 0.8622
8.1679 0.1901 0.8390
8.1684 0.2687 0.8159
8.1689 0.3473 0.7928
8.1694 0.4259 0.7698
8.1698 0.5046 0.7469
8.1703 0.5834 0.7240
8.1708 0.6623 0.7012
8.1713 0.7413 0.6785
8.1717 0.8205 0.6558
8.1722 0.8998 0.6331
8.1727 0.9793 0.6105
8.1732 1.0589 0.5880
8.1736 1.1388 0.5654
8.1741 1.2189 0.5429
8.1746 1.2992 0.5204
8.1751 1.3797 0.4980
8.1756 1.4605 0.4755
8.1761 1.5417 0.4531
8.1765 1.6231 0.4307
8.1770 1.7048 0.4083
8.1775 1.7869 0.3859
8.1780 1.8693 0.3634
8.1785 1.9521 0.3410
8.1790 2.0353 0.3185
8.1795 2.1190 0.2960
8.1800 2.2030 0.2735
8.1805 2.2875 0.2510
8.1810 2.3725 0.2284
8.1816 2.4580 0.2058
8.1821 2.5440 0.1832
8.1826 2.6306 0.1605
8.1831 2.7177 0.1377
8.1836 2.8054 0.1149
8.1841 2.8937 0.0921
8.1847 2.9827 0.0691
8.1910 3.0744 0.0461
8.1914 3.1647 0.0230
8.1918 3.2557 -0.0002
8.1923 3.3475 -0.0235
8.1927 3.4400 -0.0469
8.1931 3.5333 -0.0704
8.1935 3.6274 -0.0940
8.1939 3.7223 -0.1177
8.1944 3.8182 -0.1415
8.1948 3.9149 -0.1655
8.1953 4.0126 -0.1896
8.1957 4.1113 -0.2139
8.1961 4.2110 -0.2383
8.1966 4.3117 -0.2628
8.1971 4.4135 -0.2875
8.1975 4.5164 -0.3124
8.1980 4.6205 -0.3375
8.1985 4.7258 -0.3627
8.1989 4.8323 -0.3882
8.1994 4.9401 -0.4138
8.1999 5.0492 -0.4397
8.2004 5.1597 -0.4657
8.2009 5.2716 -0.4920
8.2014 5.3851 -0.5186
8.2019 5.5000 -0.5454
8.2025 5.6165 -0.5725
8.2030 5.7346 -0.5998
8.2035 5.8545 -0.6274
8.2041 5.9761 -0.6553
8.2032 6.0984 -0.6834
8.1955 6.2174 -0.7112
8.1877 6.3380 -0.7393
8.1798 6.4603 -0.7677
8.1678 6.5812 -0.7960
8.1538 6.7021 -0.8243
8.1395 6.8245 -0.8529
8.1251 6.9486 -0.8817
8.1104 7.0745 -0.9109
8.1077 7.2129 -0.9417
8.1072 7.3558 -0.9733
8.1067 7.5012 -1.0053
8.1061 7.6494 -1.0378
8.1272 7.8213 -1.0736
8.1972 8.0449 -1.1168
8.2698 8.2771 -1.1615
8.5104 8.6868 -1.2317
22.3162 23.6928 -3.4260
8.1365 -4.1457 2.7206
8.1371 -4.0441 2.6821
8.1376 -3.9436 2.6442
8.1382 -3.8441 2.6068
8.1388 -3.7457 2.5699
8.1393 -3.6482 2.5336
8.1399 -3.5517 2.4977
8.1404 -3.4562 2.4624
8.1410 -3.3615 2.4275
8.1415 -3.2677 2.3931
8.1420 -3.1747 2.3592
8.1426 -3.0825 2.3257
8.1431 -2.9910 2.2926
8.1446 -2.9007 2.2601
8.1450 -2.8106 2.2278
8.1455 -2.7213 2.1959
8.1459 -2.6326 2.1644
8.1464 -2.5446 2.1332
8.1468 -2.4572 2.1024
8.1472 -2.3703 2.0719
8.1477 -2.2841 2.0417
8.1481 -2.1983 2.0119
8.1485 -2.1131 1.9825
8.1490 -2.0284 1.9533
8.1494 -1.9441 1.9244
8.1498 -1.8603 1.8958
8.1502 -1.7770 1.8675
8.1507 -1.6940 1.8395
8.1511 -1.6115 1.8117
8.1515 -1.5293 1.7842
8.1519 -1.4474 1.7570
8.1523 -1.3659 1.7300
8.1527 -1.2847 1.7032
8.1531 -1.2039 1.6767
8.1535 -1.1232 1.6504
8.1539 -1.0429 1.6243
8.1544 -0.9628 1.5984
8.1548 -0.8829 1.5728
8.1552 -0.8033 1.5473
8.1556 -0.7238 1.5220
8.1560 -0.6445 1.4970
8.1564 -0.5653 1.4721
8.1568 -0.4863 1.4473
8.1572 -0.4075 1.4228
8.1576 -0.3287 1.3984
8.1580 -0.2501 1.3742
8.1584 -0.1715 1.3501
8.1588 -0.0929 1.3262
8.1592 -0.0145 1.3024
8.1666 0.0640 1.2799
8.1671 0.1425 1.2564
8.1675 0.2210 1.2330
8.1680 0.2995 1.2097
8.1685 0.3781 1.1866
8.1690 0.4567 1.1636
8.1694 0.5354 1.1407
8.1699 0.6141 1.1179
8.1704 0.6930 1.0952
8.1709 0.7719 1.0726
8.1713 0.8510 1.0501
8.1718 0.9303 1.0277
8.1723 1.0097 1.0053
8.1728 1.0892 0.9831
8.1732 1.1690 0.9609
8.1737 1.2490 0.9388
8.1742 1.3292 0.9168
8.1747 1.4097 0.8948
8.1752 1.4904 0.8729
8.1756 1.5714 0.8510
8.1761 1.6527 0.8292
8.1766 1.7343 0.8075
8.1771 1.8162 0.7858
8.1776 1.8985 0.7641
8.1781 1.9812 0.7424
8.1786 2.0643 0.7208
8.1791 2.1477 0.6992
8.1796 2.2316 0.6777
8.1801 2.3160 0.6561
8.1806 2.4008 0.6346
8.1811 2.4861 0.6131
8.1816 2.5719 0.5916
8.1821 2.6582 0.5701
8.1827 2.7451 0.5485
8.1832 2.8326 0.5270
8.1837 2.9207 0.5055
8.1900 3.0115 0.4843
8.1904 3.1009 0.4627
8.1908 3.1909 0.4410
8.1912 3.2816 0.4194
8.1916 3.3731 0.3977
8.1920 3.4653 0.3760
8.1925 3.5583 0.3542
8.1929 3.6520 0.3324
8.1933 3.7467 0.3105
8.1937 3.8422 0.2886
8.1942 3.9385 0.2666
8.1946 4.0358 0.2445
8.1950 4.1341 0.2223
8.1955 4.2334 0.2001
8.1959 4.3336 0.1778
8.1964 4.4350 0.1554
8.1968 4.5374 0.1329
8.1973 4.6410 0.1103
8.1978 4.7458 0.0876
8.1982 4.8518 0.0647
8.1987 4.9590 0.0418
8.1992 5.0676 0.0187
8.1997 5.1775 -0.0045
8.2002 5.2888 -0.0279
8.2007 5.4015 -0.0514
8.2012 5.5158 -0.0751
8.2017 5.6316 -0.0990
8.2022 5.7490 -0.1230
8.2027 5.8680 -0.1472
8.2033 5.9888 -0.1716
8.2024 6.1103 -0.1962
8.1948 6.2285 -0.2208
8.1870 6.3482 -0.2456
8.1792 6.4696 -0.2705
8.1669 6.5892 -0.2955
8.1529 6.7091 -0.3205
8.1388 6.8306 -0.3458
8.1245 6.9536 -0.3712
8.1100 7.0784 -0.3968
8.1077 7.2160 -0.4232
8.1072 7.3575 -0.4500
8.1067 7.5017 -0.4772
8.1061 7.6484 -0.5046
8.1261 7.8178 -0.5338
8.1953 8.0391 -0.5669
8.2672 8.2687 -0.6010
8.4789 8.6470 -0.6467
7.5612 -3.7336 2.9312
7.6741 -3.6940 2.9361
7.7887 -3.6533 2.9412
7.9050 -3.6117 2.9463
8.0231 -3.5690 2.9516
8.1406 -3.5242 2.9560
8.1411 -3.4283 2.9180
8.1417 -3.3334 2.8806
8.1422 -3.2393 2.8437
8.1427 -3.1460 2.8074
8.1433 -3.0535 2.7715
8.1447 -2.9622 2.7365
8.1452 -2.8712 2.7016
8.1456 -2.7810 2.6672
8.1461 -2.6914 2.6332
8.1465 -2.6026 2.5996
8.1470 -2.5144 2.5665
8.1474 -2.4268 2.5339
8.1478 -2.3397 2.5016
8.1483 -2.2533 2.4697
8.1487 -2.1674 2.4382
8.1491 -2.0821 2.4071
8.1496 -1.9972 2.3763
8.1500 -1.9128 2.3459
8.1504 -1.8289 2.3159
8.1508 -1.7454 2.2862
8.1512 -1.6624 2.2568
8.1517 -1.5797 2.2278
8.1521 -1.4974 2.1990
8.1525 -1.4155 2.1706
8.1529 -1.3339 2.1424
8.1533 -1.2527 2.1146
8.1537 -1.1717 2.0870
8.1541 -1.0910 2.0597
8.1545 -1.0106 2.0327
8.1549 -0.9305 2.0059
8.1554 -0.8505 1.9794
8.1558 -0.7708 1.9531
8.1562 -0.6913 1.9271
8.1566 -0.6120 1.9013
8.1570 -0.5328 1.8757
8.1574 -0.4538 1.8504
8.1578 -0.3749 1.8252
8.1582 -0.2962 1.8003
8.1586 -0.2175 1.7756
8.1590 -0.1389 1.7511
8.1594 -0.0604 1.7267
8.1598 0.0181 1.7026
8.1662 0.0966 1.6799
8.1667 0.1751 1.6561
8.1671 0.2535 1.6325
8.1676 0.3320 1.6091
8.1681 0.4105 1.5858
8.1686 0.4891 1.5627
8.1690 0.5677 1.5397
8.1695 0.6464 1.5169
8.1700 0.7252 1.4942
8.1705 0.8041 1.4717
8.1709 0.8831 1.4493
8.1714 0.9623 1.4270
8.1719 1.0416 1.4049
8.1724 1.1211 1.3829
8.1728 1.2008 1.3610
8.1733 1.2807 1.3392
8.1738 1.3608 1.3175
8.1743 1.4411 1.2960
8.1747 1.5217 1.2745
8.1752 1.6026 1.2532
8.1757 1.6838 1.2319
8.1762 1.7653 1.2107
8.1767 1.8471 1.1897
8.1772 1.9293 1.1687
8.1777 2.0118 1.1477
8.1782 2.0947 1.1269
8.1787 2.1780 1.1061
8.1792 2.2617 1.0854
8.1797 2.3459 1.0648
8.1802 2.4305 1.0442
8.1807 2.5156 1.0237
8.1812 2.6012 1.0032
8.1817 2.6874 0.9828
8.1822 2.7741 0.9624
8.1827 2.8613 0.9421
8.1833 2.9492 0.9218
8.1894 3.0397 0.9022
8.1898 3.1288 0.8820
8.1902 3.2186 0.8617
8.1906 3.3090 0.8416
8.1910 3.4002 0.8214
8.1914 3.4921 0.8012
8.1918 3.5848 0.7811
8.1922 3.6782 0.7610
8.1927 3.7725 0.7408
8.1931 3.8676 0.7207
8.1935 3.9637 0.7006
8.1939 4.0606 0.6805
8.1944 4.1585 0.6603
8.1948 4.2573 0.6402
8.1952 4.3572 0.6200
8.1957 4.4581 0.5998
8.1961 4.5601 0.5796
8.1966 4.6632 0.5593
8.1971 4.7674 0.5390
8.1975 4.8729 0.5187
8.1980 4.9796 0.4983
8.1985 5.0876 0.4778
8.1990 5.1969 0.4573
8.1994 5.3076 0.4368
8.1999 5.4197 0.4162
8.2004 5.5333 0.3955
8.2009 5.6484 0.3747
8.2014 5.7650 0.3538
8.2020 5.8833 0.3329
8.2025 6.0033 0.3118
8.2015 6.1240 0.2906
8.1939 6.2413 0.2691
8.1862 6.3602 0.2475
8.1785 6.4806 0.2258
8.1658 6.5989 0.2039
8.1519 6.7179 0.1819
8.1379 6.8383 0.1599
8.1237 6.9604 0.1378
8.1093 7.0841 0.1156
8.1077 7.2211 0.0934
8.1072 7.3614 0.0711
8.1067 7.5042 0.0486
8.1061 7.6496 0.0259
8.1260 7.8174 0.0031
8.1945 8.0365 -0.0202
8.2656 8.2638 -0.0442
8.4578 8.6202 -0.0698
6.7570 -3.2283 2.9864
6.8513 -3.1887 2.9912
6.9467 -3.1483 2.9961
7.0433 -3.1070 3.0012
7.1412 -3.0648 3.0063
7.2403 -3.0216 3.0116
7.3408 -2.9774 3.0169
7.4425 -2.9323 3.0224
7.5457 -2.8861 3.0280
7.6503 -2.8388 3.0338
7.7563 -2.7904 3.0397
7.8638 -2.7409 3.0457
7.9729 -2.6903 3.0518
8.0825 -2.6381 3.0577
8.1471 -2.5700 3.0463
8.1476 -2.4816 3.0111
8.1480 -2.3938 2.9764
8.1485 -2.3066 2.9422
8.1489 -2.2201 2.9084
8.1493 -2.1340 2.8751
8.1498 -2.0485 2.8422
8.1502 -1.9636 2.8098
8.1506 -1.8791 2.7777
8.1510 -1.7950 2.7461
8.1514 -1.7115 2.7149
8.1519 -1.6283 2.6840
8.1523 -1.5456 2.6536
8.1527 -1.4632 2.6234
8.1531 -1.3812 2.5937
8.1535 -1.2995 2.5643
8.1539 -1.2182 2.5352
8.1543 -1.1372 2.5065
8.1547 -1.0565 2.4781
8.1551 -0.9760 2.4500
8.1556 -0.8958 2.4222
8.1560 -0.8159 2.3948
8.1564 -0.7361 2.3676
8.1568 -0.6566 2.3407
8.1572 -0.5773 2.3141
8.1576 -0.4981 2.2877
8.1580 -0.4190 2.2617
8.1584 -0.3401 2.2359
8.1588 -0.2614 2.2103
8.1592 -0.1827 2.1850
8.1596 -0.1041 2.1600
8.1600 -0.0256 2.1351
8.1653 0.0529 2.1118
8.1658 0.1313 2.0875
8.1663 0.2098 2.0633
8.1667 0.2882 2.0394
8.1672 0.3666 2.0157
8.1677 0.4451 1.9922
8.1682 0.5236 1.9689
8.1686 0.6022 1.9458
8.1691 0.6808 1.9229
8.1696 0.7595 1.9002
8.1700 0.8384 1.8776
8.1705 0.9173 1.8553
8.1710 0.9964 1.8331
8.1715 1.0756 1.8111
8.1719 1.1550 1.7892
8.1724 1.2346 1.7675
8.1729 1.3144 1.7460
8.1734 1.3944 1.7246
8.1739 1.4747 1.7034
8.1743 1.5552 1.6823
8.1748 1.6359 1.6614
8.1753 1.7170 1.6406
8.1758 1.7983 1.6200
8.1763 1.8800 1.5994
8.1768 1.9620 1.5790
8.1773 2.0444 1.5588
8.1778 2.1272 1.5386
8.1782 2.2103 1.5186
8.1788 2.2939 1.4987
8.1792 2.3779 1.4789
8.1797 2.4623 1.4592
8.1802 2.5472 1.4396
8.1808 2.6327 1.4201
8.1813 2.7186 1.4007
8.1818 2.8051 1.3814
8.1823 2.8921 1.3622
8.1828 2.9797 1.3431
8.1888 3.0699 1.3250
8.1892 3.1588 1.3060
8.1896 3.2483 1.2871
8.1900 3.3385 1.2683
8.1904 3.4294 1.2496
8.1908 3.5210 1.2310
8.1912 3.6134 1.2124
8.1916 3.7065 1.1939
8.1920 3.8005 1.1754
8.1924 3.8952 1.1570
8.1928 3.9909 1.1387
8.1933 4.0875 1.1204
8.1937 4.1849 1.1022
8.1941 4.2834 1.0840
8.1946 4.3828 1.0658
8.1950 4.4833 1.0478
8.1955 4.5848 1.0297
8.1959 4.6875 1.0117
8.1964 4.7913 0.9937
8.1968 4.8962 0.9758
8.1973 5.0024 0.9578
8.1978 5.1098 0.9400
8.1982 5.2186 0.9221
8.1987 5.3286 0.9042
8.1992 5.4401 0.8864
8.1997 5.5531 0.8686
8.2002 5.6675 0.8507
8.2007 5.7835 0.8329
8.2012 5.9010 0.8151
8.2079 6.0248 0.7979
8.2005 6.1399 0.7793
8.1930 6.2564 0.7607
8.1853 6.3744 0.7422
8.1776 6.4940 0.7236
8.1644 6.6109 0.7046
8.1506 6.7289 0.6856
8.1367 6.8485 0.6666
8.1226 6.9695 0.6476
8.1084 7.0922 0.6286
8.1077 7.2288 0.6107
8.1072 7.3679 0.5927
8.1066 7.5095 0.5747
8.1061 7.6536 0.5566
8.1271 7.8212 0.5399
8.1951 8.0382 0.5261
8.2655 8.2632 0.5120
8.4495 8.6098 0.5043
6.3732 -2.9403 3.1710
6.3831 -2.8668 3.1395
6.3910 -2.7928 3.1076
6.3987 -2.7195 3.0761
6.4194 -2.6520 3.0513
6.5016 -2.6096 3.0558
6.5848 -2.5663 3.0604
6.6693 -2.5223 3.0653
6.7546 -2.4773 3.0703
6.8408 -2.4314 3.0754
6.9280 -2.3846 3.0806
7.0162 -2.3368 3.0859
7.1054 -2.2879 3.0913
7.1956 -2.2380 3.0968
7.2868 -2.1871 3.1025
7.3791 -2.1351 3.1082
7.4725 -2.0819 3.1141
7.5671 -2.0277 3.1201
7.6628 -1.9722 3.1262
7.7597 -1.9155 3.1324
7.8578 -1.8576 3.1388
7.9572 -1.7984 3.1454
8.0579 -1.7379 3.1520
8.1521 -1.6745 3.1558
8.1525 -1.5912 3.1233
8.1529 -1.5084 3.0913
8.1533 -1.4260 3.0597
8.1537 -1.3439 3.0285
8.1542 -1.2622 2.9978
8.1546 -1.1808 2.9674
8.1550 -1.0998 2.9374
8.1554 -1.0190 2.9078
8.1558 -0.9385 2.8785
8.1562 -0.8583 2.8496
8.1566 -0.7783 2.8211
8.1570 -0.6986 2.7929
8.1574 -0.6190 2.7650
8.1578 -0.5397 2.7375
8.1582 -0.4605 2.7103
8.1586 -0.3814 2.6834
8.1590 -0.3026 2.6568
8.1594 -0.2238 2.6305
8.1598 -0.1451 2.6046
8.1602 -0.0666 2.5789
8.1606 0.0119 2.5535
8.1649 0.0904 2.5296
8.1654 0.1688 2.5047
8.1659 0.2472 2.4801
8.1663 0.3256 2.4558
8.1668 0.4040 2.4318
8.1673 0.4824 2.4080
8.1678 0.5608 2.3844
8.1682 0.6394 2.3611
8.1687 0.7179 2.3380
8.1692 0.7966 2.3151
8.1697 0.8753 2.2925
8.1701 0.9542 2.2701
8.1706 1.0332 2.2479
8.1711 1.1124 2.2259
8.1715 1.1917 2.2042
8.1720 1.2712 2.1826
8.1725 1.3508 2.1613
8.1730 1.4308 2.1401
8.1735 1.5109 2.1191
8.1739 1.5913 2.0984
8.1744 1.6719 2.0778
8.1749 1.7528 2.0574
8.1754 1.8341 2.0372
8.1759 1.9156 2.0171
8.1764 1.9975 1.9973
8.1769 2.0797 1.9776
8.1773 2.1623 1.9581
8.1778 2.2453 1.9387
8.1783 2.3287 1.9195
8.1788 2.4125 1.9005
8.1793 2.4967 1.8816
8.1798 2.5815 1.8629
8.1803 2.6667 1.8443
8.1808 2.7524 1.8259
8.1813 2.8387 1.8076
8.1819 2.9255 1.7894
8.1878 3.0149 1.7726
8.1882 3.1028 1.7547
8.1885 3.1915 1.7369
8.1889 3.2807 1.7193
8.1893 3.3706 1.7018
8.1897 3.4612 1.6845
8.1901 3.5526 1.6672
8.1905 3.6446 1.6501
8.1910 3.7375 1.6331
8.1914 3.8311 1.6163
8.1918 3.9255 1.5995
8.1922 4.0209 1.5829
8.1926 4.1170 1.5664
8.1930 4.2142 1.5500
8.1935 4.3122 1.5337
8.1939 4.4113 1.5176
8.1943 4.5113 1.5015
8.1948 4.6124 1.4855
8.1952 4.7146 1.4697
8.1957 4.8179 1.4540
8.1961 4.9223 1.4383
8.1966 5.0280 1.4228
8.1970 5.1349 1.4073
8.1975 5.2431 1.3920
8.1980 5.3526 1.3767
8.1985 5.4635 1.3616
8.1989 5.5758 1.3465
8.1994 5.6896 1.3316
8.1999 5.8048 1.3167
8.2004 5.9217 1.3019
8.2067 6.0444 1.2881
8.1993 6.1587 1.2723
8.1918 6.2744 1.2565
8.1842 6.3917 1.2409
8.1761 6.5101 1.2253
8.1626 6.6258 1.2090
8.1490 6.7429 1.1928
8.1352 6.8615 1.1767
8.1212 6.9816 1.1607
8.1082 7.1043 1.1450
8.1076 7.2399 1.1311
8.1071 7.3779 1.1173
8.1066 7.5182 1.1036
8.1061 7.6611 1.0900
8.1299 7.8300 1.0797
8.1972 8.0452 1.0751
8.2670 8.2682 1.0706
8.4571 8.6194 1.0814
32.7066 33.9694 4.1290
33.1312 35.0669 4.1290
33.5647 36.2042 4.1290
32.9923 36.2681 4.0058
33.1872 37.1816 3.9766
5.7877 -2.5726 3.2104
5.8600 -2.5335 3.2152
5.9329 -2.4937 3.2200
6.0053 -2.4527 3.2244
6.0782 -2.4108 3.2288
6.1518 -2.3682 3.2334
6.2259 -2.3248 3.2379
6.3006 -2.2805 3.2426
6.3760 -2.2354 3.2474
6.3859 -2.1670 3.2189
6.3930 -2.0981 3.1895
6.4001 -2.0295 3.1605
6.4108 -1.9625 3.1338
6.4665 -1.9091 3.1293
6.5425 -1.8607 3.1344
6.6194 -1.8115 3.1397
6.6972 -1.7614 3.1452
6.7757 -1.7102 3.1508
6.8550 -1.6581 3.1566
6.9351 -1.6049 3.1624
7.0160 -1.5506 3.1683
7.0977 -1.4953 3.1744
7.1802 -1.4389 3.1806
7.2636 -1.3813 3.1869
7.3479 -1.3226 3.1933
7.4330 -1.2627 3.1999
7.5185 -1.2014 3.2063
7.6041 -1.1388 3.2126
7.6907 -1.0749 3.2189
7.7781 -1.0098 3.2254
7.8665 -0.9433 3.2321
7.9559 -0.8754 3.2388
8.0462 -0.8062 3.2457
8.1376 -0.7355 3.2527
8.1577 -0.6575 3.2313
8.1581 -0.5779 3.2023
8.1585 -0.4986 3.1738
8.1589 -0.4194 3.1456
8.1593 -0.3404 3.1178
8.1597 -0.2615 3.0903
8.1601 -0.1827 3.0632
8.1604 -0.1041 3.0365
8.1609 -0.0256 3.0101
8.1640 0.0529 2.9850
8.1645 0.1313 2.9593
8.1650 0.2097 2.9338
8.1655 0.2880 2.9087
8.1659 0.3664 2.8839
8.1664 0.4447 2.8594
8.1669 0.5231 2.8352
8.1674 0.6014 2.8113
8.1678 0.6799 2.7877
8.1683 0.7584 2.7643
8.1688 0.8369 2.7412
8.1693 0.9156 2.7184
8.1697 0.9944 2.6959
8.1702 1.0733 2.6736
8.1707 1.1524 2.6516
8.1712 1.2316 2.6299
8.1716 1.3110 2.6084
8.1721 1.3906 2.5871
8.1726 1.4703 2.5661
8.1731 1.5504 2.5453
8.1735 1.6306 2.5248
8.1740 1.7111 2.5045
8.1745 1.7919 2.4844
8.1750 1.8730 2.4646
8.1755 1.9544 2.4450
8.1760 2.0361 2.4256
8.1764 2.1182 2.4064
8.1769 2.2007 2.3874
8.1774 2.2835 2.3686
8.1779 2.3667 2.3501
8.1784 2.4503 2.3318
8.1789 2.5344 2.3136
8.1794 2.6190 2.2957
8.1799 2.7040 2.2780
8.1804 2.7895 2.2604
8.1809 2.8756 2.2431
8.1814 2.9622 2.2259
8.1872 3.0513 2.2104
8.1875 3.1390 2.1936
8.1879 3.2274 2.1770
8.1883 3.3164 2.1605
8.1887 3.4061 2.1443
8.1891 3.4964 2.1282
8.1895 3.5874 2.1123
8.1899 3.6792 2.0966
8.1903 3.7717 2.0811
8.1907 3.8651 2.0658
8.1911 3.9592 2.0506
8.1915 4.0542 2.0357
8.1920 4.1500 2.0208
8.1924 4.2468 2.0062
8.1928 4.3444 1.9918
8.1932 4.4431 1.9775
8.1937 4.5427 1.9634
8.1941 4.6434 1.9494
8.1945 4.7451 1.9357
8.1950 4.8480 1.9221
8.1954 4.9520 1.9087
8.1959 5.0571 1.8955
8.1963 5.1635 1.8824
8.1968 5.2712 1.8695
8.1973 5.3801 1.8568
8.1977 5.4904 1.8442
8.1982 5.6021 1.8319
8.1987 5.7153 1.8197
8.1992 5.8299 1.8076
8.1997 5.9461 1.7958
8.2052 6.0675 1.7852
8.1978 6.1811 1.7720
8.1904 6.2961 1.7590
8.1829 6.4125 1.7462
8.1739 6.5294 1.7332
8.1605 6.6443 1.7196
8.1470 6.7605 1.7061
8.1333 6.8782 1.6928
8.1194 6.9974 1.6798
8.1081 7.1205 1.6674
8.1076 7.2551 1.6575
8.1071 7.3919 1.6478
8.1066 7.5311 1.6383
8.1060 7.6728 1.6290
8.1346 7.8450 1.6257
8.2014 8.0585 1.6301
8.2706 8.2797 1.6351
8.4839 8.6532 1.6685
21.1028 21.9299 4.1290
21.1496 22.3934 4.1175
20.7742 22.4116 4.0247
20.6240 22.6708 3.9766
20.7197 23.2079 3.9766
20.8129 23.7556 3.9766
20.9036 24.3139 3.9766
20.9915 24.8831 3.9766
21.0766 25.4632 3.9766
5.2773 -2.2538 3.2389
5.3401 -2.2162 3.2434
5.4033 -2.1780 3.2480
5.4405 -2.1288 3.2370
5.5042 -2.0894 3.2417
5.5954 -2.0592 3.2624
5.6603 -2.0181 3.2673
5.7257 -1.9763 3.2723
5.7915 -1.9338 3.2774
5.8577 -1.8904 3.2826
5.9244 -1.8463 3.2878
5.9908 -1.8011 3.2928
6.0574 -1.7550 3.2976
6.1245 -1.7081 3.3026
6.1920 -1.6604 3.3076
6.2600 -1.6118 3.3127
6.3285 -1.5623 3.3180
6.3839 -1.5087 3.3162
6.3905 -1.4434 3.2893
6.3970 -1.3783 3.2628
6.4035 -1.3135 3.2367
6.4113 -1.2491 3.2116
6.4540 -1.1914 3.2042
6.5220 -1.1376 3.2094
6.5906 -1.0828 3.2147
6.6600 -1.0271 3.2203
6.7299 -0.9704 3.2259
6.8004 -0.9126 3.2316
6.8714 -0.8537 3.2375
6.9429 -0.7938 3.2434
7.0151 -0.7328 3.2495
7.0878 -0.6706 3.2556
7.1611 -0.6073 3.2619
7.2351 -0.5428 3.2683
7.3096 -0.4772 3.2748
7.3847 -0.4102 3.2814
7.4605 -0.3420 3.2882
7.5369 -0.2726 3.2950
7.6140 -0.2018 3.3020
7.6918 -0.1296 3.3092
7.7703 -0.0561 3.3164
7.8494 0.0188 3.3238
7.9293 0.0952 3.3314
8.0099 0.1730 3.3391
8.0905 0.2524 3.3466
8.1651 0.3330 3.3515
8.1656 0.4112 3.3261
8.1660 0.4895 3.3011
8.1665 0.5678 3.2764
8.1670 0.6461 3.2521
8.1674 0.7244 3.2280
8.1679 0.8029 3.2043
8.1684 0.8813 3.1810
8.1689 0.9599 3.1579
8.1693 1.0386 3.1352
8.1698 1.1174 3.1127
8.1703 1.1964 3.0906
8.1708 1.2755 3.0688
8.1712 1.3548 3.0473
8.1717 1.4342 3.0260
8.1722 1.5139 3.0051
8.1727 1.5938 2.9844
8.1731 1.6740 2.9640
8.1736 1.7543 2.9439
8.1741 1.8350 2.9241
8.1746 1.9160 2.9046
8.1751 1.9972 2.8853
8.1756 2.0788 2.8663
8.1760 2.1607 2.8476
8.1765 2.2430 2.8291
8.1770 2.3256 2.8108
8.1775 2.4087 2.7929
8.1780 2.4922 2.7752
8.1785 2.5761 2.7577
8.1790 2.6604 2.7405
8.1795 2.7453 2.7236
8.1800 2.8306 2.7069
8.1805 2.9165 2.6904
8.1810 3.0029 2.6742
8.1865 3.0917 2.6598
8.1869 3.1792 2.6440
8.1873 3.2673 2.6285
8.1877 3.3561 2.6132
8.1881 3.4455 2.5981
8.1885 3.5356 2.5833
8.1889 3.6263 2.5687
8.1893 3.7178 2.5544
8.1897 3.8101 2.5403
8.1901 3.9031 2.5264
8.1905 3.9969 2.5128
8.1909 4.0915 2.4994
8.1913 4.1871 2.4862
8.1917 4.2834 2.4733
8.1921 4.3808 2.4606
8.1926 4.4790 2.4482
8.1930 4.5783 2.4360
8.1934 4.6785 2.4240
8.1938 4.7799 2.4123
8.1943 4.8823 2.4008
8.1947 4.9858 2.3895
8.1952 5.0905 2.3785
8.1956 5.1964 2.3678
8.1961 5.3035 2.3572
8.1965 5.4119 2.3470
8.1970 5.5217 2.3370
8.1975 5.6328 2.3272
8.1979 5.7454 2.3177
8.1984 5.8594 2.3085
8.1989 5.9749 2.2995
8.2034 6.0950 2.2919
8.1812 6.4377 2.2608
8.1961 6.2078 2.2813
8.1711 6.5529 2.2503
8.1887 6.3221 2.2709
8.1579 6.6669 2.2392
8.1308 6.8991 2.2178
8.1171 7.0174 2.2075
8.1444 6.7823 2.2284
8.1080 7.1414 2.1988
8.1070 7.4108 2.1870
8.1075 7.2750 2.1927
8.1065 7.5489 2.1816
8.2079 8.0794 2.1947
8.1060 7.6894 2.1764
8.2766 8.2989 2.2091
8.1416 7.8674 2.1813
8.5335 8.7161 2.2739
15.5398 16.4702 4.1290
15.5191 16.1468 4.1290
15.5578 16.7974 4.1290
15.5943 17.8024 4.1290
15.5729 17.1286 4.1290
15.6005 18.1451 4.1290
15.5852 17.4636 4.1290
15.6034 18.4916 4.1290
15.6029 18.8418 4.1290
15.5991 19.1957 4.1290
4.8347 -1.9772 3.2636
4.8897 -1.9413 3.2679
4.9450 -1.9048 3.2723
5.0006 -1.8677 3.2767
5.0565 -1.8299 3.2812
5.1126 -1.7915 3.2858
5.1690 -1.7524 3.2904
5.2258 -1.7127 3.2951
5.2828 -1.6723 3.2999
5.3401 -1.6312 3.3048
5.3977 -1.5894 3.3097
5.4292 -1.5394 3.2987
5.4872 -1.4964 3.3038
5.5724 -1.4597 3.3250
5.6313 -1.4149 3.3302
5.6905 -1.3694 3.3356
5.7500 -1.3232 3.3410
5.8098 -1.2761 3.3465
5.8697 -1.2282 3.3519
5.9299 -1.1794 3.3574
5.9893 -1.1296 3.3623
6.0487 -1.0790 3.3672
6.1085 -1.0275 3.3721
6.1685 -0.9751 3.3772
6.2289 -0.9219 3.3823
6.2895 -0.8677 3.3875
6.3505 -0.8127 3.3928
6.3887 -0.7541 3.3859
6.3945 -0.6914 3.3621
6.4003 -0.6288 3.3386
6.4060 -0.5664 3.3155
6.4116 -0.5040 3.2928
6.4283 -0.4425 3.2760
6.4884 -0.3834 3.2814
6.5493 -0.3233 3.2872
6.6106 -0.2623 3.2931
6.6725 -0.2001 3.2992
6.7348 -0.1370 3.3055
6.7974 -0.0727 3.3118
6.8604 -0.0074 3.3182
6.9237 0.0591 3.3248
6.9874 0.1267 3.3314
7.0515 0.1955 3.3382
7.1152 0.2654 3.3447
7.1786 0.3365 3.3510
7.2423 0.4089 3.3575
7.3064 0.4824 3.3640
7.3708 0.5572 3.3706
7.4356 0.6333 3.3774
7.5007 0.7107 3.3842
7.5662 0.7894 3.3912
7.6320 0.8695 3.3983
7.6982 0.9509 3.4055
7.7647 1.0338 3.4129
7.8316 1.1181 3.4203
7.8989 1.2038 3.4279
7.9665 1.2911 3.4356
8.0345 1.3799 3.4435
8.1723 1.6420 3.4391
8.1029 1.4702 3.4515
8.1728 1.7220 3.4188
8.1732 1.8023 3.3988
8.1716 1.5622 3.4596
8.1737 1.8828 3.3792
8.1742 1.9636 3.3599
8.1761 2.2901 3.2857
8.1747 2.0447 3.3409
8.1766 2.3726 3.2680
8.1751 2.1262 3.3222
8.1771 2.4554 3.2505
8.1756 2.2079 3.3038
8.1776 2.5387 3.2334
8.1781 2.6225 3.2166
8.1801 2.9621 3.1522
8.1786 2.7067 3.2000
8.1855 3.0501 3.1388
8.1791 2.7913 3.1838
8.1859 3.1368 3.1237
8.1796 2.8764 3.1679
8.1863 3.2241 3.1088
8.1867 3.3120 3.0943
8.1882 3.6700 3.0392
8.1871 3.4005 3.0801
8.1886 3.7612 3.0261
8.1874 3.4897 3.0662
8.1890 3.8532 3.0134
8.1878 3.5795 3.0525
8.1894 3.9459 3.0009
8.1898 4.0394 2.9888
8.1915 4.4220 2.9431
8.1902 4.1338 2.9769
8.1919 4.5199 2.9324
8.1906 4.2290 2.9653
8.1923 4.6188 2.9220
8.1910 4.3250 2.9541
8.1927 4.7187 2.9120
8.1931 4.8196 2.9022
8.1949 5.2343 2.8663
8.1936 4.9216 2.8928
8.1953 5.3410 2.8581
8.1940 5.0247 2.8836
8.1958 5.4489 2.8503
8.1945 5.1289 2.8748
8.1963 5.5581 2.8428
8.1967 5.6687 2.8356
8.2013 6.1274 2.8111
8.1972 5.7807 2.8287
8.1977 5.8941 2.8222
8.1940 6.2396 2.8030
8.1982 6.0090 2.8160
8.1867 6.3532 2.7952
8.1678 6.5813 2.7793
8.1793 6.4681 2.7878
8.1546 6.6946 2.7707
8.1142 7.0425 2.7470
8.1413 6.8092 2.7625
8.1079 7.1681 2.7423
8.1278 6.9251 2.7545
8.1074 7.3007 2.7400
8.1064 7.5726 2.7367
8.1069 7.4355 2.7382
8.1059 7.7120 2.7357
8.2855 8.3273 2.7967
8.1513 7.8983 2.7507
8.6109 8.8139 2.9076
8.2172 8.1091 2.7730
12.2212 12.7401 4.1290
12.2003 13.1926 4.1290
12.1862 13.4214 4.1290
12.2119 12.9655 4.1290
12.1697 13.6518 4.1290
12.1291 14.1173 4.1290
12.1507 13.8838 4.1290
12.1049 14.3524 4.1290
12.0779 14.5889 4.1290
12.0483 14.8269 4.1290
12.0158 15.0662 4.1290
4.4430 -1.7331 3.2835
4.4914 -1.6989 3.2875
4.5400 -1.6640 3.2915
4.5888 -1.6287 3.2956
4.6377 -1.5927 3.2997
4.6868 -1.5562 3.3039
4.7360 -1.5191 3.3081
4.7855 -1.4814 3.3124
4.8351 -1.4431 3.3167
4.8849 -1.4041 3.3212
4.9348 -1.3646 3.3256
4.9849 -1.3244 3.3302
5.0352 -1.2836 3.3348
5.0857 -1.2422 3.3395
5.1363 -1.2001 3.3442
5.1871 -1.1573 3.3490
5.2382 -1.1138 3.3539
5.2894 -1.0697 3.3588
5.3407 -1.0248 3.3638
5.3923 -0.9793 3.3689
5.4193 -0.9288 3.3587
5.4710 -0.8820 3.3639
5.5481 -0.8382 3.3845
5.6004 -0.7897 3.3899
5.6529 -0.7404 3.3953
5.7056 -0.6904 3.4009
5.7584 -0.6396 3.4065
5.8115 -0.5879 3.4121
5.8648 -0.5354 3.4179
5.9182 -0.4821 3.4237
5.9713 -0.4280 3.4293
6.0238 -0.3729 3.4346
6.0766 -0.3170 3.4400
6.1295 -0.2602 3.4454
6.1826 -0.2026 3.4509
6.2358 -0.1440 3.4566
6.2892 -0.0846 3.4623
6.3428 -0.0242 3.4680
6.3909 0.0370 3.4709
6.3961 0.0985 3.4505
6.4011 0.1599 3.4305
6.4062 0.2214 3.4109
6.4111 0.2829 3.3914
6.4159 0.3445 3.3723
6.4298 0.4067 3.3582
6.6299 0.6730 3.3783
6.4751 0.4715 3.3608
6.6819 0.7422 3.3844
6.5265 0.5376 3.3665
6.7341 0.8125 3.3906
6.5835 0.6053 3.3751
6.7863 0.8838 3.3969
6.8387 0.9563 3.4033
7.0492 1.2575 3.4299
6.8911 1.0299 3.4098
7.1021 1.3357 3.4368
6.9437 1.1046 3.4164
7.1550 1.4152 3.4438
6.9964 1.1805 3.4231
7.2081 1.4958 3.4509
7.2612 1.5777 3.4581
7.4694 1.9169 3.4857
7.3144 1.6609 3.4654
7.5210 2.0048 3.4926
7.3663 1.7450 3.4722
7.5725 2.0941 3.4996
7.4178 1.8303 3.4789
7.6241 2.1846 3.5067
7.6756 2.2765 3.5139
7.7271 2.3699 3.5212
7.8814 2.6583 3.5438
7.7786 2.4646 3.5286
7.9327 2.7574 3.5516
7.8300 2.5607 3.5362
7.9840 2.8580 3.5594
8.0862 3.0637 3.5755
8.0351 2.9601 3.5674
8.1362 3.1685 3.5833
8.1846 3.2743 3.5906
8.1864 3.4507 3.5643
8.1860 3.3624 3.5775
8.1868 3.5396 3.5514
8.1880 3.8104 3.5150
8.1884 3.9021 3.5035
8.1872 3.6291 3.5389
8.1888 3.9945 3.4924
8.1876 3.7194 3.5268
8.1892 4.0877 3.4817
8.1912 4.5666 3.4334
8.1916 4.6651 3.4248
8.1896 4.1818 3.4713
8.1920 4.7646 3.4166
8.1924 4.8652 3.4088
8.1900 4.2766 3.4613
8.1929 4.9668 3.4013
8.1904 4.3724 3.4516
8.1933 5.0694 3.3943
8.1908 4.4690 3.4423
8.1937 5.1733 3.3876
8.1942 5.2783 3.3813
8.1946 5.3845 3.3754
8.1964 5.8221 3.3559
8.1951 5.4919 3.3699
8.1969 5.9350 3.3521
8.1955 5.6006 3.3648
8.1960 5.7107 3.3602
8.2059 6.0556 3.3522
8.1988 6.1659 3.3461
8.1916 6.2774 3.3404
8.1507 6.7281 3.3175
8.1843 6.3903 3.3352
8.1375 6.8419 3.3117
8.1768 6.5044 3.3303
8.1638 6.6156 3.3237
8.1078 7.2013 3.3014
8.1241 6.9570 3.3063
8.1073 7.3330 3.3028
8.1105 7.0736 3.3014
8.1068 7.4669 3.3048
8.1058 7.7414 3.3104
8.1063 7.6030 3.3073
8.1641 7.9394 3.3381
8.7218 8.9542 3.5824
8.2298 8.1492 3.3694
8.2977 8.3663 3.4024
9.6634 10.1018 3.9766
9.5973 10.5930 3.9766
9.6432 10.2648 3.9766
9.5715 10.7582 3.9766
9.6212 10.4285 3.9766
9.5438 10.9240 3.9766
9.5140 11.0905 3.9766
9.4823 11.2576 3.9766
9.4484 11.4252 3.9766
9.4125 11.5933 3.9766
9.7338 12.2127 4.1290
9.6921 12.3882 4.1290
4.0925 -1.5153 3.2994
4.1355 -1.4828 3.3031
4.1786 -1.4497 3.3068
4.2649 -1.3820 3.3145
4.2217 -1.4161 3.3107
4.3082 -1.3474 3.3184
4.4387 -1.2405 3.3305
4.3517 -1.3123 3.3224
4.3951 -1.2767 3.3264
4.4824 -1.2037 3.3346
4.6139 -1.0902 3.3473
4.7905 -0.9307 3.3650
4.5262 -1.1664 3.3388
4.8349 -0.8894 3.3696
4.6579 -1.0512 3.3516
4.5700 -1.1286 3.3430
4.8793 -0.8474 3.3742
4.7021 -1.0116 3.3560
5.1477 -0.5824 3.4033
4.7462 -0.9715 3.3605
4.9239 -0.8049 3.3789
5.1928 -0.5359 3.4084
5.3282 -0.3924 3.4240
5.6926 0.0223 3.4687
5.4849 -0.1902 3.4301
4.9685 -0.7617 3.3837
5.2378 -0.4888 3.4135
5.3736 -0.3431 3.4293
5.7385 0.0775 3.4746
5.5555 -0.1389 3.4514
5.2830 -0.4409 3.4187
5.0132 -0.7178 3.3885
5.7843 0.1336 3.4806
5.3944 -0.2918 3.4191
5.6012 -0.0859 3.4571
5.8746 0.2481 3.4919
5.0579 -0.6733 3.3933
5.8295 0.1905 3.4862
5.4396 -0.2414 3.4246
5.6469 -0.0322 3.4628
5.9200 0.3066 3.4977
5.1028 -0.6282 3.3983
6.0538 0.4870 3.5143
6.2297 0.7391 3.5361
6.3961 1.0039 3.5541
5.9658 0.3660 3.5039
6.4128 1.2538 3.4924
6.0978 0.5487 3.5196
6.2736 0.8043 3.5417
6.4003 1.0661 3.5382
6.0098 0.4261 3.5091
6.4168 1.3168 3.4777
6.1418 0.6113 3.5251
6.3175 0.8704 3.5474
6.4045 1.1285 3.5226
6.4567 1.5137 3.4505
6.4208 1.3800 3.4633
6.3614 0.9374 3.5532
6.1858 0.6748 3.5305
6.4087 1.1910 3.5074
6.4979 1.5871 3.4568
6.4303 1.4447 3.4523
6.7759 2.1271 3.4997
6.5391 1.6615 3.4632
6.6187 1.8127 3.4751
6.9299 2.4583 3.5256
6.8147 2.2083 3.5060
7.0801 2.8071 3.5528
6.6583 1.8897 3.4811
6.5876 1.7389 3.4737
6.9678 2.5438 3.5322
6.8533 2.2905 3.5125
7.1170 2.8971 3.5598
6.6976 1.9678 3.4872
7.0055 2.6304 3.5390
7.2249 3.1738 3.5809
6.8917 2.3739 3.5190
7.1536 2.9883 3.5669
7.0429 2.7182 3.5458
6.7368 2.0469 3.4934
7.2586 3.2677 3.5873
7.3573 3.5562 3.6070
7.1899 3.0807 3.5741
7.6001 4.3780 3.6631
7.2919 3.3627 3.5938
7.4827 3.9574 3.6344
7.3893 3.6547 3.6138
7.7032 4.8152 3.6906
7.3248 3.4589 3.6004
7.5128 4.0607 3.6414
7.6281 4.4862 3.6704
7.4209 3.7544 3.6206
7.7262 4.9269 3.6971
7.7908 5.2690 3.7171
7.5425 4.1652 3.6486
7.4521 3.8553 3.6274
7.6551 4.5955 3.6777
7.8108 5.3855 3.7239
7.5716 4.2710 3.6558
7.8301 5.5031 3.7308
7.8659 5.7420 3.7447
7.9225 6.2307 3.7713
7.8484 5.6220 3.7377
7.8826 5.8633 3.7518
7.9327 6.3545 3.7773
7.9567 6.7324 3.7957
7.8983 5.9857 3.7589
7.9418 6.4794 3.7834
7.9625 6.8605 3.8019
7.9114 6.1080 3.7653
7.9498 6.6054 3.7895
7.9672 6.9896 3.8082
7.9730 7.2510 3.8209
7.6795 4.7048 3.6841
7.9707 7.1198 3.8145
7.9740 7.3833 3.8273
7.9841 7.8002 3.8538
7.9848 8.3786 3.8931
7.9384 8.9486 3.9216
7.9657 7.5088 3.8298
7.9799 7.9366 3.8604
7.9738 8.5180 3.8993
7.9290 9.1001 3.9318
7.9704 7.6490 3.8393
7.9892 8.0891 3.8743
7.9679 8.6654 3.9088
7.9067 9.2397 3.9366
7.9814 8.2267 3.8806
7.9562 8.8091 3.9163
7.8822 9.3790 3.9410
7.7485 5.0398 3.7037
7.8576 9.5209 3.9463
7.7700 5.1538 3.7104
7.8310 9.6629 3.9514
7.7987 9.8002 3.9545
7.7637 9.9369 3.9572
7.7266 10.0732 3.9597
