ply
format ascii 1.0
element vertex 694
property float32 x
property float32 y
property float32 z
property float32 vx
property float32 vy
property float32 vz
end_header
-7.563225746154785 -27.78771209716797 -5.07797908782959 0.0 0.0 0.0
33.40275573730469 -23.60060691833496 -7.211707592010498 0.0 0.0 0.0
11.130620956420898 -4.7001543045043945 -2.1304662227630615 0.0 0.0 0.0
-6.401908874511719 -27.36444091796875 -4.95538854598999 0.0 0.0 0.0
34.74445343017578 -22.722843170166016 -7.32033634185791 0.0 0.0 0.0
13.251412391662598 -5.042927265167236 -2.500094175338745 0.0 0.0 0.0
-8.676909446716309 -44.18891906738281 -7.940515995025635 0.0 0.0 0.0
31.98981285095215 1.0091443061828613 -5.643543720245361 0.0 0.0 0.0
12.125083923339844 -4.12213659286499 -2.2581849098205566 0.0 0.0 0.0
31.740402221679688 2.144437074661255 -5.609514236450195 0.0 0.0 0.0
-7.118601322174072 -44.688255310058594 -7.979115009307861 0.0 0.0 0.0
11.286543846130371 -3.3900082111358643 -2.0779826641082764 0.0 0.0 0.0
34.18617630004883 3.546966552734375 -6.060373783111572 0.0 0.0 0.0
20.448497772216797 14.180333137512207 -4.387783050537109 0.0 0.0 0.0
11.362918853759766 -2.9724690914154053 -2.071038007736206 0.0 0.0 0.0
31.437152862548828 4.408010959625244 -5.597506523132324 0.0 0.0 0.0
20.665058135986328 15.458446502685547 -4.550526142120361 0.0 0.0 0.0
33.87490463256836 5.997532844543457 -6.066022872924805 0.0 0.0 0.0
11.58796215057373 -2.5905253887176514 -2.0937345027923584 0.0 0.0 0.0
25.139570236206055 5.38873291015625 -4.5335259437561035 0.0 0.0 0.0
20.910253524780273 16.8463077545166 -4.734785079956055 0.0 0.0 0.0
22.063817977905273 5.565304279327393 -4.012345314025879 0.0 0.0 0.0
11.87882137298584 -2.210847854614258 -2.1305534839630127 0.0 0.0 0.0
22.152555465698242 6.442228317260742 -4.067958831787109 0.0 0.0 0.0
21.18880271911621 18.363954544067383 -4.9441094398498535 0.0 0.0 0.0
22.255992889404297 7.349005699157715 -4.132784843444824 0.0 0.0 0.0
11.85145092010498 -1.7679964303970337 -2.1128830909729004 0.0 0.0 0.0
22.37529182434082 8.290947914123535 -4.207552909851074 0.0 0.0 0.0
21.506629943847656 20.0364933013916 -5.1829514503479 0.0 0.0 0.0
22.511842727661133 9.27412223815918 -4.293132781982422 0.0 0.0 0.0
12.242518424987793 -1.3789435625076294 -2.1723647117614746 0.0 0.0 0.0
14.3082275390625 6.505049705505371 -2.7714507579803467 0.0 0.0 0.0
21.87118911743164 21.895263671875 -5.456912040710449 0.0 0.0 0.0
22.843767166137695 11.392793655395508 -4.501159191131592 0.0 0.0 0.0
49.09732437133789 -3.7503843307495117 -8.682518005371094 0.0 0.0 0.0
22.292152404785156 23.980722427368164 -5.773257255554199 0.0 0.0 0.0
23.04356575012207 12.545479774475098 -4.626380443572998 0.0 0.0 0.0
49.200355529785156 -1.9845250844955444 -8.682512283325195 0.0 0.0 0.0
23.269662857055664 13.774415016174316 -4.768080711364746 0.0 0.0 0.0
22.781959533691406 26.344940185546875 -6.141340732574463 0.0 0.0 0.0
31.938127517700195 -0.14020125567913055 -5.631678104400635 0.0 0.0 0.0
21.81884765625 13.997589111328125 -4.570923805236816 0.0 0.0 0.0
30.849836349487305 38.3784065246582 -8.682435989379883 0.0 0.0 0.0
18.705974578857422 45.54888916015625 -8.682405471801758 0.0 0.0 0.0
-7.5901923179626465 40.53358459472656 -7.271336078643799 0.0 0.0 0.0
17.057981491088867 46.19134521484375 -8.682394981384277 0.0 0.0 0.0
29.451534271240234 39.461647033691406 -8.682435989379883 0.0 0.0 0.0
15.387910842895508 46.77421951293945 -8.682394981384277 0.0 0.0 0.0
28.01519203186035 40.493995666503906 -8.682430267333984 0.0 0.0 0.0
-9.011252403259277 40.10182189941406 -7.24729585647583 0.0 0.0 0.0
13.698043823242188 47.29671096801758 -8.682394981384277 0.0 0.0 0.0
26.542724609375 41.47407531738281 -8.682424545288086 0.0 0.0 0.0
11.990439414978027 47.75819396972656 -8.682388305664062 0.0 0.0 0.0
-12.514111518859863 47.62367248535156 -8.68233585357666 0.0 0.0 0.0
25.035966873168945 42.400657653808594 -8.682424545288086 0.0 0.0 0.0
10.26742172241211 48.15803146362305 -8.68238353729248 0.0 0.0 0.0
-7.09652042388916 23.53278923034668 -4.333992004394531 0.0 0.0 0.0
8.531084060668945 48.495731353759766 -8.682377815246582 0.0 0.0 0.0
23.496931076049805 43.27250289916992 -8.682418823242188 0.0 0.0 0.0
6.78379487991333 48.77084732055664 -8.682372093200684 0.0 0.0 0.0
21.927532196044922 44.08853530883789 -8.682412147521973 0.0 0.0 0.0
-8.133453369140625 23.838064193725586 -4.441180229187012 0.0 0.0 0.0
5.027683258056641 48.98303985595703 -8.682372093200684 0.0 0.0 0.0
20.329891204833984 44.84763717651367 -8.682412147521973 0.0 0.0 0.0
3.265165328979492 49.132015228271484 -8.682372093200684 0.0 0.0 0.0
1.4983625411987305 49.217586517333984 -8.682365417480469 0.0 0.0 0.0
-8.857144355773926 23.19727325439453 -4.37827730178833 0.0 0.0 0.0
-0.2703024744987488 49.239646911621094 -8.68235969543457 0.0 0.0 0.0
-22.221044540405273 23.384008407592773 -5.687910556793213 0.0 0.0 0.0
-2.038700580596924 49.19816970825195 -8.68235969543457 0.0 0.0 0.0
-9.605643272399902 22.67782974243164 -4.342589855194092 0.0 0.0 0.0
-3.8043746948242188 49.09320831298828 -8.682353019714355 0.0 0.0 0.0
-7.672047138214111 7.513641357421875 -1.8934614658355713 0.0 0.0 0.0
-20.82110595703125 44.62171936035156 -8.682324409484863 0.0 0.0 0.0
-5.565245151519775 48.92488479614258 -8.682348251342773 0.0 0.0 0.0
-22.41032600402832 43.84511184692383 -8.682317733764648 0.0 0.0 0.0
-23.970661163330078 43.01190185546875 -8.682312965393066 0.0 0.0 0.0
-7.318852424621582 48.69343566894531 -8.682348251342773 0.0 0.0 0.0
-8.027261734008789 7.315554618835449 -1.915006160736084 0.0 0.0 0.0
-25.500030517578125 42.12321090698242 -8.682312965393066 0.0 0.0 0.0
-26.996543884277344 41.18013000488281 -8.682307243347168 0.0 0.0 0.0
-21.980690002441406 5.288326740264893 -3.9863336086273193 0.0 0.0 0.0
-28.458131790161133 40.1839714050293 -8.682307243347168 0.0 0.0 0.0
-7.508054733276367 6.364080905914307 -1.7354545593261719 0.0 0.0 0.0
-21.970571517944336 4.45775032043457 -3.9528911113739014 0.0 0.0 0.0
-29.883073806762695 39.13589859008789 -8.682307243347168 0.0 0.0 0.0
-21.958072662353516 3.6395182609558105 -3.9245758056640625 0.0 0.0 0.0
-8.020354270935059 6.317625045776367 -1.8002265691757202 0.0 0.0 0.0
-22.292999267578125 27.118139266967773 -6.189909934997559 0.0 0.0 0.0
-21.94574737548828 2.831862211227417 -3.9016637802124023 0.0 0.0 0.0
-8.297990798950195 6.066345691680908 -1.8124372959136963 0.0 0.0 0.0
-22.244579315185547 25.15974998474121 -5.921562194824219 0.0 0.0 0.0
-21.928913116455078 2.032106399536133 -3.883176803588867 0.0 0.0 0.0
-21.781869888305664 -7.672872543334961 -4.072025775909424 0.0 0.0 0.0
-8.253172874450684 5.5901055335998535 -1.7576310634613037 0.0 0.0 0.0
-21.917919158935547 1.2392257452011108 -3.870844602584839 0.0 0.0 0.0
-21.77054214477539 -8.559698104858398 -4.124757766723633 0.0 0.0 0.0
-21.758892059326172 -9.470938682556152 -4.184337615966797 0.0 0.0 0.0
-8.93842601776123 5.59674596786499 -1.8595271110534668 0.0 0.0 0.0
-21.906984329223633 0.4503684639930725 -3.8635613918304443 0.0 0.0 0.0
-21.745189666748047 -10.40937614440918 -4.250906944274902 0.0 0.0 0.0
-9.043354034423828 5.219958782196045 -1.8411390781402588 0.0 0.0 0.0
-21.896076202392578 -0.3365650475025177 -3.8612780570983887 0.0 0.0 0.0
-21.73023796081543 -11.378955841064453 -4.325139045715332 0.0 0.0 0.0
-9.147418975830078 4.850642681121826 -1.825654149055481 0.0 0.0 0.0
-21.8729190826416 -1.1228833198547363 -3.861821174621582 0.0 0.0 0.0
-21.714733123779297 -12.384356498718262 -4.407798767089844 0.0 0.0 0.0
-21.705907821655273 -13.434834480285645 -4.5011162757873535 0.0 0.0 0.0
-21.861339569091797 -1.9115062952041626 -3.869408369064331 0.0 0.0 0.0
-22.043745040893555 10.693238258361816 -4.320031642913818 0.0 0.0 0.0
-21.65020179748535 -14.501055717468262 -4.594670295715332 0.0 0.0 0.0
-21.849695205688477 -2.7042601108551025 -3.8820433616638184 0.0 0.0 0.0
-22.031164169311523 9.725767135620117 -4.246323585510254 0.0 0.0 0.0
-21.583908081054688 -15.608016967773438 -4.696608543395996 0.0 0.0 0.0
-21.837947845458984 -3.5032544136047363 -3.8998119831085205 0.0 0.0 0.0
-21.628582000732422 -16.855741500854492 -4.835032939910889 0.0 0.0 0.0
-22.018983840942383 8.789586067199707 -4.180391788482666 0.0 0.0 0.0
-21.839696884155273 -4.313302993774414 -3.9252750873565674 0.0 0.0 0.0
-22.281147003173828 -18.688554763793945 -5.127757549285889 0.0 0.0 0.0
-22.01504898071289 7.883638858795166 -4.123186111450195 0.0 0.0 0.0
-36.565696716308594 -32.97825241088867 -8.68235969543457 0.0 0.0 0.0
-21.829296112060547 -5.132237911224365 -3.9540045261383057 0.0 0.0 0.0
-22.003326416015625 6.998590469360352 -4.071253776550293 0.0 0.0 0.0
-35.35772705078125 -34.27020263671875 -8.682365417480469 0.0 0.0 0.0
-21.818727493286133 -5.964298725128174 -3.9883458614349365 0.0 0.0 0.0
-34.1039924621582 -35.51806640625 -8.682372093200684 0.0 0.0 0.0
-21.99188995361328 6.134430408477783 -4.025744438171387 0.0 0.0 0.0
-21.807964324951172 -6.812081813812256 -4.028540134429932 0.0 0.0 0.0
-8.904085159301758 -9.966337203979492 -2.3565168380737305 0.0 0.0 0.0
-4.058932304382324 -49.07280731201172 -8.682440757751465 0.0 0.0 0.0
-8.109345436096191 -9.760908126831055 -2.237586498260498 0.0 0.0 0.0
-2.2938482761383057 -49.18690872192383 -8.682455062866211 0.0 0.0 0.0
-8.233268737792969 -10.667450904846191 -2.3760361671447754 0.0 0.0 0.0
23.272220611572266 -43.39373779296875 -8.682500839233398 0.0 0.0 0.0
-0.5257118344306946 -49.237571716308594 -8.682455062866211 0.0 0.0 0.0
24.815711975097656 -42.529911041259766 -8.682500839233398 0.0 0.0 0.0
1.2431203126907349 -49.22468185424805 -8.682459831237793 0.0 0.0 0.0
26.32726287841797 -41.61116027832031 -8.682500839233398 0.0 0.0 0.0
3.0103344917297363 -49.14827346801758 -8.682459831237793 0.0 0.0 0.0
27.804828643798828 -40.63871383666992 -8.682500839233398 0.0 0.0 0.0
-7.867064476013184 -10.987314224243164 -2.3827693462371826 0.0 0.0 0.0
4.773561477661133 -49.00844955444336 -8.682464599609375 0.0 0.0 0.0
29.24650764465332 -39.61383056640625 -8.68250560760498 0.0 0.0 0.0
30.65036392211914 -38.53789138793945 -8.68250560760498 0.0 0.0 0.0
6.530734539031982 -48.80536651611328 -8.682470321655273 0.0 0.0 0.0
32.014774322509766 -37.41212844848633 -8.682512283325195 0.0 0.0 0.0
-7.293514728546143 -11.000585556030273 -2.327301025390625 0.0 0.0 0.0
8.279479026794434 -48.539310455322266 -8.682470321655273 0.0 0.0 0.0
33.33787536621094 -36.238094329833984 -8.682512283325195 0.0 0.0 0.0
10.017539978027344 -48.21062088012695 -8.682476997375488 0.0 0.0 0.0
24.698877334594727 -24.98385238647461 -6.194724082946777 0.0 0.0 0.0
-7.448105335235596 -12.16063404083252 -2.5144662857055664 0.0 0.0 0.0
11.742570877075195 -47.81972122192383 -8.682476997375488 0.0 0.0 0.0
35.853240966796875 -33.751426696777344 -8.682518005371094 0.0 0.0 0.0
13.452543258666992 -47.367103576660156 -8.682482719421387 0.0 0.0 0.0
37.042362213134766 -32.44190216064453 -8.682518005371094 0.0 0.0 0.0
-24.1933536529541 -42.88703155517578 -8.682394981384277 0.0 0.0 0.0
15.145155906677246 -46.85337448120117 -8.682482719421387 0.0 0.0 0.0
38.18370056152344 -31.09048843383789 -8.682518005371094 0.0 0.0 0.0
16.818214416503906 -46.2791748046875 -8.682490348815918 0.0 0.0 0.0
-22.637434005737305 -43.72827911376953 -8.682394981384277 0.0 0.0 0.0
18.4694766998291 -45.645286560058594 -8.6824951171875 0.0 0.0 0.0
34.83188247680664 -26.33868408203125 -7.700132369995117 0.0 0.0 0.0
-21.052221298217773 -44.51314163208008 -8.682405471801758 0.0 0.0 0.0
20.097009658813477 -44.95245361328125 -8.6824951171875 0.0 0.0 0.0
-19.43985366821289 -45.24053955078125 -8.682405471801758 0.0 0.0 0.0
21.698612213134766 -44.201629638671875 -8.6824951171875 0.0 0.0 0.0
33.55895233154297 -23.530635833740234 -7.227128982543945 0.0 0.0 0.0
-17.802406311035156 -45.90956497192383 -8.682412147521973 0.0 0.0 0.0
11.249286651611328 -6.200222492218018 -2.264918565750122 0.0 0.0 0.0
-9.285545349121094 -26.759723663330078 -4.9944658279418945 0.0 0.0 0.0
34.81123352050781 -22.58835220336914 -7.317258358001709 0.0 0.0 0.0
12.370234489440918 -6.249685764312744 -2.4438090324401855 0.0 0.0 0.0
12.564352989196777 -7.525691509246826 -2.5824828147888184 0.0 0.0 0.0
-8.485345840454102 -27.619293212890625 -5.094688415527344 0.0 0.0 0.0
11.923823356628418 -5.4958086013793945 -2.315101385116577 0.0 0.0 0.0
31.906259536743164 2.2708725929260254 -5.640230655670166 0.0 0.0 0.0
33.784786224365234 3.628099203109741 -5.991486549377441 0.0 0.0 0.0
-7.453958034515381 -27.779850006103516 -5.071615695953369 0.0 0.0 0.0
11.04997444152832 -4.619382858276367 -2.1118392944335938 0.0 0.0 0.0
31.388805389404297 4.516350746154785 -5.5917534828186035 0.0 0.0 0.0
-6.267184257507324 -27.229400634765625 -4.926823139190674 0.0 0.0 0.0
33.828163146972656 6.114691257476807 -6.061546325683594 0.0 0.0 0.0
13.31926155090332 -5.014021396636963 -2.509478807449341 0.0 0.0 0.0
25.13518714904785 5.482365608215332 -4.53626823425293 0.0 0.0 0.0
-8.567330360412598 -44.47548294067383 -7.986423969268799 0.0 0.0 0.0
22.072065353393555 5.6518378257751465 -4.017512798309326 0.0 0.0 0.0
12.179497718811035 -4.091853141784668 -2.2655656337738037 0.0 0.0 0.0
22.1622314453125 6.531554222106934 -4.07402229309082 0.0 0.0 0.0
22.267189025878906 7.441544532775879 -4.139802932739258 0.0 0.0 0.0
11.387381553649902 -3.3757405281066895 -2.0943009853363037 0.0 0.0 0.0
-7.044464111328125 -45.26921463012695 -8.078276634216309 0.0 0.0 0.0
22.38814353942871 8.387334823608398 -4.215607643127441 0.0 0.0 0.0
-5.818872928619385 -48.89534378051758 -8.682440757751465 0.0 0.0 0.0
22.52651596069336 9.37501049041748 -4.302329063415527 0.0 0.0 0.0
11.592915534973145 -2.9881815910339355 -2.110987663269043 0.0 0.0 0.0
14.279279708862305 6.55393648147583 -2.770390033721924 0.0 0.0 0.0
20.688232421875 15.592060089111328 -4.567939281463623 0.0 0.0 0.0
22.86265754699707 11.50499153137207 -4.512999057769775 0.0 0.0 0.0
11.490880012512207 -2.525496244430542 -2.0745389461517334 0.0 0.0 0.0
23.064952850341797 12.66480541229248 -4.6397833824157715 0.0 0.0 0.0
20.93653106689453 16.991924285888672 -4.754530906677246 0.0 0.0 0.0
11.909100532531738 -2.172234535217285 -2.1345698833465576 0.0 0.0 0.0
23.29387664794922 13.902061462402344 -4.783255100250244 0.0 0.0 0.0
21.218730926513672 18.523895263671875 -4.9665985107421875 0.0 0.0 0.0
20.44443702697754 13.21983528137207 -4.2929301261901855 0.0 0.0 0.0
11.837689399719238 -1.7224886417388916 -2.109313488006592 0.0 0.0 0.0
21.54084587097168 20.213407516479492 -5.2086639404296875 0.0 0.0 0.0
20.468982696533203 14.303702354431152 -4.403177261352539 0.0 0.0 0.0
16.8918514251709 46.252357482910156 -8.682394981384277 0.0 0.0 0.0
12.24952220916748 -1.3351740837097168 -2.1727423667907715 0.0 0.0 0.0
15.219698905944824 46.8292236328125 -8.682394981384277 0.0 0.0 0.0
21.910593032836914 22.092987060546875 -5.486522674560547 0.0 0.0 0.0
13.527894973754883 47.34565734863281 -8.682394981384277 0.0 0.0 0.0
11.818757057189941 47.80096435546875 -8.682388305664062 0.0 0.0 0.0
49.11049270629883 -3.573899984359741 -8.682518005371094 0.0 0.0 0.0
22.337814331054688 24.20368194580078 -5.8075714111328125 0.0 0.0 0.0
10.094255447387695 48.194618225097656 -8.682388305664062 0.0 0.0 0.0
8.356703758239746 48.52608108520508 -8.682377815246582 0.0 0.0 0.0
49.20716857910156 -1.807679533958435 -8.682518005371094 0.0 0.0 0.0
6.608403205871582 48.79492950439453 -8.682372093200684 0.0 0.0 0.0
22.835372924804688 26.599374771118164 -6.1814799308776855 0.0 0.0 0.0
4.851656913757324 49.000789642333984 -8.682372093200684 0.0 0.0 0.0
3.0885441303253174 49.1434326171875 -8.682372093200684 0.0 0.0 0.0
31.9448184967041 -0.02545517310500145 -5.632805824279785 0.0 0.0 0.0
1.3214576244354248 49.22265625 -8.682365417480469 0.0 0.0 0.0
30.71173667907715 38.489009857177734 -8.682435989379883 0.0 0.0 0.0
-0.44734591245651245 49.23835754394531 -8.682365417480469 0.0 0.0 0.0
-2.215442419052124 49.19052505493164 -8.68235969543457 0.0 0.0 0.0
29.30951499938965 39.5672492980957 -8.682435989379883 0.0 0.0 0.0
-3.9808223247528076 49.07921600341797 -8.682353019714355 0.0 0.0 0.0
31.879772186279297 1.1203454732894897 -5.624799728393555 0.0 0.0 0.0
-5.74104118347168 48.90456771850586 -8.682348251342773 0.0 0.0 0.0
-7.493851184844971 48.66680908203125 -8.682348251342773 0.0 0.0 0.0
27.869476318359375 40.59442138671875 -8.682430267333984 0.0 0.0 0.0
26.39345932006836 41.56922912597656 -8.682424545288086 0.0 0.0 0.0
-7.591143608093262 39.74870681762695 -7.135383129119873 0.0 0.0 0.0
24.883451461791992 42.49033737182617 -8.682418823242188 0.0 0.0 0.0
-9.16098690032959 40.09412384033203 -7.25180721282959 0.0 0.0 0.0
23.341249465942383 43.35667419433594 -8.682418823242188 0.0 0.0 0.0
-12.685195922851562 47.57838439941406 -8.68233585357666 0.0 0.0 0.0
21.7689208984375 44.16706085205078 -8.682412147521973 0.0 0.0 0.0
20.168529510498047 44.920433044433594 -8.682405471801758 0.0 0.0 0.0
-7.200068950653076 23.569372177124023 -4.345466136932373 0.0 0.0 0.0
18.542186737060547 45.615814208984375 -8.682405471801758 0.0 0.0 0.0
-8.192120552062988 23.730661392211914 -4.4266252517700195 0.0 0.0 0.0
-8.915572166442871 23.100866317749023 -4.3660993576049805 0.0 0.0 0.0
-9.66542911529541 22.592525482177734 -4.332881450653076 0.0 0.0 0.0
-20.981348037719727 44.546600341796875 -8.682317733764648 0.0 0.0 0.0
-22.567726135253906 43.764305114746094 -8.682312965393066 0.0 0.0 0.0
-24.125064849853516 42.92549133300781 -8.682312965393066 0.0 0.0 0.0
-25.651264190673828 42.031288146972656 -8.682312965393066 0.0 0.0 0.0
-27.144376754760742 41.08283233642578 -8.682307243347168 0.0 0.0 0.0
-28.60234832763672 40.081451416015625 -8.682307243347168 0.0 0.0 0.0
-30.02349090576172 39.028282165527344 -8.682307243347168 0.0 0.0 0.0
-22.29873275756836 26.9272403717041 -6.164588928222656 0.0 0.0 0.0
-22.242137908935547 24.975492477416992 -5.896975517272949 0.0 0.0 0.0
-22.21879005432129 23.214008331298828 -5.6659064292907715 0.0 0.0 0.0
-7.706886291503906 7.493709087371826 -1.895403504371643 0.0 0.0 0.0
-8.045313835144043 7.279245853424072 -1.9130582809448242 0.0 0.0 0.0
-7.557608604431152 6.359549522399902 -1.7416138648986816 0.0 0.0 0.0
-8.073810577392578 6.3128204345703125 -1.8071188926696777 0.0 0.0 0.0
-8.29332160949707 6.017332077026367 -1.8066822290420532 0.0 0.0 0.0
-7.924496173858643 5.326033115386963 -1.683546543121338 0.0 0.0 0.0
-8.948944091796875 5.55866003036499 -1.8575471639633179 0.0 0.0 0.0
22.326576232910156 44.093055725097656 -7.571390151977539 0.0 0.0 0.0
21.839120864868164 12.716514587402344 -3.871511220932007 0.0 0.0 0.0
20.728483200073242 44.86650848388672 -7.571390151977539 0.0 0.0 0.0
19.103666305541992 45.58205032348633 -7.571383953094482 0.0 0.0 0.0
22.03058624267578 13.91089916229248 -3.991506338119507 0.0 0.0 0.0
17.454179763793945 46.23877716064453 -7.571383953094482 0.0 0.0 0.0
15.782185554504395 46.835838317871094 -7.571378231048584 0.0 0.0 0.0
14.089836120605469 47.37245559692383 -7.5713725090026855 0.0 0.0 0.0
19.398216247558594 13.246504783630371 -3.5985069274902344 0.0 0.0 0.0
12.379284858703613 47.847957611083984 -7.571366310119629 0.0 0.0 0.0
10.652755737304688 48.2617073059082 -7.571366310119629 0.0 0.0 0.0
19.563777923583984 14.416495323181152 -3.722923994064331 0.0 0.0 0.0
8.912467956542969 48.613182067871094 -7.571361064910889 0.0 0.0 0.0
7.16069221496582 48.90192413330078 -7.571361064910889 0.0 0.0 0.0
5.399664402008057 49.127567291259766 -7.571348190307617 0.0 0.0 0.0
19.75041389465332 15.679081916809082 -3.8631792068481445 0.0 0.0 0.0
3.6316802501678467 49.28981018066406 -7.571348190307617 0.0 0.0 0.0
1.8590093851089478 49.38844299316406 -7.571342468261719 0.0 0.0 0.0
19.961366653442383 17.05044937133789 -4.021705150604248 0.0 0.0 0.0
0.08395100384950638 49.423343658447266 -7.571342468261719 0.0 0.0 0.0
-1.6912386417388916 49.39447021484375 -7.571342468261719 0.0 0.0 0.0
-3.4642345905303955 49.30186462402344 -7.571330547332764 0.0 0.0 0.0
20.20064926147461 18.550331115722656 -4.201520919799805 0.0 0.0 0.0
-5.232759952545166 49.1456298828125 -7.571330547332764 0.0 0.0 0.0
-6.994545936584473 48.92597198486328 -7.57132625579834 0.0 0.0 0.0
20.473285675048828 20.20326042175293 -4.40640115737915 0.0 0.0 0.0
-7.437347412109375 41.35860824584961 -6.437480926513672 0.0 0.0 0.0
20.785614013671875 22.040185928344727 -4.641112804412842 0.0 0.0 0.0
21.145755767822266 24.10047721862793 -4.9117536544799805 0.0 0.0 0.0
-8.789237976074219 40.47177505493164 -6.344512939453125 0.0 0.0 0.0
21.564315795898438 26.4354190826416 -5.226292610168457 0.0 0.0 0.0
-10.114564895629883 39.649330139160156 -6.268513202667236 0.0 0.0 0.0
29.844938278198242 39.39482879638672 -7.571413516998291 0.0 0.0 0.0
-6.86888313293457 23.38475227355957 -3.733722448348999 0.0 0.0 0.0
28.410751342773438 40.44134521484375 -7.571407318115234 0.0 0.0 0.0
-7.874937057495117 23.63494873046875 -3.8163890838623047 0.0 0.0 0.0
26.939910888671875 41.4356689453125 -7.571407318115234 0.0 0.0 0.0
25.434295654296875 42.37652587890625 -7.571407318115234 0.0 0.0 0.0
-8.839847564697266 23.66100311279297 -3.8694000244140625 0.0 0.0 0.0
23.895849227905273 43.26270294189453 -7.571396350860596 0.0 0.0 0.0
-9.396852493286133 22.636598587036133 -3.754676342010498 0.0 0.0 0.0
-20.57600212097168 44.93665313720703 -7.5713019371032715 0.0 0.0 0.0
-22.28139305114746 27.504682540893555 -5.42258882522583 0.0 0.0 0.0
-22.17670440673828 44.168636322021484 -7.5713019371032715 0.0 0.0 0.0
-23.748798370361328 43.3436164855957 -7.5713019371032715 0.0 0.0 0.0
-22.25078010559082 25.53434944152832 -5.188446521759033 0.0 0.0 0.0
-25.29024314880371 42.46266555786133 -7.571295738220215 0.0 0.0 0.0
-26.799057006835938 41.52692413330078 -7.571295738220215 0.0 0.0 0.0
-28.27326774597168 40.5376091003418 -7.571290016174316 0.0 0.0 0.0
-22.226808547973633 23.729310989379883 -4.980772018432617 0.0 0.0 0.0
-29.710994720458984 39.4959716796875 -7.57128381729126 0.0 0.0 0.0
-7.564819812774658 7.515945911407471 -1.6336042881011963 0.0 0.0 0.0
-22.00527572631836 7.17378568649292 -3.545644998550415 0.0 0.0 0.0
-21.99378776550293 6.305699825286865 -3.5050151348114014 0.0 0.0 0.0
-7.8884406089782715 7.2935333251953125 -1.6458207368850708 0.0 0.0 0.0
-21.982547760009766 5.4562177658081055 -3.4697344303131104 0.0 0.0 0.0
-21.972272872924805 4.62278938293457 -3.439669609069824 0.0 0.0 0.0
-7.529763221740723 6.476082801818848 -1.5214447975158691 0.0 0.0 0.0
-21.95974349975586 3.8021647930145264 -3.414111852645874 0.0 0.0 0.0
-21.947391510009766 2.9926140308380127 -3.3932788372039795 0.0 0.0 0.0
-7.812010765075684 6.245027542114258 -1.532133936882019 0.0 0.0 0.0
-21.9351806640625 2.1918623447418213 -3.377032995223999 0.0 0.0 0.0
-21.919984817504883 1.3974777460098267 -3.3647844791412354 0.0 0.0 0.0
-8.497379302978516 6.306345462799072 -1.621054768562317 0.0 0.0 0.0
-21.909040451049805 0.6079758405685425 -3.3575830459594727 0.0 0.0 0.0
-21.89812660217285 -0.17916274070739746 -3.35473370552063 0.0 0.0 0.0
-7.97340202331543 5.484617233276367 -1.4825342893600464 0.0 0.0 0.0
-21.87605857849121 -0.9654321074485779 -3.354506254196167 0.0 0.0 0.0
-21.86449432373047 -1.753517985343933 -3.36022686958313 0.0 0.0 0.0
-8.820608139038086 5.61163854598999 -1.601525068283081 0.0 0.0 0.0
-21.85286521911621 -2.5453147888183594 -3.3703227043151855 0.0 0.0 0.0
-8.925589561462402 5.237878799438477 -1.5853837728500366 0.0 0.0 0.0
-21.841144561767578 -3.342912435531616 -3.384861946105957 0.0 0.0 0.0
-9.029546737670898 4.871609210968018 -1.571733832359314 0.0 0.0 0.0
-21.841588973999023 -4.150793075561523 -3.405856132507324 0.0 0.0 0.0
-21.831214904785156 -4.967365264892578 -3.429865598678589 0.0 0.0 0.0
-22.046979904174805 10.891256332397461 -3.7670581340789795 0.0 0.0 0.0
-21.820682525634766 -5.79659366607666 -3.4587085247039795 0.0 0.0 0.0
-22.034297943115234 9.917017936706543 -3.701601982116699 0.0 0.0 0.0
-21.80995750427246 -6.640997886657715 -3.492584705352783 0.0 0.0 0.0
-22.02203369140625 8.974859237670898 -3.6430041790008545 0.0 0.0 0.0
-21.784862518310547 -7.498351097106934 -3.5294439792633057 0.0 0.0 0.0
-21.773601531982422 -8.380694389343262 -3.5741119384765625 0.0 0.0 0.0
-22.010128021240234 8.060894966125488 -3.590792179107666 0.0 0.0 0.0
-21.76203155517578 -9.286827087402344 -3.624660015106201 0.0 0.0 0.0
-21.748552322387695 -10.219464302062988 -3.681217670440674 0.0 0.0 0.0
-33.19229507446289 -36.61892318725586 -7.571348190307617 0.0 0.0 0.0
-21.73371124267578 -11.182442665100098 -3.7443182468414307 0.0 0.0 0.0
-21.718326568603516 -12.180333137512207 -3.8146233558654785 0.0 0.0 0.0
-8.587164878845215 -10.18618106842041 -2.0409748554229736 0.0 0.0 0.0
-21.70883560180664 -13.22178840637207 -3.8939037322998047 0.0 0.0 0.0
-21.659130096435547 -14.28256893157959 -3.9744956493377686 0.0 0.0 0.0
-21.59857177734375 -15.383466720581055 -4.062219142913818 0.0 0.0 0.0
-8.115752220153809 -10.3603515625 -2.0161280632019043 0.0 0.0 0.0
-21.59065055847168 -16.578144073486328 -4.170094966888428 0.0 0.0 0.0
-22.039459228515625 -18.217588424682617 -4.38041877746582 0.0 0.0 0.0
-7.854142665863037 -10.804365158081055 -2.0462827682495117 0.0 0.0 0.0
-36.93860626220703 -32.83616256713867 -7.571342468261719 0.0 0.0 0.0
-35.73541259765625 -34.14167785644531 -7.571342468261719 0.0 0.0 0.0
-34.48609161376953 -35.40316390991211 -7.571348190307617 0.0 0.0 0.0
-7.957071781158447 -11.816113471984863 -2.182330369949341 0.0 0.0 0.0
-7.316788673400879 -44.89311981201172 -6.968142509460449 0.0 0.0 0.0
-7.505434989929199 -12.058759689331055 -2.1759233474731445 0.0 0.0 0.0
-6.1931047439575195 -49.03386306762695 -7.571425437927246 0.0 0.0 0.0
-4.4279704093933105 -49.22464370727539 -7.571425437927246 0.0 0.0 0.0
-2.6571245193481445 -49.3519287109375 -7.571431636810303 0.0 0.0 0.0
-0.8828510642051697 -49.41551971435547 -7.571431636810303 0.0 0.0 0.0
-23.01188850402832 -40.11602020263672 -7.084865570068359 0.0 0.0 0.0
0.8925784230232239 -49.41534423828125 -7.571431636810303 0.0 0.0 0.0
2.6668407917022705 -49.35139846801758 -7.571437835693359 0.0 0.0 0.0
4.437662124633789 -49.22378158569336 -7.571442604064941 0.0 0.0 0.0
6.2027587890625 -49.032630920410156 -7.5714545249938965 0.0 0.0 0.0
-21.833953857421875 -41.443885803222656 -7.176156997680664 0.0 0.0 0.0
7.959852695465088 -48.7781982421875 -7.5714545249938965 0.0 0.0 0.0
9.706673622131348 -48.46083450317383 -7.5714545249938965 0.0 0.0 0.0
-21.451066970825195 -44.52556610107422 -7.571383953094482 0.0 0.0 0.0
11.44096851348877 -48.0809326171875 -7.5714545249938965 0.0 0.0 0.0
13.16049575805664 -47.63899612426758 -7.571460247039795 0.0 0.0 0.0
-19.838008880615234 -45.26728057861328 -7.571390151977539 0.0 0.0 0.0
14.86303424835205 -47.13557815551758 -7.571460247039795 0.0 0.0 0.0
-18.199365615844727 -45.95058059692383 -7.571390151977539 0.0 0.0 0.0
16.5463924407959 -46.57134246826172 -7.57146692276001 0.0 0.0 0.0
18.20839500427246 -45.94700622558594 -7.57146692276001 0.0 0.0 0.0
19.846904754638672 -45.26337432861328 -7.571472644805908 0.0 0.0 0.0
-16.537242889404297 -46.57460403442383 -7.571396350860596 0.0 0.0 0.0
21.45981216430664 -44.52131652832031 -7.571477890014648 0.0 0.0 0.0
23.04503631591797 -43.721824645996094 -7.571477890014648 0.0 0.0 0.0
24.60051727294922 -42.86590576171875 -7.571484088897705 0.0 0.0 0.0
26.12425422668457 -41.95467758178711 -7.571484088897705 0.0 0.0 0.0
-8.682663917541504 -27.55447006225586 -4.425806999206543 0.0 0.0 0.0
27.614276885986328 -40.98930740356445 -7.5714898109436035 0.0 0.0 0.0
29.068647384643555 -39.971065521240234 -7.5714898109436035 0.0 0.0 0.0
24.46915626525879 -31.22402572631836 -6.077246189117432 0.0 0.0 0.0
-7.658290386199951 -27.743093490600586 -4.409051418304443 0.0 0.0 0.0
23.50945472717285 -27.876020431518555 -5.586461067199707 0.0 0.0 0.0
22.71575927734375 -25.050931930541992 -5.180568695068359 0.0 0.0 0.0
23.84905433654785 -24.473636627197266 -5.235057830810547 0.0 0.0 0.0
-6.505930423736572 -27.365201950073242 -4.309054374694824 0.0 0.0 0.0
25.62616729736328 -24.473636627197266 -5.42856502532959 0.0 0.0 0.0
36.94505310058594 -32.82887649536133 -7.571502685546875 0.0 0.0 0.0
-9.108224868774414 -45.51950454711914 -7.111586093902588 0.0 0.0 0.0
38.100341796875 -31.480722427368164 -7.571502685546875 0.0 0.0 0.0
10.031882286071777 -6.6124396324157715 -1.840677261352539 0.0 0.0 0.0
34.849143981933594 -26.74761962890625 -6.730025291442871 0.0 0.0 0.0
10.317758560180664 -6.281248092651367 -1.8505134582519531 0.0 0.0 0.0
36.269874572753906 -25.822248458862305 -6.820770263671875 0.0 0.0 0.0
11.334321022033691 -6.353747844696045 -1.9905967712402344 0.0 0.0 0.0
31.790767669677734 -0.2538145184516907 -4.870393753051758 0.0 0.0 0.0
11.112494468688965 -5.714870929718018 -1.9143296480178833 0.0 0.0 0.0
32.32215118408203 0.9033436179161072 -4.953576564788818 0.0 0.0 0.0
13.17828369140625 -6.189226150512695 -2.2304399013519287 0.0 0.0 0.0
32.15791320800781 2.0565757751464844 -4.936543941497803 0.0 0.0 0.0
31.616947174072266 3.16556978225708 -4.86782169342041 0.0 0.0 0.0
11.705225944519043 -4.992448806762695 -1.9494962692260742 0.0 0.0 0.0
32.74638748168945 4.471643924713135 -5.063188552856445 0.0 0.0 0.0
11.600882530212402 -4.462604999542236 -1.9041764736175537 0.0 0.0 0.0
31.8980655670166 5.529348850250244 -4.959542751312256 0.0 0.0 0.0
25.903404235839844 5.4551682472229 -4.055357456207275 0.0 0.0 0.0
12.053999900817871 -4.146365165710449 -1.9528306722640991 0.0 0.0 0.0
21.412843704223633 5.319308280944824 -3.3800694942474365 0.0 0.0 0.0
11.973492622375488 -3.643308639526367 -1.9173362255096436 0.0 0.0 0.0
21.355880737304688 6.127394199371338 -3.403641939163208 0.0 0.0 0.0
21.355880737304688 6.966749668121338 -3.4413232803344727 0.0 0.0 0.0
13.18901252746582 -3.5008769035339355 -2.0904831886291504 0.0 0.0 0.0
21.35588264465332 7.826035976409912 -3.4843945503234863 0.0 0.0 0.0
11.918519020080566 -2.7094414234161377 -1.8724634647369385 0.0 0.0 0.0
21.355886459350586 8.708252906799316 -3.5331780910491943 0.0 0.0 0.0
14.332748413085938 6.454141616821289 -2.4080698490142822 0.0 0.0 0.0
6.081851482391357 -1.154569387435913 -0.9483546018600464 0.0 0.0 0.0
21.533063888549805 10.642637252807617 -3.6796958446502686 0.0 0.0 0.0
21.685415267944336 11.705245018005371 -3.775179386138916 0.0 0.0 0.0
6.078773021697998 -0.9291788935661316 -0.9420591592788696 0.0 0.0 0.0
21.857257843017578 12.832490921020508 -3.882877826690674 0.0 0.0 0.0
21.99237823486328 13.997589111328125 -3.993671178817749 0.0 0.0 0.0
6.076161861419678 -0.70650315284729 -0.9371147155761719 0.0 0.0 0.0
19.413896560668945 13.359776496887207 -3.6102921962738037 0.0 0.0 0.0
12.027044296264648 -0.962195634841919 -1.8483893871307373 0.0 0.0 0.0
19.581453323364258 14.538389205932617 -3.736206531524658 0.0 0.0 0.0
49.375755310058594 -2.169407844543457 -7.57149600982666 0.0 0.0 0.0
19.770360946655273 15.811083793640137 -3.8781683444976807 0.0 0.0 0.0
19.983951568603516 17.194355010986328 -4.038677215576172 0.0 0.0 0.0
20.567113876342773 44.94070816040039 -7.571390151977539 0.0 0.0 0.0
20.22633171081543 18.708358764648438 -4.220821380615234 0.0 0.0 0.0
18.939714431762695 45.65041732788086 -7.571383953094482 0.0 0.0 0.0
20.50262451171875 20.378173828125 -4.428450107574463 0.0 0.0 0.0
17.28791046142578 46.301204681396484 -7.571378231048584 0.0 0.0 0.0
20.819339752197266 22.235536575317383 -4.6664557456970215 0.0 0.0 0.0
15.613748550415039 46.89226150512695 -7.571378231048584 0.0 0.0 0.0
21.1848087310791 24.32077980041504 -4.941099166870117 0.0 0.0 0.0
13.919506072998047 47.422786712646484 -7.5713725090026855 0.0 0.0 0.0
31.102752685546875 38.40952682495117 -7.571418762207031 0.0 0.0 0.0
12.207231521606445 47.89214324951172 -7.571366310119629 0.0 0.0 0.0
29.703144073486328 39.50184631347656 -7.571413516998291 0.0 0.0 0.0
10.479238510131836 48.2996826171875 -7.571366310119629 0.0 0.0 0.0
28.265226364135742 40.543190002441406 -7.571407318115234 0.0 0.0 0.0
8.737686157226562 48.644901275634766 -7.571361064910889 0.0 0.0 0.0
26.790807723999023 41.5322265625 -7.571407318115234 0.0 0.0 0.0
6.984896183013916 48.92734909057617 -7.571361064910889 0.0 0.0 0.0
25.28183364868164 42.46765899658203 -7.571401596069336 0.0 0.0 0.0
5.223056316375732 49.14665603637695 -7.571354866027832 0.0 0.0 0.0
23.740201950073242 43.34830856323242 -7.571396350860596 0.0 0.0 0.0
3.4545366764068604 49.30253982543945 -7.571348190307617 0.0 0.0 0.0
22.16795539855957 44.17301559448242 -7.571390151977539 0.0 0.0 0.0
-7.170323371887207 48.90052032470703 -7.57132625579834 0.0 0.0 0.0
1.6814996004104614 49.39480209350586 -7.571342468261719 0.0 0.0 0.0
-0.09368447214365005 49.4233283996582 -7.571342468261719 0.0 0.0 0.0
-7.678800106048584 41.837440490722656 -6.516259670257568 0.0 0.0 0.0
-1.8687587976455688 49.38807678222656 -7.571342468261719 0.0 0.0 0.0
-3.6413989067077637 49.28909683227539 -7.571330547332764 0.0 0.0 0.0
-5.40938663482666 49.12649917602539 -7.571330547332764 0.0 0.0 0.0
-8.942513465881348 40.47573471069336 -6.350128173828125 0.0 0.0 0.0
-10.213760375976562 39.445716857910156 -6.242092132568359 0.0 0.0 0.0
-22.248292922973633 25.346927642822266 -5.166580677032471 0.0 0.0 0.0
-6.970969200134277 23.42070960998535 -3.7434375286102295 0.0 0.0 0.0
-7.485738754272461 22.20046615600586 -3.589087963104248 0.0 0.0 0.0
-22.224515914916992 23.556625366210938 -4.961256980895996 0.0 0.0 0.0
-8.632928848266602 22.85629653930664 -3.742849111557007 0.0 0.0 0.0
-7.599329471588135 7.496131420135498 -1.6352256536483765 0.0 0.0 0.0
-9.461599349975586 22.563228607177734 -3.7481212615966797 0.0 0.0 0.0
-7.906418323516846 7.257615089416504 -1.644119381904602 0.0 0.0 0.0
-20.737346649169922 44.8624267578125 -7.5713019371032715 0.0 0.0 0.0
-22.33530044555664 44.08864974975586 -7.5713019371032715 0.0 0.0 0.0
-23.904396057128906 43.25799560546875 -7.5713019371032715 0.0 0.0 0.0
-7.5756731033325195 6.468348026275635 -1.5260132551193237 0.0 0.0 0.0
-25.44268798828125 42.37150192260742 -7.571295738220215 0.0 0.0 0.0
-26.94810676574707 41.430355072021484 -7.571290016174316 0.0 0.0 0.0
-28.418771743774414 40.435733795166016 -7.571290016174316 0.0 0.0 0.0
-7.863550662994385 6.240046977996826 -1.5378342866897583 0.0 0.0 0.0
-29.85272789001465 39.38895797729492 -7.57128381729126 0.0 0.0 0.0
-8.466362953186035 6.236258029937744 -1.6108509302139282 0.0 0.0 0.0
-22.287221908569336 27.310619354248047 -5.400085926055908 0.0 0.0 0.0
-21.992652893066406 6.219918727874756 -3.501249313354492 0.0 0.0 0.0
-7.688675880432129 5.248162269592285 -1.4260765314102173 0.0 0.0 0.0
-21.98143768310547 5.372145175933838 -3.46648907661438 0.0 0.0 0.0
-21.971010208129883 4.540103912353516 -3.436894416809082 0.0 0.0 0.0
-8.831143379211426 5.5738654136657715 -1.5997910499572754 0.0 0.0 0.0
-21.958499908447266 3.720719575881958 -3.411818742752075 0.0 0.0 0.0
-8.93603515625 5.200925827026367 -1.5839085578918457 0.0 0.0 0.0
-21.946163177490234 2.912135601043701 -3.391449451446533 0.0 0.0 0.0
-9.039895057678223 4.835330009460449 -1.5705000162124634 0.0 0.0 0.0
-21.933963775634766 2.1121551990509033 -3.3756511211395264 0.0 0.0 0.0
-21.918886184692383 1.3183175325393677 -3.36386775970459 0.0 0.0 0.0
-21.90794563293457 0.5291574597358704 -3.357103109359741 0.0 0.0 0.0
-22.045690536499023 10.792232513427734 -3.7601866722106934 0.0 0.0 0.0
-21.897037506103516 -0.2578639090061188 -3.3546879291534424 0.0 0.0 0.0
-22.03305435180664 9.821372985839844 -3.695438861846924 0.0 0.0 0.0
-21.87490463256836 -1.044162631034851 -3.3548827171325684 0.0 0.0 0.0
-21.86333465576172 -1.8325316905975342 -3.361039400100708 0.0 0.0 0.0
-22.02082633972168 8.882223129272461 -3.637500524520874 0.0 0.0 0.0
-21.85169792175293 -2.624807119369507 -3.37157940864563 0.0 0.0 0.0
-21.8399658203125 -3.423107862472534 -3.386568546295166 0.0 0.0 0.0
-22.015859603881836 7.973306655883789 -3.587024450302124 0.0 0.0 0.0
-21.840559005737305 -4.231984615325928 -3.4080443382263184 0.0 0.0 0.0
-22.004114151000977 7.086031913757324 -3.5413317680358887 0.0 0.0 0.0
-21.830169677734375 -5.049718856811523 -3.432530403137207 0.0 0.0 0.0
-21.819618225097656 -5.880343437194824 -3.4618663787841797 0.0 0.0 0.0
-21.808874130249023 -6.726417541503906 -3.496267080307007 0.0 0.0 0.0
-8.55999755859375 -10.228320121765137 -2.043241262435913 0.0 0.0 0.0
-21.78374671936035 -7.585665702819824 -3.5336554050445557 0.0 0.0 0.0
-21.772457122802734 -8.47022533416748 -3.578899383544922 0.0 0.0 0.0
-8.124648094177246 -10.448857307434082 -2.0276548862457275 0.0 0.0 0.0
-21.760854721069336 -9.378946304321289 -3.630056142807007 0.0 0.0 0.0
-7.796127796173096 -10.80599594116211 -2.0412726402282715 0.0 0.0 0.0
-21.747087478637695 -10.314366340637207 -3.6872215270996094 0.0 0.0 0.0
-7.891135215759277 -11.809598922729492 -2.1758744716644287 0.0 0.0 0.0
-21.732196807861328 -11.280665397644043 -3.7510154247283936 0.0 0.0 0.0
-7.464898109436035 -12.090263366699219 -2.176753044128418 0.0 0.0 0.0
-21.71675682067871 -12.282276153564453 -3.822078227996826 0.0 0.0 0.0
-22.878068923950195 -40.217018127441406 -7.088130950927734 0.0 0.0 0.0
-21.707475662231445 -13.328165054321289 -3.902228355407715 0.0 0.0 0.0
-21.7282657623291 -41.605194091796875 -7.1905198097229 0.0 0.0 0.0
-21.65467643737793 -14.391572952270508 -3.9831457138061523 0.0 0.0 0.0
-21.29086685180664 -44.60238265991211 -7.571383953094482 0.0 0.0 0.0
-19.675195693969727 -45.33827590942383 -7.571390151977539 0.0 0.0 0.0
-18.034067153930664 -46.015716552734375 -7.571390151977539 0.0 0.0 0.0
-21.591135025024414 -15.49544906616211 -4.071268081665039 0.0 0.0 0.0
-9.362360000610352 -26.67130470275879 -4.330319881439209 0.0 0.0 0.0
-21.609548568725586 -16.716455459594727 -4.185322284698486 0.0 0.0 0.0
-8.161487579345703 -26.22907829284668 -4.208184242248535 0.0 0.0 0.0
-22.159303665161133 -18.451122283935547 -4.417389869689941 0.0 0.0 0.0
-7.668400287628174 -28.174137115478516 -4.473145484924316 0.0 0.0 0.0
-36.82035446166992 -32.968711853027344 -7.571342468261719 0.0 0.0 0.0
-6.370453357696533 -27.22998809814453 -4.284130096435547 0.0 0.0 0.0
-35.61247253417969 -34.269901275634766 -7.571342468261719 0.0 0.0 0.0
-8.939984321594238 -45.52870559692383 -7.107954025268555 0.0 0.0 0.0
-34.358638763427734 -35.52686309814453 -7.571348190307617 0.0 0.0 0.0
-7.158746242523193 -44.94026565551758 -6.971424579620361 0.0 0.0 0.0
-33.06045913696289 -36.73798751831055 -7.571348190307617 0.0 0.0 0.0
-6.016841411590576 -49.05579376220703 -7.571425437927246 0.0 0.0 0.0
-4.251009464263916 -49.24024963378906 -7.571431636810303 0.0 0.0 0.0
21.619667053222656 -44.44391632080078 -7.571477890014648 0.0 0.0 0.0
-2.4797403812408447 -49.36116409301758 -7.571431636810303 0.0 0.0 0.0
23.202028274536133 -43.63872146606445 -7.571477890014648 0.0 0.0 0.0
-0.7052266001701355 -49.418373107910156 -7.571431636810303 0.0 0.0 0.0
1.0701552629470825 -49.41181182861328 -7.571437835693359 0.0 0.0 0.0
24.754405975341797 -42.777225494384766 -7.571484088897705 0.0 0.0 0.0
2.8442015647888184 -49.34149932861328 -7.571442604064941 0.0 0.0 0.0
4.614527225494385 -49.20751190185547 -7.571442604064941 0.0 0.0 0.0
26.274885177612305 -41.86051559448242 -7.571484088897705 0.0 0.0 0.0
6.378952503204346 -49.010013580322266 -7.571448802947998 0.0 0.0 0.0
27.761396408081055 -40.88981628417969 -7.5714898109436035 0.0 0.0 0.0
8.135091781616211 -48.749290466308594 -7.5714545249938965 0.0 0.0 0.0
9.880789756774902 -48.42564010620117 -7.5714545249938965 0.0 0.0 0.0
29.212120056152344 -39.8663215637207 -7.5714898109436035 0.0 0.0 0.0
11.61368179321289 -48.03952407836914 -7.5714545249938965 0.0 0.0 0.0
13.331635475158691 -47.591400146484375 -7.571460247039795 0.0 0.0 0.0
24.36428451538086 -30.861114501953125 -6.023614406585693 0.0 0.0 0.0
15.032328605651855 -47.08186721801758 -7.57146692276001 0.0 0.0 0.0
16.71367073059082 -46.51155471801758 -7.57146692276001 0.0 0.0 0.0
23.423309326171875 -27.572181701660156 -5.5424065589904785 0.0 0.0 0.0
18.373394012451172 -45.881263732910156 -7.571472644805908 0.0 0.0 0.0
20.009462356567383 -45.19175338745117 -7.571477890014648 0.0 0.0 0.0
22.643932342529297 -24.79209327697754 -5.143836498260498 0.0 0.0 0.0
10.34643268585205 -6.247859477996826 -1.8516181707382202 0.0 0.0 0.0
24.021154403686523 -24.473636627197266 -5.2534918785095215 0.0 0.0 0.0
11.338313102722168 -6.30252742767334 -1.987305998802185 0.0 0.0 0.0
25.81123161315918 -24.473636627197266 -5.449100017547607 0.0 0.0 0.0
10.97250747680664 -5.5930938720703125 -1.886738657951355 0.0 0.0 0.0
37.06281280517578 -32.69586944580078 -7.571502685546875 0.0 0.0 0.0
13.24960708618164 -6.164694786071777 -2.238746166229248 0.0 0.0 0.0
38.21323013305664 -31.34359359741211 -7.571502685546875 0.0 0.0 0.0
12.49880313873291 -5.27789831161499 -2.0784926414489746 0.0 0.0 0.0
11.423504829406738 -4.3473029136657715 -1.8724867105484009 0.0 0.0 0.0
35.02507019042969 -26.68316650390625 -6.7454376220703125 0.0 0.0 0.0
12.109915733337402 -4.116980075836182 -1.9594788551330566 0.0 0.0 0.0
12.163435935974121 -3.6533966064453125 -1.9456373453140259 0.0 0.0 0.0
32.30324935913086 -22.82375144958496 -6.059361934661865 0.0 0.0 0.0
13.110591888427734 -3.4296562671661377 -2.0760855674743652 0.0 0.0 0.0
10.060429573059082 -6.579509735107422 -1.8415641784667969 0.0 0.0 0.0
11.722760200500488 -2.620662212371826 -1.8402167558670044 0.0 0.0 0.0
6.081541538238525 -1.1318740844726562 -0.9476655125617981 0.0 0.0 0.0
6.078466892242432 -0.906786322593689 -0.9415009617805481 0.0 0.0 0.0
32.393123626708984 1.0218591690063477 -4.964985370635986 0.0 0.0 0.0
6.075859069824219 -0.6843449473381042 -0.9366822838783264 0.0 0.0 0.0
23.027172088623047 -1.7589716911315918 -3.5379655361175537 0.0 0.0 0.0
32.12879943847656 2.1706674098968506 -4.933239459991455 0.0 0.0 0.0
49.383235931396484 -1.9918979406356812 -7.57149600982666 0.0 0.0 0.0
31.628002166748047 3.28153657913208 -4.871309280395508 0.0 0.0 0.0
31.848472595214844 -0.13981063663959503 -4.879126071929932 0.0 0.0 0.0
19.429780960083008 13.473868370056152 -3.6222283840179443 0.0 0.0 0.0
32.13396453857422 4.505706310272217 -4.970967769622803 0.0 0.0 0.0
19.59933853149414 14.66123104095459 -3.749647855758667 0.0 0.0 0.0
19.79056167602539 15.944228172302246 -3.893348217010498 0.0 0.0 0.0
31.86141014099121 5.641037940979004 -4.956964015960693 0.0 0.0 0.0
20.006826400756836 17.339550018310547 -4.055867671966553 0.0 0.0 0.0
20.25235366821289 18.867948532104492 -4.240375995635986 0.0 0.0 0.0
25.649486541748047 5.498029708862305 -4.018670082092285 0.0 0.0 0.0
20.532367706298828 20.554950714111328 -4.450801372528076 0.0 0.0 0.0
20.853561401367188 22.433143615722656 -4.692172050476074 0.0 0.0 0.0
21.355878829956055 5.386720657348633 -3.3741111755371094 0.0 0.0 0.0
21.224443435668945 24.543807983398438 -4.970882892608643 0.0 0.0 0.0
21.355880737304688 6.210538864135742 -3.407177686691284 0.0 0.0 0.0
30.96450424194336 38.52106475830078 -7.571418762207031 0.0 0.0 0.0
29.56100845336914 39.60832595825195 -7.571413516998291 0.0 0.0 0.0
21.355880737304688 7.051778793334961 -3.4453868865966797 0.0 0.0 0.0
28.119325637817383 40.64451217651367 -7.571407318115234 0.0 0.0 0.0
26.641393661499023 41.628231048583984 -7.571407318115234 0.0 0.0 0.0
21.35588264465332 7.913204193115234 -3.4890124797821045 0.0 0.0 0.0
25.129032135009766 42.55825424194336 -7.571401596069336 0.0 0.0 0.0
23.58426856994629 43.433349609375 -7.571396350860596 0.0 0.0 0.0
21.355886459350586 8.797901153564453 -3.538386821746826 0.0 0.0 0.0
22.009050369262695 44.252403259277344 -7.571390151977539 0.0 0.0 0.0
20.405458450317383 45.01433563232422 -7.571390151977539 0.0 0.0 0.0
14.303803443908691 6.50303840637207 -2.4071171283721924 0.0 0.0 0.0
18.775516510009766 45.718196868896484 -7.571383953094482 0.0 0.0 0.0
17.121387481689453 46.363040924072266 -7.571378231048584 0.0 0.0 0.0
21.547489166259766 10.746309280395508 -3.6887383460998535 0.0 0.0 0.0
15.445120811462402 46.94807434082031 -7.571378231048584 0.0 0.0 0.0
13.7489595413208 47.47251510620117 -7.5713725090026855 0.0 0.0 0.0
12.035018920898438 47.935707092285156 -7.571366310119629 0.0 0.0 0.0
21.70169448852539 11.814942359924316 -3.785381317138672 0.0 0.0 0.0
10.305585861206055 48.3370361328125 -7.571366310119629 0.0 0.0 0.0
8.562793731689453 48.675994873046875 -7.571361064910889 0.0 0.0 0.0
6.809010982513428 48.95213317871094 -7.571361064910889 0.0 0.0 0.0
21.875612258911133 12.949219703674316 -3.894381046295166 0.0 0.0 0.0
5.046372413635254 49.16511154174805 -7.571348190307617 0.0 0.0 0.0
3.277301549911499 49.31463623046875 -7.571348190307617 0.0 0.0 0.0
1.5039324760437012 49.40053176879883 -7.571342468261719 0.0 0.0 0.0
21.81888198852539 13.997589111328125 -3.971275568008423 0.0 0.0 0.0
-0.271307110786438 49.42267608642578 -7.571342468261719 0.0 0.0 0.0
-2.046278238296509 49.381038665771484 -7.571336269378662 0.0 0.0 0.0
-3.8185157775878906 49.27568817138672 -7.571330547332764 0.0 0.0 0.0
-5.5859198570251465 49.10674285888672 -7.571330547332764 0.0 0.0 0.0
-7.815085411071777 41.73457336425781 -6.504570007324219 0.0 0.0 0.0
-7.3460564613342285 48.87443161010742 -7.57132625579834 0.0 0.0 0.0
-22.222238540649414 23.3852481842041 -4.941957473754883 0.0 0.0 0.0
-9.01453685760498 40.11642837524414 -6.29880428314209 0.0 0.0 0.0
-7.6339006423950195 7.476287841796875 -1.63687264919281 0.0 0.0 0.0
-12.560626029968262 47.800682067871094 -7.571320056915283 0.0 0.0 0.0
-7.924368858337402 7.221785068511963 -1.6424442529678345 0.0 0.0 0.0
-7.073624610900879 23.45686149597168 -3.7532567977905273 0.0 0.0 0.0
-7.6218719482421875 6.460555076599121 -1.5306317806243896 0.0 0.0 0.0
-7.915496826171875 6.235027313232422 -1.5436009168624878 0.0 0.0 0.0
-7.963863849639893 23.341012954711914 -3.7780754566192627 0.0 0.0 0.0
-8.212889671325684 6.004138469696045 -1.5585075616836548 0.0 0.0 0.0
-8.153963088989258 5.5229082107543945 -1.5086857080459595 0.0 0.0 0.0
-8.691051483154297 22.762271881103516 -3.7325451374053955 0.0 0.0 0.0
-8.841665267944336 5.536159992218018 -1.5980812311172485 0.0 0.0 0.0
-8.946471214294434 5.164041042327881 -1.582458257675171 0.0 0.0 0.0
-9.526135444641113 22.490114212036133 -3.741642475128174 0.0 0.0 0.0
-9.050237655639648 4.79910945892334 -1.5692899227142334 0.0 0.0 0.0
-20.89849853515625 44.78758239746094 -7.5713019371032715 0.0 0.0 0.0
-22.04440689086914 10.693570137023926 -3.753387451171875 0.0 0.0 0.0
-22.493616104125977 44.00809097290039 -7.5713019371032715 0.0 0.0 0.0
-22.03181266784668 9.72605037689209 -3.6893436908721924 0.0 0.0 0.0
-24.05976104736328 43.17177963256836 -7.571295738220215 0.0 0.0 0.0
-22.019622802734375 8.789849281311035 -3.632059335708618 0.0 0.0 0.0
-25.59481430053711 42.27977752685547 -7.571295738220215 0.0 0.0 0.0
-22.01466941833496 7.883502006530762 -3.582190990447998 0.0 0.0 0.0
-27.09688949584961 41.33320236206055 -7.571290016174316 0.0 0.0 0.0
-22.00295639038086 6.9984636306762695 -3.5370750427246094 0.0 0.0 0.0
-28.563913345336914 40.33333206176758 -7.571290016174316 0.0 0.0 0.0
-21.991519927978516 6.1343231201171875 -3.4975366592407227 0.0 0.0 0.0
-21.980327606201172 5.288229465484619 -3.463292121887207 0.0 0.0 0.0
-29.99413299560547 39.2813835144043 -7.57128381729126 0.0 0.0 0.0
-21.969751358032227 4.457584381103516 -3.434169292449951 0.0 0.0 0.0
-21.957260131835938 3.6393816471099854 -3.4095702171325684 0.0 0.0 0.0
-22.292999267578125 27.118139266967773 -5.377834796905518 0.0 0.0 0.0
-21.94493865966797 2.831754684448242 -3.3896660804748535 0.0 0.0 0.0
-22.245824813842773 25.16114616394043 -5.144979000091553 0.0 0.0 0.0
-21.928781509399414 2.0320966243743896 -3.3737096786499023 0.0 0.0 0.0
-21.917789459228516 1.2392061948776245 -3.3629941940307617 0.0 0.0 0.0
-21.782630920410156 -7.6731462478637695 -3.5379252433776855 0.0 0.0 0.0
-21.9068546295166 0.45035868883132935 -3.35666561126709 0.0 0.0 0.0
-21.895946502685547 -0.3365650475025177 -3.354684352874756 0.0 0.0 0.0
-21.771310806274414 -8.56001091003418 -3.583745002746582 0.0 0.0 0.0
-21.873748779296875 -1.1229223012924194 -3.3553037643432617 0.0 0.0 0.0
-21.759672164916992 -9.471280097961426 -3.635516881942749 0.0 0.0 0.0
-21.862173080444336 -1.9115843772888184 -3.3618950843811035 0.0 0.0 0.0
